ply
format ascii 1.0
element vertex 1341
property float x
property float y
property float z
property uchar red
property uchar green
property uchar blue
end_header
129.418 170.308 110.312 255 252 247
141.194 71.9666 123.29 213 224 255
6.00644 149.345 113.881 182 206 255
151.278 81.3762 112.029 220 229 255
104.428 142.381 120.942 210 223 255
93.1849 175.788 111 223 231 255
169.863 136.555 109.818 255 251 245
24.3995 163.944 108.894 211 224 255
39.2731 167.81 108.04 207 221 255
190.193 83.3996 115.041 200 217 255
120.112 140.61 118.474 219 228 255
109.948 115.775 103.702 255 187 130
31.0439 68.6384 111.855 180 204 255
115.595 207.779 99.3577 195 214 255
92.9743 176.312 110.932 255 254 251
130.571 199.46 134.323 199 216 255
117.792 148.975 106.889 255 243 232
172.874 139.094 113.485 191 211 255
68.3985 50.7168 110.869 206 220 255
129.907 107.183 115.169 255 236 220
99.9072 109.498 106.882 255 249 242
59.8099 119.5 109.39 211 223 255
145.437 81.4818 108.347 255 223 198
104.212 105.031 108.306 255 224 200
108.751 117.414 108.459 255 232 213
105.326 123.137 116.935 255 188 133
93.9717 62.7503 116.344 193 213 255
127.153 50.5819 107.863 255 213 179
128.829 108.286 114.532 244 243 255
93.2241 175.694 110.977 203 219 255
118.613 140.507 107.194 231 235 255
23.2263 81.3398 114.908 206 221 255
14.8782 157.056 110.019 179 203 255
172.777 97.5235 112.854 250 246 255
142.574 147.483 113.332 206 221 255
122.865 208.646 110.55 185 207 255
115.911 117.371 108.962 255 237 221
151.489 105.631 119.641 255 244 233
58.1966 118.467 112.813 201 217 255
116.824 117.101 109.683 208 222 255
73.8659 114.404 105.653 255 241 228
163.545 94.1638 113.348 255 248 241
164.495 108.122 116.412 214 225 255
125.257 114.392 103.194 209 222 255
154.452 105.725 109.307 223 231 255
93.2056 175.699 111.012 201 217 255
146.863 139.114 118.084 205 220 255
146.241 96.9422 104.375 255 234 217
133.871 123.416 112.099 214 226 255
128.628 112.516 107.968 234 237 255
102.52 122.563 124.674 255 237 222
194.61 31.8004 114.588 196 214 255
87.5984 137.195 117.049 246 244 255
115.493 38.5238 109.612 216 227 255
70.9156 181.469 112.349 199 216 255
120.877 119.355 105.737 197 215 255
146.631 162.503 107.872 223 231 255
70.49 113.304 116.572 244 243 255
62.6666 47.684 110.567 177 202 255
143.232 147.283 119.965 197 215 255
8.10951 125.941 112.028 184 207 255
97.1006 77.8784 104.118 206 220 255
155.634 151.264 116.808 181 205 255
76.8782 123.317 105.295 255 251 245
148.659 166.052 112.931 222 230 255
72.7016 104.022 119.296 212 224 255
64.8189 22.606 110.602 180 204 255
123.285 119.178 109.794 222 230 255
107.057 110.356 124.105 218 228 255
119.566 188.388 113.065 225 232 255
106.274 86.3683 118.827 206 221 255
109.121 125.081 109.7 255 240 227
156.853 92.1133 113.451 222 230 255
181.773 191.407 115.839 189 210 255
102.425 105.845 105.955 255 233 216
100.024 121.316 103.928 255 232 213
157.488 15.7066 110.486 185 207 255
65.4198 164.117 110.95 204 220 255
50.011 104.385 108.245 202 218 255
115.978 116.912 107.331 255 212 179
92.0864 160.008 112.096 204 219 255
103.952 126.148 109.747 227 233 255
62.1272 130.21 110.527 194 213 255
118.343 157.28 116.052 196 215 255
67.7755 140.655 113.328 216 227 255
9.07239 148.241 108.488 183 206 255
127.215 117.2 121.452 255 253 248
83.8865 61.6958 114.246 199 216 255
115.625 13.8873 108.681 196 214 255
15.7133 78.6137 112.299 189 210 255
119.137 48.8851 113.301 201 217 255
142.836 160.931 109.522 254 249 255
39.5984 99.5983 113.086 208 222 255
92.7606 91.3992 106.707 255 24 0
90.8439 108.929 103.472 255 240 227
154.653 85.3085 110.978 255 238 224
128.3 129.49 113.376 255 236 219
93.1976 176.074 110.778 255 168 92
95.9329 162.837 121.274 247 245 255
212.194 105.788 112.355 188 210 255
55.4016 175.698 111.615 182 205 255
93.0741 175.72 111.103 195 214 255
121.867 157.885 113.098 255 236 221
44.915 44.2524 111.467 177 203 255
163.017 137.685 108.818 255 242 230
93.2334 175.676 110.995 208 222 255
109.087 117.673 105.781 255 202 160
34.1212 193.504 111.938 185 207 255
134.754 62.5847 121.525 230 235 255
91.6071 50.668 111.592 187 209 255
161.194 130.698 117.704 202 218 255
117.193 121.062 110.486 231 236 255
93.2152 175.706 111.001 214 225 255
149.246 97.6305 116.792 255 230 210
54.9829 120.608 104.376 219 228 255
88.9193 86.7895 117.477 189 210 255
161.365 148.79 109.889 202 218 255
166.41 115.956 111.011 188 209 255
117.112 72.3784 107.145 255 216 185
155.915 145.387 107.398 255 245 235
219.316 120.284 112.743 186 208 255
110.703 15.1153 113.882 181 205 255
11.6445 109.961 115.25 215 226 255
93.1802 79.7902 118.142 208 222 255
123.905 55.2097 115.519 255 229 207
12.5407 66.5781 112.529 184 207 255
137.149 95.9644 113.217 255 254 250
170.73 146.838 114.037 255 174 105
114.791 58.1315 112.719 207 221 255
118.745 110.503 113.986 255 227 204
100.815 95.8882 118.706 204 219 255
134.633 85.1122 118.524 255 222 196
181.624 134.789 112.478 199 216 255
93.2062 168.694 113.05 255 240 228
87.9345 115.171 103.463 255 218 188
70.1312 44.4484 109.267 197 215 255
198.179 62.3998 111.058 194 213 255
29.3463 126.533 117.319 183 206 255
154.803 85.4058 112.237 213 225 255
84.2442 116.722 121.634 228 234 255
117.47 111.276 123.196 255 200 155
153.03 88.0598 116.845 207 221 255
163.881 132.43 113.433 206 220 255
93.2129 175.71 111.001 255 214 182
162.192 180.23 117.832 201 217 255
134.742 85.9618 109.836 205 220 255
155.041 174.328 112.569 207 221 255
113.534 100.766 101.27 244 243 255
116.805 99.7555 112.482 211 224 255
132.034 182.807 109.232 213 225 255
93.021 25.6161 115.16 201 218 255
118.962 119.787 108.99 216 226 255
119.062 44.8626 111.864 197 215 255
111.205 117.659 102.804 255 210 173
49.9972 87.8652 113.511 205 220 255
61.9892 95.5802 108.613 217 227 255
123.985 58.4301 108.729 189 210 255
40.002 35.2412 109.781 181 205 255
155.203 143.479 109.877 216 226 255
116.417 96.2874 115.839 236 238 255
9.90736 148.714 115.534 190 211 255
132.82 80.0492 118.222 255 253 249
89.8993 57.957 111.55 207 221 255
114.421 54.4245 114.8 235 238 255
191.371 77.7369 108.752 191 211 255
75.5497 125.773 107.14 206 220 255
199.992 168.699 118.038 183 206 255
93.2401 175.636 111.019 204 219 255
199.001 66.956 114.544 224 231 255
107.528 106.229 117.407 215 226 255
191.1 67.3852 111.178 190 211 255
190.916 110.306 111.276 195 214 255
88.8283 146.538 120.963 242 242 255
46.9828 93.1972 112.698 199 216 255
92.6101 130.78 121.765 228 234 255
65.372 132.913 114.621 218 228 255
93.2853 175.763 110.954 181 205 255
45.0544 110.93 111.271 241 241 255
92.8843 175.445 111.528 255 252 247
86.8813 140.98 105.362 255 230 210
76.4185 146.905 114.392 234 237 255
92.4658 115.392 119.501 195 213 255
174.408 113.389 115.563 255 220 193
156.748 86.1698 106.072 206 221 255
91.9514 80.8484 118.39 255 222 196
51.3761 59.0428 109.505 255 255 251
133.368 67.9083 110.834 198 216 255
158.484 82.0817 116.584 206 220 255
117.948 121.72 104.472 255 245 235
103.114 163.767 109.877 215 226 255
160.003 171.096 111.632 206 221 255
160.504 81.2837 111.599 200 217 255
117.302 118.865 105.188 255 191 138
128.023 75.3233 111.025 204 220 255
124.283 135.249 108.508 225 232 255
132.523 135.697 112.077 231 235 255
124.294 187.338 105.853 197 215 255
117.207 6.15361 111.7 190 211 255
121.275 117.428 111.131 255 206 166
49.1086 35.7036 109.98 193 212 255
86.3103 110.907 114.904 255 223 197
12.6117 83.8351 116.88 182 206 255
174.978 83.7479 114.83 200 217 255
93.1983 175.735 111.005 226 232 255
109.239 109.668 120.694 255 205 165
113.563 148.682 113.389 241 241 255
116.158 112.247 117.051 211 224 255
124.657 168.307 113.413 255 239 225
83.0618 100.573 117.863 231 235 255
88.0211 201.832 110.255 192 212 255
27.7961 141.332 111.246 184 207 255
102.454 107.141 118.864 213 225 255
27.6443 66.5021 113.207 178 203 255
102.227 153.786 111.627 255 249 241
95.3593 25.4479 112.89 204 219 255
194.574 145.802 114.282 188 209 255
133.774 169.343 112.291 255 249 241
118.032 55.8657 119.088 255 249 242
53.764 92.8644 116.102 194 213 255
85.4695 86.7817 119.07 196 214 255
105.932 76.8668 111.903 211 223 255
139.394 50.1559 109.497 237 239 255
72.6602 78.1185 114.98 200 217 255
95.6091 127.048 105.492 255 233 214
145.602 11.099 96.7685 181 205 255
146.798 190.703 113.105 188 210 255
54.9954 203.929 114.224 183 206 255
163.52 93.7608 111.385 199 216 255
109.449 104.715 100.904 217 227 255
76.7188 82.9509 104.804 225 232 255
66.9505 91.4125 112.982 216 226 255
83.7212 82.4976 107.744 253 248 255
107.184 117.519 123.331 255 251 255
67.0782 112.502 106.642 207 221 255
171.892 111.526 109.744 197 215 255
83.7966 87.4429 112.277 237 239 255
177.78 56.7866 108.595 244 243 255
93.2639 175.63 110.987 193 212 255
138.214 53.1194 114.728 206 221 255
93.2027 175.723 111.015 243 242 255
72.0403 76.1873 114.525 200 217 255
109.946 114.947 122.56 255 226 202
154.932 110.042 113.056 220 229 255
120.06 124.61 103.495 238 239 255
134.663 123.921 107.019 234 237 255
125.072 119.533 111.583 255 244 233
84.7116 146.003 114.05 207 221 255
166.599 154.257 130.814 200 217 255
118.241 148.519 109.67 215 226 255
106.446 121.808 110.709 255 235 219
78.5854 148.43 114.959 204 219 255
116.015 104.174 119.788 255 250 244
79.3385 141.813 116.638 200 217 255
68.0143 88.5849 111.501 219 228 255
144.641 113.588 104.327 201 217 255
27.8124 125.284 113.584 185 208 255
110.445 107.448 122.411 255 251 246
106.025 81.9821 120.376 255 210 175
72.6491 215.053 106.498 195 213 255
163.524 143.136 115.419 218 228 255
79.3183 140.367 110.812 199 216 255
60.6573 68.7655 110.208 196 214 255
158.499 13.5824 110.92 205 220 255
57.6703 115.503 111.8 194 213 255
66.2655 57.9904 116.221 188 209 255
166.464 134.674 114.302 195 214 255
103.026 41.531 113.54 201 217 255
152.289 192.799 118.011 189 210 255
161.828 110.661 108.8 192 212 255
109.01 102.419 103.274 239 240 255
155.463 89.2411 114.973 191 211 255
122.525 117.416 100.851 255 161 75
162.891 118.698 117.134 190 210 255
99.0671 76.0719 110.128 210 223 255
69.7446 44.0774 108.876 215 226 255
64.0892 36.5051 110.815 194 213 255
89.7504 122.437 114.077 255 250 243
93.4389 175.594 111.226 188 210 255
185.431 99.4528 112.629 201 217 255
150.901 79.7838 112.887 241 241 255
100.642 81.6747 112.579 235 237 255
83.706 33.2352 112.128 192 212 255
40.2134 190.883 112.938 188 210 255
115.971 71.2518 108.065 198 215 255
40.4865 108.636 130.976 192 212 255
20.9447 87.9719 114.424 216 227 255
83.5877 175.416 110.749 211 224 255
108.999 181.067 110.701 206 220 255
43.1106 80.4485 111.415 189 210 255
71.1064 134.522 106.473 255 223 198
79.9817 61.3231 109.601 255 238 223
129.94 126.384 111.554 255 184 124
207.862 46.503 111.939 191 211 255
112.83 120.267 119.968 197 215 255
116.524 79.015 108.432 213 225 255
61.5905 71.7055 109.938 190 211 255
89.4056 122.561 120.923 241 241 255
133.915 95.112 109.895 201 217 255
67.6145 86.2541 116.632 255 250 255
120.568 91.954 105.701 255 238 224
168.947 54.5569 115.081 208 222 255
155.911 189.063 111.934 193 212 255
165.909 98.0509 111.765 192 212 255
116.553 54.5122 117.154 200 217 255
82.7447 108.808 109.43 237 239 255
93.1239 176.726 112.304 205 220 255
34.1093 63.1421 109.59 189 210 255
115.099 135.685 119.21 224 231 255
110.9 123.698 106.074 232 236 255
113.116 181.895 111.171 209 222 255
113.071 108.672 118.444 255 191 138
103.721 178.395 109.38 192 212 255
48.2832 111.417 107.662 187 209 255
77.5996 95.7899 121.976 255 248 240
193.278 178.247 115.018 201 217 255
103.201 25.3745 112.044 217 227 255
62.7988 49.8223 112.126 199 216 255
134.324 78.2173 106.869 255 229 208
124.575 83.2592 103.367 255 250 243
24.2199 89.6589 115.306 195 214 255
125.079 127.595 110.949 231 235 255
110.816 119.589 106.645 255 241 229
131.818 111.663 110.857 255 249 243
153.749 98.9899 109.054 203 219 255
144.921 77.1674 112.717 255 250 243
120.584 153.071 107.91 255 245 235
123.59 98.7727 118.614 255 230 210
91.7988 65.1062 111.003 194 213 255
142.74 55.8162 117.423 225 232 255
122.319 146.394 111.814 222 230 255
95.7457 152.447 118.526 248 245 255
108.526 182.576 111.584 187 209 255
137.803 72.0273 120.421 201 218 255
116.417 80.0006 103.634 255 254 251
117.887 132.544 116.313 255 250 255
61.9031 87.9919 114.487 235 237 255
103.23 106.055 120.068 209 222 255
133.561 208.793 114.768 192 212 255
72.4204 78.4282 117.505 213 225 255
183.428 34.9309 114.199 204 219 255
106.189 132.041 109.243 255 229 207
104.231 108.376 116.072 255 112 0
125.688 69.1127 110.415 243 242 255
90.5111 62.409 106.224 208 222 255
128.959 175.1 107.197 225 232 255
94.7597 123.594 101.695 255 227 204
108.63 114.26 124.789 213 225 255
90.0628 131.66 102.427 255 255 251
192.154 72.7422 110.387 186 208 255
126.925 106.347 121.408 255 210 175
111.428 148.621 113.831 255 221 195
39.8068 148.083 111.42 199 216 255
110.565 135.216 121.768 203 219 255
111.637 114.165 98.8879 244 243 255
53.5569 157.96 115.524 185 207 255
109.426 96.8403 106.175 255 255 252
115.364 160.303 114.469 215 226 255
85.2535 56.5852 109.893 209 222 255
127.447 130.055 108.111 255 234 217
108.345 82.8656 105.445 211 223 255
98.5852 148.587 109.471 255 253 248
31.4171 67.6515 111.793 193 213 255
147.442 181.644 111.454 198 215 255
114.345 146.576 108.452 245 243 255
121.479 101.411 110.163 255 220 191
37.9531 111.73 110.277 197 215 255
123.941 149.972 105.748 222 230 255
160.751 110.363 108.252 213 224 255
187.744 36.1754 111.879 186 208 255
151.666 88.7761 108.71 231 235 255
124.143 199.836 112.95 187 209 255
141.985 110.962 118.194 255 249 242
5.12655 131.941 110.793 189 210 255
105.47 66.7786 110.551 193 213 255
160.128 120.103 115.177 223 231 255
121.315 136.115 118.454 255 254 250
102.063 76.1241 110.596 255 241 229
21.315 170.928 109.846 210 223 255
122.403 158.133 118.231 244 243 255
146.802 58.4789 110.053 220 229 255
114.234 141.417 109.22 198 216 255
72.3142 58.1951 109.357 251 247 255
124.175 74.3658 112.129 208 222 255
104.491 164.051 113.466 255 230 210
63.0941 161.272 113.374 202 218 255
121.973 82.7862 108.334 224 231 255
104.622 103.057 106.429 218 228 255
66.3027 128.809 112.186 224 231 255
140.282 146.366 110.552 205 220 255
51.6367 179.987 110.252 192 212 255
183.54 25.8609 111.475 184 207 255
159.505 70.5916 113.202 255 251 255
162.423 90.9407 111.738 211 224 255
101.702 54.1507 108.005 213 225 255
111.935 79.9614 110.148 210 223 255
171.281 73.8736 116.196 245 243 255
197.378 151.844 113.303 198 215 255
149.677 183.023 116.523 240 240 255
129.482 105.756 111.258 255 230 210
120.66 108.79 119.725 220 229 255
89.647 96.0614 111.781 250 246 255
95.8619 159.508 120.546 214 226 255
109.682 162.596 114.725 201 218 255
83.6449 148.75 116.207 196 215 255
124.678 30.922 108.684 196 214 255
137.957 150.64 115.221 240 240 255
94.3723 205.113 111.512 175 201 255
112.323 99.3755 122.089 209 222 255
118.093 117.409 102.142 255 252 247
123.643 103.051 115.484 234 237 255
107.118 181.959 111.216 187 209 255
72.9038 212.938 118.176 200 217 255
86.3113 81.1046 114.48 193 213 255
93.1966 175.663 111.045 236 238 255
91.2498 203.134 111.951 252 247 255
147.413 36.588 113.829 188 210 255
68.6747 135.298 113.346 205 220 255
126.016 102.518 110.748 255 233 215
143.055 90.0215 113.937 255 194 144
168.808 103.937 111.527 191 211 255
134.448 62.5358 118.964 209 222 255
117.374 129.751 119.928 255 197 151
114.249 80.2742 120.312 204 220 255
201.248 162.217 111.452 255 227 204
59.0513 106.137 114.481 193 212 255
116.775 121.239 108.035 255 244 233
216.506 150.397 109.732 195 214 255
100.487 103.576 112.323 225 232 255
214.553 157.117 113.404 188 209 255
104.948 56.0076 111.591 190 210 255
83.2236 123.952 103.114 209 223 255
85.5242 93.6568 109.902 210 223 255
52.7454 104.007 110.192 209 222 255
93.2246 175.57 111.035 189 210 255
86.1166 55.0081 113.5 207 221 255
93.2332 175.684 110.991 206 221 255
85.3594 40.5554 112.173 204 219 255
74.3674 163.268 123.089 255 235 218
104.723 122.692 109.074 255 217 187
111.02 126.256 104.513 255 249 242
174.416 55.8938 112.272 224 231 255
144.872 79.2338 113.754 251 247 255
39.9251 149.863 110.768 187 209 255
79.6736 86.3207 120.099 255 249 242
118.797 138.821 109.569 199 216 255
93.5225 94.3121 113.45 212 224 255
86.5045 141.233 116.581 214 225 255
139.667 65.9595 118.282 214 226 255
105.96 24.1189 111.643 177 202 255
13.7132 75.4153 114.377 188 210 255
151.312 122.686 111.166 255 215 184
70.4571 87.8757 116.981 235 237 255
37.2122 112.718 113.498 201 217 255
104.236 92.1149 104.145 255 251 245
120.486 112.381 123.833 197 215 255
125.681 135.27 111.845 224 231 255
120.52 90.9858 121.772 255 225 200
50.2457 111.734 112.62 209 223 255
106.334 208.596 110.972 203 219 255
103.538 94.6039 120.604 218 228 255
92.8136 176.251 110.78 255 254 251
36.1439 108.867 108.538 202 218 255
44.9262 116.19 109.038 205 220 255
120.562 34.5512 112.32 222 230 255
100.648 105.493 115.468 255 251 246
107.217 177.813 111.244 255 247 239
148.849 107.641 122.05 198 215 255
111.509 72.2042 111.152 212 224 255
110.962 98.6938 106.861 241 241 255
88.6432 138.666 106.104 253 248 255
141.621 93.9165 108.014 213 225 255
113.64 132.505 120.841 255 180 117
109.084 96.0181 104.697 255 162 78
89.9067 95.7709 112.063 255 250 255
73.0298 134.934 110.318 255 253 249
109.119 109.375 103.803 250 246 255
94.3295 124.861 104.466 220 229 255
93.8161 141.556 111.903 220 229 255
112.593 96.0709 119.711 255 249 242
82.2061 87.1542 113.648 230 235 255
178.59 57.5146 114.055 201 218 255
186.785 65.1689 113.074 180 204 255
205.905 51.3968 109.043 182 205 255
111.954 118.092 109.149 220 229 255
111.047 192.756 112.269 201 217 255
81.6064 54.0419 108.774 222 230 255
109.081 83.8358 101.681 196 214 255
106.221 64.6713 117.817 251 247 255
90.3802 120.2 121.134 255 249 242
74.5954 59.7763 114.959 239 240 255
56.2652 114.265 110.196 255 252 246
74.4684 39.3008 111.885 194 213 255
67.2416 135.078 100.464 186 208 255
88.1138 70.7722 111.008 207 221 255
96.7943 130.595 108.321 255 217 187
223.097 99.0167 112.065 203 219 255
107.221 177.706 110.976 201 218 255
103.26 136.961 112.72 255 247 238
104.25 35.1066 113.678 208 221 255
100.833 144.724 115.749 210 223 255
116.69 102.906 113.778 255 228 206
106.877 106.331 106.14 214 225 255
180.009 82.3865 108.19 193 213 255
51.7539 152.57 116.632 199 216 255
114.74 111.178 116.042 255 249 242
112.073 181.655 109.869 206 221 255
33.7043 156.512 113.162 187 209 255
135.27 192.269 105.295 195 214 255
116.391 104.835 100.42 255 251 246
93.1685 176.602 110.914 210 223 255
102.323 85.0968 118.94 255 248 241
166.06 167.922 119.411 207 221 255
103.683 149.312 114.651 255 253 249
97.178 139.736 104.243 226 232 255
50.9127 93.0112 113.03 210 223 255
158.175 112.627 112.852 255 220 192
115.008 126.644 116.124 207 221 255
101.258 14.2402 112.24 185 207 255
78.1871 126.574 117.034 196 214 255
46.8793 172.704 111.412 199 216 255
113.18 104.09 104.033 255 245 236
139.752 178.977 114.24 201 218 255
62.3596 99.27 117.892 209 222 255
152.753 67.5886 107.854 233 236 255
105.391 102.946 112.967 212 224 255
88.0127 99.64 106.569 235 238 255
81.1967 139.505 116.232 249 246 255
62.7506 144.807 112.309 197 215 255
115.632 113.384 104.902 214 225 255
167.931 159.596 109.842 200 217 255
200.741 167.797 109.432 190 211 255
54.442 136.065 124.844 214 225 255
126.761 141.418 111.242 201 217 255
136.172 121.022 103.001 216 227 255
23.6203 74.0135 110.917 184 207 255
89.5355 89.9087 110.916 255 237 221
184.539 118.59 115.439 192 212 255
109.692 144.429 107.24 255 193 143
117.675 102.802 110.64 255 246 237
105.367 84.7053 108.353 201 218 255
105.751 129.403 104.75 195 214 255
93.1567 175.608 111.053 238 239 255
164.511 167.574 111.33 193 212 255
124.555 128.829 111.855 196 214 255
112.916 87.8234 106.492 235 237 255
78.2777 103.451 105.699 248 245 255
137.634 160.38 115.724 201 217 255
98.4075 202.058 99.7651 182 206 255
93.2079 175.704 111.018 255 221 194
35.7088 161.018 110.045 192 212 255
117.133 145.759 108.414 255 228 206
98.4083 41.8163 114.014 197 215 255
95.5981 114.41 121.142 209 222 255
93.2138 175.71 111 220 229 255
97.7869 86.7606 121.763 255 207 168
102.726 163.573 105.706 255 233 215
50.1577 85.7414 112.901 209 223 255
101.722 111.132 118.751 255 250 255
17.1854 135.023 115.228 180 204 255
111.021 86.3422 103.425 255 245 236
116.738 133.291 111.436 226 233 255
93.1901 175.461 110.797 200 217 255
155.371 67.1012 110.269 192 212 255
122.676 56.6206 112.059 209 222 255
120.679 173.386 112.24 213 225 255
112.312 104.794 118.966 255 241 229
121.658 118.109 115.589 207 221 255
106.508 96.4387 116.301 231 235 255
129.204 146.553 110.173 255 200 156
121.231 99.6519 122.25 201 217 255
75.1912 49.7394 113.536 197 215 255
82.6841 50.4102 111.271 209 222 255
46.4371 125.572 116.972 200 217 255
83.1529 149.085 112.057 255 238 223
124.093 142.676 111.562 255 175 105
154.214 145.369 106.622 223 231 255
93.1718 92.2566 111.16 255 244 234
118.338 151.389 116.204 201 218 255
80.6873 151.35 115.235 220 229 255
163.595 58.7609 110.094 255 202 159
105.522 135.729 114.564 217 227 255
116.603 149.686 111.2 240 241 255
202.117 138.776 110.095 200 217 255
116.096 103 106.527 255 224 198
83.3854 215.734 111.659 185 207 255
74.8035 26.0224 114.132 175 201 255
77.6216 152.641 113.126 206 221 255
112.04 136.639 106.48 255 238 223
160.746 64.4127 113.73 193 212 255
88.1632 163.376 115.3 201 218 255
111.923 201.762 125.116 184 207 255
70.341 82.9236 117.77 199 216 255
98.5302 113.451 111.005 255 250 255
121.132 166.955 111.926 213 225 255
64.3082 173.86 108.972 190 210 255
93.2491 175.063 111.108 219 228 255
71.0255 146.248 112.517 218 228 255
206.897 97.0245 111.632 192 212 255
32.129 149.797 111.54 200 217 255
116.514 105.966 114.988 255 69 0
108.463 85.2462 105.968 222 230 255
154.581 86.0282 115.109 193 213 255
158.919 54.1443 114.424 189 210 255
92.4156 212.702 101.384 186 208 255
99.2243 79.4779 113.436 224 231 255
114.511 122.375 122.609 218 227 255
145.891 170.925 110.109 204 219 255
123.09 166.065 115.691 197 215 255
82.0923 18.0065 125.624 215 226 255
121.195 95.0619 112.944 216 227 255
124.734 71.655 109.355 210 223 255
1.0342 116.757 109.958 183 206 255
156.568 140.357 111.802 233 237 255
100.531 124.068 117.252 237 239 255
33.1134 145.127 115.624 190 211 255
180.746 147.209 114.508 192 212 255
70.195 97.5608 105.148 213 225 255
98.6343 159.429 121.463 255 250 255
70.5277 78.8114 115.65 202 218 255
62.3593 36.1031 112.929 177 202 255
192.106 140.541 109.959 192 212 255
97.6988 175.039 109.902 189 210 255
203.255 140.781 113.689 208 222 255
139.645 109.693 103.375 255 249 241
56.2216 178.097 110.337 190 210 255
49.1916 34.058 110.096 203 219 255
134.576 147.826 110.724 255 230 209
116.298 159.466 110.546 188 210 255
129.524 188.282 119.13 204 219 255
93.2156 175.707 111.009 239 240 255
132.892 95.3591 108.756 255 237 221
109.207 90.5315 109.365 255 230 210
134.079 69.1933 115.401 255 253 249
180.561 123.087 113.447 209 222 255
123.84 71.9658 115.937 196 215 255
203.38 162.225 112.562 198 216 255
50.5598 108.88 115.194 209 222 255
100.486 82.827 108.65 255 204 163
145.428 139.927 113.675 208 222 255
183.427 147.218 116.067 191 211 255
60.2418 130.588 109.243 204 219 255
114.984 113.034 115.595 231 235 255
110.762 118.023 110.157 255 182 121
100.02 182.272 110.028 194 213 255
113.184 146.742 112.708 215 226 255
148.931 103.133 116.155 209 222 255
115.918 109.589 125.276 201 217 255
119.984 103.675 113.68 255 105 0
93.2646 175.619 110.992 255 250 244
198.917 53.5379 112.106 188 210 255
69.752 136.284 116.199 233 236 255
182.408 72.45 115.253 183 206 255
43.9381 109.369 112.79 233 236 255
128.531 108.733 116.989 255 185 126
171.61 33.9872 112.085 186 208 255
131.341 101.848 108.278 246 244 255
149.699 17.5995 110.975 202 218 255
141.061 13.2922 112.911 179 204 255
32.4012 183.577 111.483 183 206 255
93.1813 175.589 111.036 255 243 231
33.6459 96.9125 115.086 200 217 255
158.577 118.409 112.307 219 228 255
167.695 14.5048 113.9 195 214 255
128.18 122.65 107.223 255 252 248
92.1717 117.297 118.466 189 210 255
151.847 78.98 107.112 210 223 255
50.6924 100.091 114.12 229 234 255
102.203 106.711 105.401 228 233 255
150.861 115.586 115.954 252 247 255
150.894 30.0159 111.688 231 235 255
166.2 122.309 123.102 196 214 255
113.567 104.443 122.931 255 253 249
183.405 180.515 113.798 187 209 255
90.354 116.93 109.534 202 218 255
54.5708 82.8573 112.649 190 211 255
137.457 60.7541 108.652 223 231 255
80.5241 202.585 111.164 187 209 255
58.1618 210.188 108.999 178 203 255
75.4246 121.955 109.55 255 230 210
70.7842 198.556 115.203 195 214 255
38.9882 49.9575 114.206 180 204 255
88.7188 97.9698 114.987 255 216 185
110.862 129.861 115.564 232 236 255
112.206 120.624 108.032 214 225 255
61.3742 108.656 115.243 198 216 255
121.338 67.0296 116.807 203 219 255
169.751 129.491 113.855 213 225 255
49.6033 75.8712 113.38 190 211 255
94.795 169.309 116.302 255 233 215
109.035 122.981 101.639 255 225 201
158.303 114.662 116.657 228 233 255
50.8674 124.123 112.53 208 222 255
93.1955 175.732 111.006 215 226 255
69.631 115.738 114.934 255 253 249
68.4908 56.5813 109.69 194 213 255
148.292 55.0336 114.179 193 212 255
63.5042 138.925 112.849 233 236 255
77.6295 147.04 112.579 197 215 255
211.282 119.282 112.973 191 211 255
152.384 93.7656 107.393 214 225 255
73.2781 107.583 109.308 255 251 255
52.7112 24.4319 114.511 188 209 255
144.142 126.572 112.612 220 229 255
98.876 85.8931 106.345 255 250 243
88.6417 129.555 120.893 255 245 236
93.1985 175.58 111.014 237 239 255
114.18 172.323 111.523 255 251 246
158.643 134.876 110.797 223 231 255
107.825 114.453 120.457 255 199 153
112.811 99.0397 120.522 238 239 255
72.3512 76.4103 109.848 255 254 250
164.535 169.738 116.57 194 213 255
116.261 125.328 109.297 255 238 224
96.1611 114.114 116.502 205 220 255
93.5521 102.992 115.566 255 209 173
98.5464 100.198 101.378 216 227 255
135.726 159.655 115.14 219 228 255
65.2067 67.7876 112.76 209 223 255
151.617 163.609 117.692 198 215 255
109.341 114.204 109.4 255 206 167
93.2241 175.665 110.983 217 227 255
171.166 65.2336 115.457 186 208 255
184.961 136.161 104.978 215 226 255
117.026 78.1191 115.096 255 251 246
158.733 62.005 114.07 197 215 255
93.2502 137.31 111.788 247 245 255
157.623 129.591 106.323 236 238 255
80.3576 117.633 115.712 255 245 236
101.5 103.808 101.449 255 212 178
67.5846 146.356 108.905 195 214 255
204.595 61.9231 113.723 192 212 255
127.207 194.507 116.621 187 209 255
113.249 75.7697 116.933 207 221 255
130.265 144.649 110.333 201 217 255
213.98 71.7823 113.864 197 215 255
49.2398 106.823 112.347 200 217 255
105.816 115.343 97.1394 248 245 255
58.2308 207.578 108.837 188 209 255
143.033 167.429 106.931 255 254 250
93.9161 175.084 110.479 207 221 255
36.6062 199.357 113.133 177 203 255
93.2028 175.749 111.008 190 211 255
125.707 97.6208 104.856 200 217 255
115.915 2.91274 113.885 189 210 255
52.2329 116.09 113.677 189 210 255
182.689 75.1133 115.357 206 220 255
148.738 132.368 119.725 204 220 255
99.3421 102.747 115.622 255 219 191
174.588 123.286 114.169 234 237 255
49.2876 123.909 122.967 202 218 255
53.1008 75.304 111.609 246 244 255
37.0653 132.328 114.9 214 225 255
125.697 96.1249 114.912 255 223 198
65.9166 102.205 120.434 222 230 255
111.723 76.6694 115.175 255 247 239
121.252 112.544 110.048 221 230 255
26.2938 110.394 112.519 202 218 255
59.0685 214.274 111.232 187 209 255
85.862 210.224 116.196 192 212 255
95.2047 92.4639 111.141 239 240 255
114.53 104.301 117.885 255 252 247
101.218 125.293 104.293 255 201 158
148.486 63.3601 113.491 255 241 228
146.691 199.632 111.873 184 207 255
107.685 115.448 97.9214 255 195 147
103.732 80.7365 117.303 220 229 255
122.822 111.087 104.294 255 200 156
90.9112 126.073 108.481 255 254 250
155.478 98.5315 111.074 192 212 255
91.1562 42.3012 112.371 255 249 255
61.4865 51.0554 108.28 202 218 255
119.511 77.5715 113.463 207 221 255
111.839 155.281 110.707 224 231 255
119.876 58.4189 107.668 197 215 255
110.892 41.294 109.91 203 219 255
93.1967 175.137 111.17 213 224 255
120.842 110.695 102.032 255 221 193
169.319 154.359 112.775 194 213 255
115.465 23.3374 115.224 185 208 255
179.389 101.357 108.711 255 232 213
3.62322 117.069 111.743 186 208 255
127.994 80.8094 115.767 238 239 255
20.8782 78.3716 114.626 181 205 255
108.213 97.188 111.755 209 222 255
130 110.639 110.443 240 240 255
101.735 174.881 110.338 193 213 255
186.248 118.153 107.579 193 213 255
143.679 131.778 116.919 210 223 255
75.5346 110.81 105.062 255 247 239
76.6423 109.21 105.689 219 228 255
166.447 110.857 115.369 246 244 255
101.222 185.849 110.288 187 209 255
149.899 189.718 111.6 224 231 255
73.7828 144.633 115.027 204 219 255
76.7508 130.913 112.929 255 253 249
93.2333 175.638 110.972 209 222 255
65.6971 95.0296 111.341 211 223 255
95.5063 171.334 113.27 219 228 255
30.2921 180.922 113.442 182 206 255
143.571 72.5067 116.975 255 207 168
3.3729 132.167 111.799 188 209 255
131.837 140.273 109.336 255 250 243
110.809 117.901 107.109 255 248 240
5.66569 119.7 113.863 192 212 255
114.245 116.098 104.487 255 245 235
176.621 60.9804 114.394 181 205 255
73.1964 42.8518 105.729 181 205 255
143.114 106.002 122.36 255 246 238
151.896 117.809 103.754 230 235 255
148.201 95.2902 110.23 209 222 255
166.31 172.099 111.159 197 215 255
37.102 88.1374 112.365 194 213 255
93.23 175.683 111.015 189 210 255
83.4295 116.821 118.069 255 211 177
183.01 121.859 111.761 195 214 255
80.928 129.461 144.842 196 215 255
139.157 121.188 110.484 209 222 255
50.3569 84.0612 108.15 192 212 255
37.9087 112.618 115.703 196 215 255
93.4074 174.784 110.862 248 245 255
71.5759 79.0632 106.402 255 249 241
57.1791 114.016 108.78 201 217 255
162.307 98.92 111.186 198 216 255
81.8568 145.96 112.881 210 223 255
212.652 119.454 116.231 200 217 255
104.832 125.691 120.05 255 171 98
109.875 110.998 128.12 255 193 143
111.678 76.1552 105.407 210 223 255
129.204 74.0716 112.373 214 226 255
87.2391 74.1835 105.493 198 215 255
96.2208 175.215 110.299 186 208 255
134.976 124.803 115.209 255 172 99
48.3415 97.4518 120.705 226 232 255
120.875 118.738 113.779 255 254 250
26.6315 94.0719 109.345 190 211 255
168.758 159.946 112.468 199 216 255
98.7405 74.8212 107.909 218 228 255
111.384 165.962 110.175 255 249 242
188.948 113.495 113.972 205 220 255
13.1607 110.221 111.709 191 211 255
93.1944 176.057 110.894 255 246 236
142.425 72.3227 126.997 255 251 246
102.014 110.793 113.832 255 219 191
12.6939 75.1312 115.24 192 212 255
113.692 147.727 111.992 233 237 255
93.1504 175.542 111.097 199 216 255
112.007 125.102 124.157 255 229 209
111.9 132.466 106.844 255 230 209
67.3836 123.62 105.726 249 245 255
78.3208 211.22 104.316 181 205 255
113.357 102.871 110.084 255 252 246
131.51 64.5991 116.282 188 210 255
100.867 93.071 118.149 198 216 255
36.9118 85.4756 111.116 194 213 255
106.828 139.305 109.636 209 222 255
70.1511 134.361 109.017 197 215 255
118.175 99.3699 108.257 252 247 255
90.9868 84.8043 119.51 241 241 255
107.613 98.1169 110.33 209 222 255
123.143 144.816 112.059 213 225 255
190.203 187.285 113.928 179 204 255
109.827 155.136 115.899 205 220 255
87.5199 144.353 118.969 216 226 255
182.94 117.304 112.04 209 222 255
89.1377 39.6052 114.425 189 210 255
182.472 91.8895 110.558 190 211 255
195.724 134.733 112.79 200 217 255
112.155 105.133 105.574 255 241 228
164.71 55.2926 109.361 191 211 255
111.332 179.891 110.962 192 212 255
93.2339 175.708 110.981 221 229 255
130.636 135.806 119.494 224 231 255
84.6084 125.839 107.387 255 209 172
77.3559 120.606 105.643 216 226 255
56.9782 133.392 112.617 190 211 255
123.547 113.037 118.77 255 224 199
96.3154 172.172 109.478 211 224 255
182.467 52.6228 115.192 202 218 255
23.2221 102.552 108.953 188 209 255
71.4426 108.434 113.869 220 229 255
163.691 85.5034 106.49 201 218 255
125.765 126.367 118.217 220 229 255
93.4437 176.337 110.994 203 219 255
145.608 113.75 113.257 255 224 200
150.871 150.862 115.218 208 221 255
124.759 151.754 117.051 209 222 255
111.693 131.97 107.253 255 243 232
111.705 152.506 112.367 210 223 255
153.134 196.228 114.888 181 205 255
98.5211 118.703 102.749 201 218 255
27.4093 127.403 113.711 184 207 255
142.07 9.26235 111.601 210 223 255
104.864 115.304 122.457 255 230 209
91.2652 100.458 112.265 204 220 255
103.646 144.75 108.657 198 216 255
115.541 134.82 118.532 255 249 242
87.6738 81.3255 104.361 223 231 255
189.198 87.2428 111.57 211 223 255
8.00998 102.099 111.497 179 203 255
83.4114 155.216 113.073 255 252 248
146.888 131.551 110.337 255 249 243
96.0087 57.1068 108.175 203 219 255
117.547 125.773 111.103 209 222 255
93.229 175.745 111.005 218 228 255
105.133 114.511 119.912 255 224 199
104.669 54.7546 111.882 246 244 255
109.113 120.586 117.551 242 241 255
117.777 124.077 105.15 255 252 247
136.208 61.0624 117.848 237 239 255
137.089 67.3566 118.042 202 218 255
114.709 197.197 109.526 188 209 255
46.3019 89.2229 113.08 192 212 255
134.679 152.011 110.12 208 222 255
146.412 78.4386 115.704 215 226 255
105.359 152.008 112.993 252 247 255
132.865 89.179 122.184 252 247 255
122.815 79.2947 114.968 255 224 198
211.312 59.3898 115.04 186 208 255
111.436 121.091 115.617 255 211 176
205.13 137.597 111.395 205 220 255
111.298 117.61 109.937 255 120 0
90.4782 136.865 114.429 255 247 239
94.7954 142.539 103.722 194 213 255
100.944 113.836 108.095 253 248 255
132.105 52.345 109.456 213 225 255
93.2128 175.706 110.999 219 228 255
99.4294 88.9936 117.705 255 196 148
91.2049 159.757 115.869 191 211 255
65.1752 83.2809 109.845 211 224 255
180.345 105.227 112.259 197 215 255
163.77 165.588 110.569 204 219 255
187.695 103.058 114.324 185 207 255
112.272 104.313 116.336 241 241 255
78.1237 198.366 111.489 184 207 255
93.2179 175.717 111.003 211 224 255
60.7511 123.819 111.14 243 242 255
103.297 87.775 117.402 255 244 234
107.041 109.522 125.306 255 242 229
98.7299 109.36 102.493 255 211 177
76.2788 144.992 111.239 255 251 246
113.77 101.306 112.618 194 213 255
93.8686 112.457 101.382 240 240 255
99.9611 101.553 114.287 255 234 217
134.97 131.719 121.075 206 221 255
108.556 128.282 121.134 255 212 177
155.626 95.6334 106.959 207 221 255
108.788 102.97 122.516 255 229 209
168.128 118.643 108.776 182 205 255
136.196 92.3256 107.702 216 226 255
91.0168 69.5869 111.68 220 229 255
197.634 41.3333 111.047 176 202 255
43.5508 54.9414 112.343 183 206 255
101.633 80.0374 112.304 255 219 191
139.496 92.7984 117.077 193 212 255
203.256 73.3806 116.452 183 206 255
170.423 78.3006 114.472 218 228 255
103.207 61.3788 118.534 255 249 242
125.041 74.9043 114.164 255 248 240
129.929 107.221 107.856 255 209 172
93.4229 175.854 111.028 217 227 255
73.992 88.1591 117.767 201 217 255
145.433 80.437 110.006 210 223 255
116.978 141.264 112.174 233 237 255
126.281 113.058 108.419 255 222 195
207.032 101.572 113.067 208 221 255
119.221 119.226 112.504 255 217 186
111.129 173.085 110.448 227 233 255
184.958 61.9967 110.323 246 244 255
106.237 147.26 105.157 255 237 221
73.5893 96.0772 108.737 232 236 255
96.4536 122.882 104.916 249 245 255
76.0817 88.3102 119.588 232 236 255
105.663 177.229 110.621 190 211 255
102.308 43.9631 113.587 196 214 255
12.6475 131.99 110.597 227 233 255
113.442 143.79 109.147 247 244 255
5.38445 143.967 115.642 201 217 255
149.167 164.582 111.07 204 219 255
118.614 48.5486 117.15 251 247 255
146.003 60.114 114.977 214 225 255
112.845 100.529 100.129 245 243 255
104.109 116.851 108.471 255 247 239
79.7448 213.564 116.409 191 211 255
148.599 42.4356 112.129 186 208 255
86.1743 79.8236 113.379 212 224 255
168.154 111.085 113.808 248 245 255
104.329 106.898 99.8408 255 231 211
118.964 98.1185 108.641 218 228 255
105.247 110.548 118.223 255 180 117
118.345 110.236 118.69 220 229 255
131.634 108.378 108.833 213 225 255
58.0577 128.303 112.991 196 214 255
160.845 90.4565 121.293 223 230 255
98.5793 172.389 115.113 200 217 255
138.288 31.1006 111.856 195 214 255
78.5022 78.1039 115.595 208 221 255
73.1354 95.0331 116.014 210 223 255
93.2289 175.632 110.975 255 254 251
142.285 129.505 106.134 212 224 255
146.024 73.0817 112.897 185 208 255
93.22 175.731 110.987 207 221 255
138.885 92.2713 114.502 207 221 255
68.9264 136.4 111.384 255 248 240
130.212 85.9655 106.651 255 175 107
111.56 97.9668 105.987 199 216 255
155.595 85.9288 113.803 213 225 255
77.3331 137.417 112.022 255 219 190
112.032 66.2393 114.912 239 240 255
120.514 117.188 107.343 229 234 255
109.157 129.083 109.838 255 211 176
86.7924 85.0652 104.577 220 229 255
94.4276 123.926 103.883 221 229 255
179.702 127.498 113.81 183 206 255
63.5186 134.305 111.647 255 220 192
69.8573 94.3833 106.224 246 244 255
58.5647 47.909 107.048 219 228 255
107.694 146.37 112.611 209 222 255
109.639 47.829 108.199 211 223 255
157.122 83.731 108.609 220 229 255
102.346 168.106 111.384 213 225 255
99.4444 66.5545 117.021 197 215 255
140.892 100.381 109.31 255 251 246
58.6231 117.415 110.987 193 212 255
132.928 87.3081 105.179 255 227 205
120.953 104.834 112.513 255 254 250
124.098 112.986 115.594 203 219 255
178.588 118.408 96.9957 203 219 255
52.0943 154.452 111.273 201 217 255
174.075 140.101 114.119 238 240 255
116.074 127.533 107.242 255 226 202
38.2445 100.081 111.541 196 215 255
164.587 85.4343 109.541 217 227 255
159.344 76.7037 115.841 209 222 255
186.763 48.4033 110.014 184 207 255
211.094 66.8351 111.583 193 213 255
47.4318 78.5768 104.545 215 226 255
111.396 103.324 114.895 254 249 255
95.9424 175.688 109.702 196 215 255
61.8615 138.767 113.529 202 218 255
49.2149 33.8834 111.377 216 227 255
108.854 109.819 102.95 255 255 251
126.522 94.383 105.32 254 248 255
155.627 112.447 112.929 190 211 255
153.906 128.639 113.972 255 214 181
90.403 150.84 112.415 198 216 255
92.8269 176.037 110.952 206 221 255
49.129 127.775 95.3371 210 223 255
126.085 125.845 116.509 255 254 250
116.362 118.524 118.547 205 220 255
54.1965 120.318 113.029 200 217 255
16.4213 153.614 113.258 184 207 255
158.826 79.0624 114.572 215 226 255
93.6733 174.873 111.081 204 220 255
93.2862 175.595 110.942 195 214 255
180.879 115.323 110.313 205 220 255
105.716 91.2935 114.341 249 245 255
106.818 133.964 115.983 211 223 255
204.802 146.864 112.537 186 208 255
47.0994 85.7082 116.232 239 240 255
41.2548 92.2762 109.414 202 218 255
93.6242 22.9671 102.971 188 209 255
79.1628 39.493 108.939 197 215 255
110.26 101.447 114.832 210 223 255
64.0715 88.6181 114.667 194 213 255
139.646 64.3385 119.6 204 219 255
68.3056 141.023 114.174 193 212 255
150.716 151.609 116.706 202 218 255
23.9116 77.8027 113.365 174 201 255
46.1887 97.0849 109.823 196 214 255
65.2211 148.897 112.064 224 231 255
73.1986 81.9795 107.593 255 241 229
26.4633 180.972 111.607 189 210 255
52.4933 45.2319 113.426 192 212 255
53.3517 96.0144 107.394 201 218 255
66.5186 80.5706 112.901 255 229 208
130.658 168.184 115.624 211 224 255
84.0279 130.839 109.401 255 186 128
82.3703 52.1546 109.062 203 219 255
172.327 19.9786 112.546 196 214 255
120.653 145.725 109.775 219 228 255
104.066 107.854 106.146 255 249 242
161.535 132.76 118.733 228 234 255
112.605 117.366 109.581 255 221 193
71.8649 41.7505 107.65 193 213 255
82.5073 27.9043 115.262 190 211 255
131.752 143.747 112.857 223 230 255
137.841 67.1321 113.844 203 219 255
149.1 102.128 108.93 255 234 216
118.119 87.8721 102.935 255 242 231
111.707 187.406 109.386 195 214 255
123.039 118.132 119.305 255 182 120
148.119 83.7869 108.928 213 225 255
104.489 110.627 117.369 239 240 255
127.9 17.9567 112.212 185 207 255
85.1204 114.566 112.299 252 247 255
59.4697 154.937 112.073 209 222 255
110.348 119.466 107.121 236 238 255
17.8962 65.8144 113.001 181 205 255
149.622 93.3621 117.023 255 223 197
76.509 110.439 112.837 206 220 255
154.121 165.125 112.807 185 207 255
158.792 102.379 105.989 198 216 255
59.1639 128.575 109.271 255 254 250
97.9348 175.676 111.471 236 238 255
217.34 69.457 111.897 201 217 255
12.3887 78.5871 111.394 190 210 255
115.932 103.401 116.248 255 252 248
104.571 48.8223 112.791 215 226 255
152.602 150.016 108.556 205 220 255
84.9748 133.794 106.451 255 242 230
85.1206 154.028 113.769 186 208 255
22.0262 122.609 113.3 199 216 255
165.541 99.9402 115.454 220 229 255
110.318 116.516 119.695 255 249 241
115.021 196.254 112.802 192 212 255
116.252 120.792 113.216 255 183 123
73.2864 105.909 120.527 210 223 255
154.065 199.032 106.834 198 216 255
152.702 157.18 112.481 221 230 255
106.773 78.1373 111.949 221 229 255
195.837 173.353 115.176 184 207 255
157.101 188.191 112.14 188 209 255
109.725 69.3842 117.795 198 215 255
163.907 27.8435 111.847 255 239 225
87.4027 177.146 112.234 255 241 228
120.904 116.859 126.557 232 236 255
136.321 62.4812 114.109 199 216 255
142.402 77.5321 115.043 201 217 255
92.6436 147.387 118.82 201 217 255
71.0551 88.0059 109.897 239 240 255
145.091 85.2023 105.429 206 220 255
77.2011 104.203 119.039 228 234 255
75.0249 18.5734 113.102 184 207 255
95.7345 121.757 112.853 255 249 241
104.725 175.882 109.371 184 207 255
124.643 128.949 110.375 215 226 255
188.786 107.199 108.008 189 210 255
146.92 132.353 120.551 255 205 165
97.4982 128.847 108.503 232 236 255
147.967 78.7121 112.349 242 242 255
26.4359 77.8511 113.808 196 214 255
140.208 119.341 115.248 255 209 172
100.658 103.22 121.764 218 228 255
96.4218 159.8 110.829 255 249 255
49.2255 135.794 109.903 218 228 255
129.027 123.897 112.882 255 242 230
84.3748 130.764 122.416 255 234 216
45.2744 115.068 112.228 188 209 255
7.82883 156.507 108.57 191 211 255
132.574 168.162 114.817 197 215 255
85.2679 149.311 114.508 205 220 255
86.4626 118.773 121.789 255 187 131
34.2495 124.288 115.155 191 211 255
110.636 103.613 103.608 255 147 42
73.2206 24.4857 104.537 230 235 255
82.2111 113.935 103.707 201 217 255
93.0373 162.905 115.094 216 227 255
97.0059 153.292 113.538 206 220 255
141.493 108.319 112.371 207 221 255
125.314 75.1423 114.094 196 214 255
124.229 194.339 112.242 185 208 255
194.945 112.917 113.278 185 207 255
168.434 97.8766 119.039 193 213 255
198.548 118.401 110.76 210 223 255
136.93 79.3285 113.52 222 230 255
92.231 109.46 104.775 238 239 255
129.496 91.4469 115.309 218 228 255
130.74 86.69 120.142 215 226 255
119.789 22.4059 121.86 192 212 255
60.5584 87.7192 116.516 197 215 255
113.547 152.867 110.574 255 243 232
73.0076 93.5868 108.632 229 234 255
85.7813 135.065 117.709 255 245 235
81.5066 84.8414 118.662 255 240 226
54.683 71.9032 112.064 186 208 255
51.7337 154.031 108.398 238 239 255
117.892 116.934 100.398 255 191 139
104.225 99.5315 121.037 228 233 255
102.39 174.993 110.464 190 211 255
181.623 19.0301 112.922 189 210 255
116.489 87.0754 102.544 255 245 236
46.3072 140.052 112.391 192 212 255
218.013 115.915 112.901 183 206 255
215.264 152.486 116.517 189 210 255
126.556 112.22 116.845 255 249 242
149.011 134.161 105.589 202 218 255
126.059 82.8393 118.847 228 233 255
125.938 110.493 116.882 219 228 255
93.3801 175.806 110.794 190 211 255
45.9761 101.927 108.52 186 208 255
103.712 41.9834 109.74 255 203 162
66.3118 151.625 109.646 209 222 255
160.403 168.817 115.552 198 216 255
97.3181 131.405 105.426 248 245 255
108.597 124.298 111.267 216 227 255
86.3263 74.9221 113.009 238 239 255
100.495 137.035 108.456 220 229 255
128.183 95.4272 119.254 248 245 255
151.677 85.3483 115.517 238 239 255
174.118 68.081 116.208 229 234 255
130.793 193.99 111.828 179 203 255
89.5255 107.391 103.426 218 228 255
93.2128 175.705 110.992 195 214 255
88.1968 160.699 116.593 255 250 243
120.846 148.958 108.836 205 220 255
72.4285 217.345 118.795 181 205 255
49.336 86.7748 111.929 196 214 255
205.985 103.332 113.172 192 212 255
43.0333 153.572 109.72 196 215 255
99.6336 187.025 110.72 212 224 255
47.8394 56.7883 104.798 202 218 255
43.7669 29.629 111.222 184 207 255
115.337 119.803 102.839 246 244 255
96.3763 47.7817 116.64 255 250 255
157.028 90.0129 111.834 192 212 255
114.112 137.225 111.637 251 247 255
81.8665 132.465 109.234 255 253 248
137.197 109.186 110.084 230 235 255
137.568 78.1696 118.819 200 217 255
94.3498 72.4649 107.175 215 226 255
124.061 126.459 105.252 239 240 255
88.7281 95.6444 105.469 230 234 255
35.4549 150.604 109.487 188 210 255
93.0383 174.713 111.387 206 220 255
176.948 25.5575 112.952 199 216 255
18.2795 62.6315 112.632 201 217 255
109.44 97.7369 107.325 244 243 255
177.245 107.791 111.591 191 211 255
155.121 85.9317 112.863 219 228 255
73.5913 147.635 115.04 199 216 255
134.945 125.031 106.673 255 242 231
76.6886 147.427 114.661 255 236 220
55.9981 129.036 112.885 209 222 255
72.6333 196.114 111.926 192 212 255
147.992 163.364 115.259 255 201 158
212.62 132.458 110.903 199 216 255
102.601 111.396 114.686 255 255 252
111.855 138.975 104.522 220 229 255
114.341 108.946 117.821 218 228 255
140.024 59.1262 111.062 193 213 255
176.551 143.015 112.612 214 225 255
127.12 78.0589 109.765 217 227 255
209.202 130.326 113.599 200 217 255
93.1777 175.757 111.016 192 212 255
80.4317 164.526 112.134 192 212 255
166.626 157.748 113.629 203 219 255
126.632 107.772 107.154 247 245 255
201.401 175.226 114.8 181 205 255
49.4392 139.746 110.941 188 209 255
170.126 161.636 113.305 199 216 255
54.6189 110.768 112.518 210 223 255
127.282 6.08429 112.598 191 211 255
68.1751 114.273 118.625 217 227 255
112.006 158.604 113.728 245 243 255
152.367 89.6958 111.188 195 213 255
165.615 141.152 109.687 204 219 255
103.574 102.608 118.576 255 248 241
94.6769 164.274 113.267 193 213 255
67.0595 166.573 111.538 199 217 255
140.797 91.6094 109.179 255 244 234
137.632 121.664 118.321 237 239 255
98.0918 104.589 110.51 254 248 255
93.2368 175.666 110.988 255 240 226
120.22 131.967 115.23 255 149 47
118.84 119.284 107.339 214 225 255
48.1633 165.398 109.331 180 204 255
32.6187 133.475 115.35 218 228 255
122.164 106.287 107.439 209 222 255
167.347 78.3643 117.643 189 210 255
113.617 156.228 111.322 225 232 255
65.8542 176.505 113.858 188 209 255
150.683 134.908 119.859 255 236 220
118.382 196.762 111.598 211 224 255
117.082 106.936 106.714 243 242 255
113.142 107.129 119.101 255 214 182
172.241 86.0611 111.579 251 247 255
129.813 59.7286 110.074 226 232 255
214.324 76.0518 113.22 185 208 255
116.903 107.623 124.168 220 229 255
101.258 166.747 108.331 217 227 255
170.084 78.6374 117.311 186 208 255
120.985 102.374 112.247 255 249 255
74.5932 80.6094 106.571 184 207 255
24.6968 87.0023 114.808 195 214 255
128.122 117.561 110.804 255 186 128
19.8124 92.5171 111.917 197 215 255
93.2197 175.63 110.97 214 225 255
134.714 51.2859 114.258 209 223 255
204.72 141.626 114.131 190 210 255
74.5337 79.9706 118.098 216 226 255
86.83 90.2153 118.898 223 231 255
77.6678 85.6571 104.79 244 243 255
108.736 99.8428 110.861 208 222 255
24.308 148.961 115.397 194 213 255
158.878 88.1813 111.885 212 224 255
83.5155 194.439 112.821 193 213 255
101.683 46.4732 111.288 236 238 255
120.338 101.863 108.151 210 223 255
162.573 146.058 109.276 186 208 255
109.016 113.414 103.635 255 235 219
51.214 85.2001 115.044 255 249 255
51.7127 71.7766 109.128 209 222 255
121.493 116.365 112.102 255 238 224
147.433 197.401 113.632 196 214 255
100.502 119.498 121.315 255 244 233
145.102 151.531 116.383 255 219 191
198.955 141.689 114.592 237 239 255
110.535 47.2654 108.865 189 210 255
100.376 88.7418 107.114 207 221 255
197.271 119.197 108.608 191 211 255
166.546 82.7748 110.668 195 214 255
117.022 31.8621 114.863 201 217 255
140.741 103.147 119.59 194 213 255
114.438 109.058 120.509 255 216 185
92.4541 176.242 111.404 209 222 255
146.621 137.825 114.693 225 232 255
124.978 108.737 117.359 255 160 72
25.4023 144.492 112.765 191 211 255
78.2452 54.4763 114.59 187 209 255
114.773 149.814 115.922 255 248 240
98.5145 122.966 114.216 255 228 206
138.302 79.1864 111.432 255 236 220
2.76965 129.868 112.905 198 216 255
208.52 120.486 114.955 188 209 255
120.916 44.557 114.327 197 215 255
93.2158 175.7 110.998 192 212 255
99.9872 156.829 114.733 255 252 247
174.027 146.038 105.755 214 225 255
99.6967 86.4746 113.996 255 212 177
106.045 116.805 121.613 204 219 255
137.18 124.658 117.168 255 207 169
116.108 104.144 107.856 255 216 185
76.9928 100.668 109.14 255 200 155
66.7308 114.297 105.514 208 222 255
78.3024 99.4362 118.981 189 210 255
119.377 51.9085 114.268 206 220 255
108.033 127.333 119.482 255 236 221
163.91 183.775 115.573 210 223 255
217.479 78.9318 108.775 187 209 255
116.322 149.388 112.46 211 223 255
110.47 145.162 111.88 199 216 255
