ply
format ascii 1.0
element vertex 1340
property float x
property float y
property float z
property uchar red
property uchar green
property uchar blue
end_header
137.59 111.573 112.691 206 220 255
136.53 159.369 99.8427 216 227 255
120.602 11.9111 107.855 205 220 255
93.6157 173.422 111.241 191 212 255
123.578 128.874 109.633 255 184 124
93.6255 173.408 111.254 255 253 248
176.306 8.65038 134.804 188 210 255
138.484 202.251 137.789 193 213 255
107.237 114.672 121.704 255 230 210
120.845 86.2177 109.543 193 213 255
93.6146 173.424 111.24 207 221 255
111.052 195.994 123.729 199 216 255
131.867 155.101 115.114 195 214 255
117.353 48.338 119.478 215 226 255
86.4276 83.8746 113.629 210 223 255
93.6145 173.424 111.24 210 223 255
87.2437 33.466 114.544 193 212 255
93.8999 173.403 111.339 255 234 217
53.7177 72.9681 108.725 192 212 255
69.1339 113.95 112.336 194 213 255
93.616 173.422 111.242 188 210 255
143.592 106.397 110.065 255 249 242
105.872 128.676 104.93 244 242 255
107.613 82.877 109.58 255 109 0
93.6352 173.396 111.265 192 212 255
91.7503 202.006 104.75 209 222 255
65.0571 125.122 111.565 255 250 243
124.938 164.966 104.444 191 211 255
103.296 178.988 113.105 231 235 255
111.58 121.131 106.943 255 247 238
93.615 173.423 111.241 224 231 255
207.874 103.422 83.0323 206 220 255
57.0752 114.981 112.99 188 210 255
149.608 113.671 94.1635 200 217 255
147.97 97.8185 91.2509 208 221 255
93.5582 173.495 111.226 194 213 255
61.4245 57.3677 110.9 204 219 255
64.4794 165.594 96.9789 242 242 255
93.6506 173.408 111.186 237 239 255
93.8133 173.979 110.67 230 235 255
93.6932 173.309 111.363 196 214 255
76.6446 105.228 116.655 207 221 255
111.83 114.867 110.985 230 235 255
131.684 121.348 118.513 255 221 193
116.106 125.534 101.747 226 233 255
107.5 88.3343 124.754 228 234 255
130.259 111.719 111.596 212 224 255
104.815 177.832 109.632 193 212 255
113.253 110.636 131.844 200 217 255
93.6199 173.416 111.247 204 219 255
93.954 173.319 111.699 255 248 240
204.572 11.4825 101.207 193 212 255
110.648 198.001 109.758 249 245 255
8.17193 171.859 119.483 209 223 255
114.196 121.602 106.167 255 181 117
160.666 63.3628 117.879 188 210 255
69.1892 149.862 138.89 255 251 245
110.073 130.744 104.639 255 205 166
93.0339 173.169 111.504 230 235 255
145.478 116.924 117.543 255 229 207
204.708 49.8942 110.796 203 219 255
121.963 136.025 112.22 199 216 255
83.8876 128.457 113.676 219 228 255
84.7773 107.406 113.704 201 217 255
93.613 173.426 111.238 198 216 255
124.583 73.3507 112.703 189 210 255
68.9308 223.62 107.131 201 217 255
98.1159 108.183 97.5405 219 228 255
106.227 65.1181 111.774 205 220 255
98.4439 174.634 116.28 218 227 255
84.1776 64.3069 114.297 200 217 255
120.948 94.65 112.085 255 248 240
97.5932 108.536 113.641 255 254 251
93.6019 173.479 111.185 206 221 255
122.972 84.4334 114.229 218 227 255
1.93026 165.565 114.108 206 221 255
93.6168 173.421 111.243 192 212 255
88.0806 150.07 113.631 191 211 255
91.449 116.559 111.958 213 224 255
95.7457 136.736 116.767 217 227 255
138.166 121.992 83.4293 217 227 255
123.774 90.9551 121.028 229 234 255
80.6509 51.3795 110.52 188 209 255
110.357 109.87 106.814 219 228 255
197.827 114.589 114.802 198 216 255
6.38192 169.296 108.362 200 217 255
126.319 84.5114 115.546 211 223 255
113.487 124.94 109.674 212 224 255
202.066 64.7816 112.265 193 213 255
135.65 130.664 100.318 212 224 255
96.625 118.101 114.932 255 241 228
130.725 71.4004 104.646 255 240 227
168.284 94.5739 109.996 203 219 255
139.391 50.849 117.422 191 211 255
114.796 126.625 102.506 240 240 255
94.9274 173.912 104.906 225 232 255
122.39 78.0266 118.916 227 233 255
54.2755 39.4518 137.58 183 206 255
125.099 19.3945 100.431 189 210 255
135.284 184.835 116.408 188 210 255
93.5877 173.593 111.021 255 247 239
90.3526 185.822 88.0171 255 235 219
101.698 162.892 116.962 214 225 255
110.188 102.746 117.237 229 234 255
100.731 184.012 104.681 218 227 255
105.81 92.3997 126.812 193 213 255
119.722 53.6886 115.946 254 248 255
89.6 174.701 115.111 255 214 182
80.2242 174.258 123.79 196 215 255
110.153 95.9156 114.448 226 232 255
76.3188 200.862 109.507 226 233 255
108.784 112.861 105.436 238 239 255
93.6738 173.342 111.319 203 218 255
132.168 130.421 108.808 191 212 255
120.078 135.389 141.924 218 228 255
104.386 155.102 112.489 250 246 255
115.7 130.073 120.08 255 248 240
93.4164 173.407 111.305 255 216 185
125.918 167.623 111.061 194 213 255
120.772 115.832 119.115 232 236 255
75.4385 147.664 105.984 211 224 255
111.882 117.681 104.234 217 227 255
118.656 131.564 93.7481 255 249 255
106.193 101.785 103.725 255 231 211
145.847 104.241 113.326 255 251 245
152.667 134.932 110.971 190 211 255
133.193 89.6737 105.979 216 226 255
80.0919 81.2391 120.099 236 238 255
33.087 137.36 117.663 216 226 255
98.8036 177.471 110.311 205 220 255
178.742 61.497 159.933 221 229 255
107.462 104.657 104.683 208 221 255
88.5939 172.035 113.935 207 221 255
112.525 100.759 106.233 186 208 255
93.5904 173.469 111.21 255 237 222
93.6063 173.437 111.228 255 214 182
100.471 131.942 145.68 218 228 255
129.609 118.005 120.973 216 227 255
115.184 119.131 106.807 215 226 255
132.573 91.3048 115.223 234 237 255
94.2695 171.051 112.794 242 241 255
92.4519 174.951 109.919 201 218 255
93.6115 173.429 111.236 208 222 255
86.2097 165.031 134.404 227 233 255
93.585 173.588 111.835 255 247 239
132.505 89.0312 117.179 214 225 255
174.629 90.5199 122.188 221 229 255
116.159 105.222 108.87 255 244 233
100.802 147.96 108.758 255 249 242
93.6003 173.443 111.223 201 218 255
112.695 76.6109 117.609 208 222 255
95.9271 190.797 102.395 222 230 255
95.6894 41.217 111.017 204 219 255
93.6531 173.441 111.244 214 225 255
93.6221 173.413 111.25 189 210 255
118.364 119.197 110.162 194 213 255
133.81 120.552 116.015 255 255 252
93.6092 173.432 111.233 255 224 199
109.275 197.133 101.81 190 211 255
110.278 80.9115 109.61 255 214 181
158.937 130.888 111.665 255 249 255
82.3504 139.772 116.764 184 207 255
51.0333 115.845 84.4148 210 223 255
93.6251 173.491 111.123 194 213 255
129.798 128.121 106.765 210 223 255
15.5931 90.5871 113.26 206 220 255
95.8542 112.417 110.302 220 229 255
120.377 80.8588 120.26 235 238 255
88.336 51.3503 110.076 226 232 255
93.6149 173.423 111.24 206 221 255
67.416 118.959 119.354 187 209 255
98.8047 82.9044 111.885 245 244 255
134.746 76.9884 101.905 227 233 255
117.466 107.596 127.842 194 213 255
131.28 80.4656 117.605 190 211 255
105.119 139.563 96.6809 215 226 255
97.4548 8.40003 94.7118 185 208 255
143.984 88.8097 113.251 252 247 255
8.04463 70.2137 111.554 176 202 255
93.6158 173.422 111.241 213 225 255
121.003 122.399 116.829 255 225 200
44.5594 137.686 85.933 201 217 255
93.6283 173.404 111.258 206 220 255
93.6166 173.421 111.242 210 223 255
117.817 117.89 118.667 220 229 255
40.2834 70.7157 102.824 194 213 255
123.847 96.3488 122.949 225 232 255
120.362 127.437 116.73 191 211 255
128.374 200.605 94.0195 193 212 255
126.11 151.147 112.365 183 206 255
68.6663 136.202 118.599 255 222 195
113.899 141.683 123.325 205 220 255
108.362 106.352 108.156 236 238 255
70.4524 179.899 113.939 255 246 237
139.429 151.891 105.329 249 246 255
123.588 145.9 102.805 224 231 255
121.965 131.597 105.45 255 241 229
117.782 182.691 114.053 186 208 255
104.997 33.0516 109.372 201 218 255
104.371 110.486 112.425 224 231 255
93.5748 173.511 111.167 255 238 224
103.205 216.915 104.356 186 208 255
93.6266 173.407 111.255 255 245 235
93.617 173.42 111.243 195 214 255
88.3304 142.387 105.281 255 237 222
125.843 125.077 124.658 255 254 251
102.517 146.253 110.947 255 228 207
104.656 72.8719 120.474 200 217 255
84.1455 189.245 113.278 199 216 255
98.8446 184.306 126.571 242 242 255
109.789 56.9233 119.196 227 233 255
172.494 137.193 118.443 205 220 255
108.928 163.975 98.9618 184 207 255
93.6485 173.378 111.283 190 211 255
93.3884 114.21 117.773 255 250 244
112.077 15.0177 114.767 212 224 255
93.6217 173.414 111.249 247 244 255
58.5546 105.572 99.2745 205 220 255
93.7759 173.22 111.268 215 226 255
93.6447 173.383 111.278 189 210 255
67.2072 86.8258 107.587 255 242 230
114.295 206.37 87.033 199 216 255
144.103 90.9599 123.719 230 235 255
129.089 112.599 102.672 215 226 255
83.5732 168.012 110.134 187 209 255
93.6445 191.409 113.047 205 220 255
121.866 88.739 93.9188 215 226 255
97.0619 186.908 116.075 222 230 255
142.086 137.781 108.523 200 217 255
121.379 126.198 109.207 209 223 255
119.064 145.448 120.433 255 251 255
55.9708 122.053 98.6792 255 215 183
108.764 126.932 120.952 255 252 247
114.374 133.607 113.314 255 211 175
113.649 105.971 112.736 208 222 255
133.52 128.38 111.158 239 240 255
76.6621 40.4512 113.046 199 216 255
107.926 143.49 110.383 255 210 175
107.815 132.178 114.496 255 234 216
116.589 132.968 113.304 255 239 226
194.836 159.992 115.208 191 211 255
123.835 113.424 115.337 255 248 240
73.0554 137.993 126.338 223 231 255
117.421 105.202 87.0874 205 220 255
107.687 128.151 109.799 193 213 255
124.854 107.026 103.465 222 230 255
110.437 105.065 109.354 255 227 205
117.066 109.371 100.814 255 239 225
61.8349 214.977 106.837 180 204 255
91.1639 193.961 95.9806 192 212 255
51.7163 163.201 109.449 197 215 255
126.995 99.6971 99.3638 200 217 255
73.6366 136.086 116.289 179 204 255
179.393 136.16 116.963 218 228 255
117.936 95.9928 117.093 255 226 204
105.234 126.335 105.805 215 226 255
200.747 1.02106 105.812 202 218 255
116.934 123.244 105.693 231 236 255
82.2843 122.797 104.91 210 223 255
139.004 72.7927 122.659 239 240 255
119.485 126.165 97.7138 255 236 220
93.6101 173.431 111.234 209 222 255
65.316 83.524 101.292 211 223 255
74.6351 134.272 110.076 191 211 255
25.2879 47.5493 117.491 197 215 255
126.416 143.56 130.9 182 206 255
124.367 101.332 108.981 236 238 255
162.354 8.75085 108.658 196 214 255
100.094 183.13 96.1219 191 211 255
107.371 112.786 122.471 229 234 255
110.85 60.6816 117.713 199 216 255
65.4415 113.451 112.085 200 217 255
91.8337 190.223 110.874 207 221 255
87.8224 65.1604 111.657 255 249 255
101.12 115.847 114.784 255 251 255
93.6088 173.432 111.233 188 209 255
93.4761 173.337 111.24 255 230 209
113.388 113.078 113.575 255 200 156
87.8928 114.482 114.379 220 229 255
145.432 128.327 105.001 190 210 255
93.6157 173.422 111.241 255 255 252
115.406 106.328 114.133 210 223 255
101.48 137.713 107.602 255 209 172
93.618 173.419 111.244 194 213 255
95.1857 112.145 115.599 228 234 255
72.2564 170.976 111.686 221 229 255
105.189 116.325 114.85 255 231 212
109.996 86.0278 128.422 200 217 255
79.1761 46.0337 94.5689 188 210 255
93.6113 173.429 111.235 206 220 255
93.616 173.422 111.242 204 219 255
119.326 99.1978 121.233 255 251 255
116.993 100.549 120.163 225 232 255
117.394 136.666 118.246 215 226 255
18.9612 72.7542 120.119 216 226 255
156.436 98.4952 108.025 237 238 255
200.141 150.737 119.013 183 206 255
75.4446 109.017 110.481 211 224 255
104.594 126.426 135.536 210 223 255
66.6126 172.433 99.8358 236 238 255
65.6263 55.2399 85.4527 208 221 255
82.8943 222.052 113.188 217 227 255
107.655 103.958 108.609 255 213 180
76.9381 157.8 110.033 206 220 255
60.1294 144.695 94.9351 219 228 255
104.064 123.247 116.985 241 241 255
111.407 119.627 101.275 255 253 249
111.87 136.855 146.013 197 215 255
83.7005 175.453 111.305 209 222 255
91.5327 175.205 109.3 255 239 225
88.4948 153.711 66.2447 255 251 246
4.37617 224.032 130.34 201 218 255
64.2788 44.2038 92.4131 192 212 255
102.551 106.99 127.739 228 233 255
82.6821 29.6916 101.532 194 213 255
130.89 87.1075 120.728 192 212 255
144.314 162.77 111.279 201 217 255
74.5196 129.675 116.531 211 224 255
132.028 125.982 119.756 255 239 225
55.4033 32.3229 90.219 207 221 255
130.626 148.184 111.377 195 213 255
94.6814 38.9943 111.785 196 214 255
103.284 88.4066 118.342 227 233 255
109.595 106.233 117.864 252 247 255
93.6106 173.43 111.235 220 229 255
210.528 192.707 169.725 188 209 255
116.406 156.728 111.207 206 220 255
112.998 149.872 113.701 255 229 207
174.478 5.58162 110.724 228 234 255
146.363 89.1658 109.869 203 218 255
103.888 153.198 109.446 230 235 255
83.4006 169.517 110.405 209 222 255
92.8384 173.736 110.827 197 215 255
93.5508 174.434 110.38 221 230 255
131.599 142.172 111.163 195 214 255
146.14 103.544 133.943 195 213 255
88.1282 104.637 105.583 255 248 240
100.752 97.784 110.45 240 240 255
107.643 96.0204 110.399 210 223 255
101.667 91.4378 115.61 255 204 163
93.6145 173.424 111.24 186 208 255
48.0252 79.0747 111.865 195 214 255
115.204 76.3902 111.79 216 227 255
138.863 69.882 108.68 255 251 255
204.737 81.64 112.887 195 214 255
54.2072 202.167 110.312 189 210 255
152.601 114.847 111.638 206 220 255
189.115 14.8098 108.691 202 218 255
115.021 47.5007 119.636 200 217 255
93.145 172.615 110.726 201 217 255
117.758 123.837 107.497 218 227 255
115.327 104.895 106.788 201 217 255
87.4432 35.4924 107.14 229 234 255
39.6214 123.68 102.302 214 226 255
121.01 102.428 103.818 255 248 241
114.869 142.381 102.385 255 222 196
132.218 47.7117 117.485 181 205 255
93.6139 173.425 111.239 206 221 255
94.7912 99.3531 106.848 251 246 255
93.3494 173.718 110.929 193 212 255
119.297 99.7016 116.024 248 245 255
129.697 76.6334 138.509 220 229 255
65.2941 113.589 111.336 255 249 242
78.3138 89.5283 115.635 223 231 255
140.983 16.2658 107.647 191 211 255
121.497 84.4955 110.504 192 212 255
93.6155 173.422 111.241 201 218 255
128.295 94.6022 106.976 255 254 250
27.1565 172.082 90.2356 209 222 255
110.649 85.8797 114.165 229 234 255
116.694 113.226 119.199 255 205 164
114.34 99.9111 104.639 205 220 255
116.232 82.3013 124.246 255 220 193
106.952 113.939 105.95 227 233 255
113.4 91.4469 131.145 255 253 248
130.192 111.935 107.699 255 221 194
70.4561 78.9587 113.156 187 208 255
77.6631 118.217 95.0497 255 228 207
93.6169 173.421 111.243 220 229 255
87.3177 139.001 107.258 244 243 255
127.009 157.037 105.411 200 217 255
46.2396 164.343 110.534 191 211 255
65.891 165.796 117.458 240 241 255
62.3287 138.589 113.418 211 223 255
114.364 143.498 111.497 192 212 255
124.381 83.3663 121.99 207 221 255
113.153 123.162 104.676 200 217 255
66.8703 104.537 111.726 216 226 255
99.9064 177.197 123.05 193 212 255
108.58 117.658 108 239 240 255
112.779 168.864 103.774 255 211 177
111.777 122.481 112.218 255 249 241
182.506 155.979 118.011 197 215 255
113.814 12.3149 91.4406 198 215 255
93.5441 173.398 111.206 201 217 255
93.736 166.142 103.199 218 227 255
99.4597 205.613 111.446 187 209 255
113.049 96.5702 115.703 255 236 220
93.6996 173.368 111.225 227 233 255
124.09 196.26 106.263 201 217 255
159.532 116.209 112.576 209 223 255
103.849 132.813 108.076 255 253 248
93.6003 172.923 111.572 226 233 255
93.6195 173.417 111.246 217 227 255
124.035 118.809 105.999 212 224 255
133.416 77.5817 107.572 216 227 255
109.286 115.696 108.524 198 216 255
99.0727 141.512 109.864 255 230 210
102.923 141.185 106.966 255 218 188
115.573 103.318 107.706 255 235 219
120.035 116.5 109.657 236 238 255
130.881 100.015 120.944 195 214 255
88.7265 141.079 112.484 242 242 255
50.6501 70.9821 144.843 184 207 255
146.517 80.8148 110.304 243 242 255
126.359 112.799 105.011 255 230 209
67.3832 128.211 91.8243 195 213 255
56.9979 99.2899 119.088 209 222 255
116.083 156.809 105.966 225 232 255
76.923 172.348 113.919 216 226 255
82.4175 78.8857 118.713 177 203 255
126.432 142.923 102.555 255 224 200
100.736 165.231 109.115 179 204 255
93.5614 173.397 111.173 224 231 255
19.6165 64.2412 162.685 188 209 255
127.868 128.813 112.961 255 251 246
159.383 153.214 106.874 229 234 255
91.655 42.2593 108.536 220 229 255
166.191 12.7879 97.3009 202 218 255
222.782 96.5476 111.875 184 207 255
103.241 132.55 112.962 206 220 255
93.6085 173.434 111.231 207 221 255
36.617 111.405 96.8731 211 223 255
93.6792 173.334 111.322 228 233 255
116.304 81.5587 105.025 255 252 247
108.715 119.717 111.166 255 183 122
182.634 40.8074 112.915 200 217 255
93.6299 173.403 111.259 240 241 255
104.879 132.044 103.847 217 227 255
129.879 110.954 107.12 255 252 247
141.467 152.874 126.495 190 211 255
121.444 92.6607 110.309 255 212 177
136.525 66.5366 122.103 248 245 255
105.186 147.08 112.478 253 248 255
110.317 210.81 115.172 190 210 255
184.296 82.4946 116.326 255 190 137
118.515 84.0351 109.607 203 219 255
88.0912 70.0866 112.429 202 218 255
62.3586 62.7 94.7182 206 220 255
129.176 207.484 108.582 230 235 255
142.5 122.82 112.413 189 210 255
68.6343 153.952 99.844 209 223 255
111.603 137.038 102.168 218 228 255
88.3497 159.459 114.081 194 213 255
84.1394 53.4677 130.052 255 230 210
54.7087 89.4695 90.7162 193 212 255
177.97 99.0193 97.9675 241 241 255
93.6087 173.433 111.232 220 229 255
135.03 177.579 175.865 200 217 255
104.452 184.657 110.719 229 234 255
71.3088 34.6896 101.334 186 208 255
141.012 21.4742 76.6949 193 212 255
112.639 91.9844 98.9949 255 232 213
130.809 69.6346 112.182 197 215 255
108.576 150.566 118.729 211 224 255
166.651 2.20436 103.495 183 206 255
93.625 173.409 111.253 211 223 255
118.446 159.356 116.115 208 222 255
163.897 40.6996 113.206 200 217 255
93.6125 173.427 111.237 245 243 255
162.76 202.005 117.525 255 245 235
110.564 140.631 98.9367 255 228 207
213.567 97.5267 109.913 201 218 255
159.859 100.878 111.792 185 207 255
192.984 125.554 121.109 185 207 255
93.6665 173.347 111.336 220 229 255
93.6361 173.394 111.267 255 217 188
119.811 85.7268 105.44 204 219 255
109.008 80.8055 118.063 217 227 255
111.04 97.7147 111.252 210 223 255
103.72 137.475 108.92 255 232 214
110.23 114.621 118.706 255 225 201
107.839 64.2701 120.355 194 213 255
96.4769 143.295 118.816 199 216 255
93.6221 173.413 111.249 255 252 247
118.781 131.627 116.283 255 254 250
50.229 80.2617 108.669 215 226 255
4.29998 136.397 107.793 188 210 255
153.317 116.221 120.202 201 218 255
165.111 121.983 108.163 218 228 255
104.699 181.971 102.028 222 230 255
141.433 80.0161 115.307 220 229 255
64.9461 34.3097 133.509 224 231 255
117.487 117.904 113.903 217 227 255
93.6355 173.395 111.266 255 231 212
123.869 155.054 120.357 206 220 255
130.843 77.7938 122.55 255 241 229
105.686 140.866 105.5 232 236 255
98.3402 139.071 118.367 199 216 255
169.375 101.928 112.012 216 227 255
150.682 135.921 116.106 203 219 255
120.73 122.983 109.74 215 226 255
29.4855 57.5667 106.692 190 210 255
113.297 114.202 115.844 255 250 244
53.1219 147.432 111.241 193 213 255
104.443 176.155 110.829 224 231 255
93.657 173.367 111.294 223 231 255
75.2175 192.149 114.789 189 210 255
70.0173 125.111 115.304 255 196 148
112.669 29.7682 110.394 195 214 255
91.2809 154.41 109.354 255 225 202
60.0191 114.264 109.123 190 210 255
74.9243 200.844 97.1925 255 241 229
107.641 148.206 109.473 228 233 255
119.931 110.27 137.163 211 224 255
49.4152 98.8041 136.915 186 208 255
112.124 95.0783 114.203 205 220 255
180.165 10.0539 123.557 255 241 228
165.801 131.275 114.43 201 218 255
72.5478 126.592 103.169 185 207 255
74.5938 136.82 126.731 198 215 255
112.557 124.083 110.118 255 235 218
135.743 78.1481 117.344 216 227 255
121.549 143.61 103.454 210 223 255
109.391 132.784 104.408 255 173 102
199.562 95.5211 101.356 207 221 255
70.9062 148.076 129.854 222 230 255
207.513 54.3952 115.978 221 230 255
91.3698 173.87 111.554 225 232 255
91.7844 166.489 100.958 255 219 190
132.084 113.876 91.034 255 255 251
122.157 113.221 109.513 236 238 255
19.1587 140.69 81.4782 255 227 205
119.136 176.956 110.581 208 222 255
122.109 150.308 109.047 234 237 255
157.592 129.383 109.656 255 237 221
131.789 175.739 136.315 180 204 255
106.188 105.7 110.533 203 219 255
159.339 67.6664 100.834 217 227 255
136.882 120.53 114.333 216 226 255
70.4607 155.941 86.1261 218 228 255
117.969 101.657 98.3979 255 232 213
105.842 164.604 111.676 255 251 246
100.385 116.157 115.6 255 240 226
119.346 130.955 111.87 255 244 234
66.306 35.0868 114.553 196 214 255
93.1908 174.058 111.233 244 243 255
169.474 112.856 158.677 210 223 255
117.324 128.917 112.751 255 247 238
124.911 78.9581 103.788 255 251 245
142.057 126.457 80.0585 241 241 255
120.041 117.554 116.204 197 215 255
106.621 102.175 107.097 221 230 255
49.4317 144.18 84.779 203 219 255
149.102 122.076 108.672 202 218 255
109.047 121.282 134.143 255 228 206
39.3016 181.751 113.394 193 213 255
115.422 211.04 126.775 184 207 255
161.128 119.865 113.188 208 222 255
122.45 102.107 109.737 219 228 255
133.512 86.7069 108.468 206 221 255
44.5799 72.9087 112.746 182 206 255
147.291 71.6204 116.581 203 218 255
121.177 103.996 101.963 255 250 244
75.0549 134.502 103.082 199 216 255
113.162 123.019 96.1832 203 219 255
108.036 26.1586 108.747 191 211 255
89.8443 15.7839 119.212 226 233 255
93.6114 173.429 111.236 215 226 255
125.785 108.99 101.434 255 227 205
74.9202 197.922 108.963 199 216 255
115.655 117.271 133.428 255 207 168
99.7162 155.135 106.549 255 141 27
63.4866 158.125 120.223 197 215 255
93.6235 173.411 111.251 190 211 255
93.6152 173.423 111.241 189 210 255
112.487 113.857 113.093 255 167 88
109.179 107.867 94.2701 198 216 255
105.43 104.848 113.289 255 247 239
93.901 173.457 111.743 255 200 155
41.1368 95.2627 113.038 201 217 255
93.6199 173.417 111.247 206 220 255
64.0258 112.218 129.9 206 220 255
151.299 110.325 106.27 181 205 255
163.911 136.902 118.105 195 214 255
63.0682 216.195 116.135 189 210 255
109.748 82.8474 125.688 222 230 255
201.796 166.365 120.981 191 211 255
108.055 131.041 105.932 255 240 227
94.9815 175.994 110.424 222 230 255
98.3882 66.882 117.222 188 210 255
130.378 114.464 140.535 255 224 199
81.8562 148.927 110.753 216 227 255
64.2024 80.8888 129.463 203 219 255
15.7811 97.7889 133.681 188 209 255
159.601 72.9612 113.755 195 214 255
82.156 114.696 117.069 216 227 255
138.101 25.7898 97.0706 195 214 255
82.5443 128.122 118.351 201 217 255
131.852 82.4815 87.238 222 230 255
117.792 105.36 100.375 255 194 145
120.749 176.612 111.797 208 222 255
93.6159 173.422 111.242 190 211 255
123.776 121.782 100.833 229 234 255
93.6121 173.428 111.236 203 219 255
115.47 16.2855 91.4537 176 202 255
75.7935 179.971 110.959 255 250 255
106.278 110.365 128.847 255 205 166
129.181 112.014 108.835 228 233 255
157.37 161.186 90.1859 213 224 255
99.1669 176.272 110.995 187 209 255
93.6166 173.421 111.242 192 212 255
93.6171 173.42 111.243 206 220 255
98.974 133.168 118.851 255 219 190
120.538 137.451 110.083 255 229 207
94.0989 103.826 109.408 255 242 230
107.277 98.5921 114.462 207 221 255
84.9422 220.679 98.5583 177 203 255
93.197 154.418 121.37 184 207 255
120.196 150.237 121.223 205 220 255
105.692 110.995 112.876 255 239 225
94.0154 147.486 113.357 199 216 255
93.8339 173.408 111.342 213 225 255
116.781 156.909 120.884 255 231 211
130.777 78.2949 117.528 189 210 255
73.4303 96.9914 96.6864 189 210 255
146.136 72.5 107.017 195 214 255
120.406 111.273 117.718 218 228 255
120.486 147.143 112.063 219 228 255
157.524 34.8915 113.082 199 216 255
137.515 144.823 125.174 255 176 108
103.825 191.566 105.591 224 231 255
51.4305 114.035 84.1256 187 209 255
118.972 108.801 137.403 223 230 255
115.884 111.455 115.523 255 241 228
113.293 149.783 101.876 198 216 255
149.498 107.263 111.014 217 227 255
164.918 26.197 103.293 255 254 249
93.629 173.404 111.258 193 213 255
90.7114 170.268 127.483 255 187 131
93.3646 173.874 111.02 233 237 255
129.248 101.84 108.144 241 241 255
150.225 143.997 111.108 198 216 255
132.315 184.033 115.057 198 215 255
108.938 168.721 112.824 215 226 255
72.0968 81.3315 102.979 186 208 255
101.05 111.632 118.628 255 227 204
59.2458 75.2588 105.084 193 213 255
93.6228 173.4 111.235 207 221 255
111.07 120.484 108.646 215 226 255
106.823 106.084 108.86 198 216 255
153.073 126.867 112.319 186 208 255
104.978 157.037 103.589 216 226 255
93.5836 173.508 111.215 203 219 255
119.514 100.358 30.0244 206 221 255
145.398 108.244 86.0798 202 218 255
52.0404 111.342 124.607 201 217 255
58.1018 88.7405 105.874 191 211 255
62.4746 95.2656 102.536 255 208 171
157.539 93.7184 110.265 232 236 255
89.284 13.4911 118.907 199 217 255
96.4821 162.726 114.83 236 238 255
145.29 76.1082 103.457 219 228 255
113.1 127.287 88.9095 199 216 255
106.936 85.8341 117.188 206 221 255
105.035 104.246 109.183 192 212 255
41.3959 98.4436 126.226 208 222 255
117.657 121.774 103.225 255 223 198
92.8796 105.852 110.192 255 247 239
114.086 97.5276 119.007 235 237 255
90.8783 136.989 102.249 197 215 255
93.6069 173.436 111.229 255 217 187
110.863 156.186 106.85 255 253 248
116.077 119.974 111.075 255 184 124
157.946 77.6541 91.8664 199 216 255
93.613 173.426 111.238 236 238 255
120.499 136.456 116.017 228 234 255
109.861 49.6132 116.667 216 227 255
201.977 143.503 117.421 195 214 255
120.275 139.138 123.025 197 215 255
93.6196 173.416 111.247 212 224 255
85.7298 120.692 83.6899 191 211 255
77.8809 121.991 114.343 213 224 255
133.49 104.309 112.422 211 224 255
133.709 197.246 123.34 196 214 255
89.217 176.431 118.31 221 230 255
139.749 56.2734 109.83 199 216 255
97.3019 108.961 116.906 217 227 255
91.2168 162.478 100.694 246 244 255
123.888 191.782 146.702 199 216 255
94.2882 172.586 111.164 190 211 255
102.412 148.927 116.451 192 212 255
114.356 175.23 110.781 200 217 255
124.988 151.755 111.342 255 197 149
106.888 117.458 109.95 255 253 248
120.177 133.62 111.178 255 222 195
63.0575 39.5256 110.699 186 208 255
111.557 103.947 114.122 234 237 255
107.507 157.622 116.804 212 224 255
131.068 94.1718 134.938 202 218 255
172.047 31.841 106.231 185 208 255
93.6127 173.426 111.237 201 217 255
121.623 21.6986 99.8855 177 202 255
83.5029 119.176 107.843 206 221 255
93.8335 173.131 111.473 224 231 255
114.969 130.57 102.496 212 224 255
107.239 113.985 98.9137 255 222 195
105.263 131.321 116.837 208 222 255
121.005 222.216 108.92 252 247 255
76.1704 140.368 111.078 203 219 255
130.622 101.73 110.098 218 228 255
8.63875 67.2552 106.577 201 217 255
78.6366 10.6282 142.875 196 215 255
50.8837 73.2591 87.3923 219 229 255
102.276 162.797 112.266 246 244 255
39.7265 128.972 108.39 208 222 255
118.002 106.145 120.872 255 166 86
105.828 99.5229 114.805 214 225 255
65.6852 54.157 52.5446 204 219 255
74.5813 187.593 111.996 224 231 255
203.709 148.183 106.652 178 203 255
107.005 90.9145 107.771 255 234 216
217.623 17.2413 99.6087 189 210 255
175.842 81.4666 114.25 210 223 255
93.6196 173.417 111.246 208 222 255
114.641 105.578 115.928 255 222 197
196.112 80.5372 109.198 211 223 255
94.0315 173.04 111.326 221 229 255
93.6428 174.487 110.815 255 253 248
60.8973 128.907 90.8965 207 221 255
192.867 27.6096 112.431 194 213 255
118.507 82.1917 105.654 233 237 255
133.9 81.102 109.194 210 223 255
87.4818 216.911 57.7802 204 219 255
122.908 128.373 113.071 255 227 204
119.794 122.021 112.517 218 228 255
112.942 105.175 122.11 234 237 255
107.883 123.605 111.85 228 233 255
82.5057 66.2588 116.554 219 229 255
106.928 107.299 114.447 255 227 205
123.464 132.978 106.362 255 246 237
108.363 99.3753 112.465 255 234 217
111.945 29.0299 112.852 194 213 255
121.404 119.105 114.323 220 229 255
64.6189 174.674 112.631 211 223 255
52.3463 101.322 56.5014 198 216 255
140.175 60.7481 113.995 195 214 255
47.0719 195.2 125.778 217 227 255
119.62 152.178 108.899 217 227 255
73.4687 30.7921 36.6094 190 211 255
119.166 137.118 109.765 215 226 255
111.653 79.971 118.47 198 216 255
119.249 169.756 117.497 230 235 255
110.315 130.324 115.934 209 222 255
102.054 150.808 117.102 221 229 255
87.9867 153.044 114.882 192 212 255
117.753 108.514 104.164 206 220 255
110.67 103.512 115.339 255 244 233
129.851 119.262 108.537 220 229 255
66.6437 148.782 81.6653 216 226 255
119.953 84.1422 102.633 189 210 255
75.7581 139.928 90.7223 205 220 255
93.6389 173.391 111.27 195 214 255
107.269 118.801 99.8795 198 216 255
192.254 25.088 123.217 198 216 255
96.879 148.659 107.032 226 233 255
21.8114 174.194 98.2344 196 215 255
216.105 56.3267 112.188 187 209 255
93.6419 173.386 111.274 255 190 136
103.317 91.7437 118.645 206 221 255
109.134 157.006 100.157 234 237 255
118.918 123.981 109.837 238 239 255
133.279 116.818 122.482 255 241 229
189.181 98.1435 118.964 202 218 255
112.852 86.1866 133.723 200 217 255
110.355 82.6596 128.165 197 215 255
140.846 77.7768 128.835 210 223 255
125.211 58.8725 118.835 191 211 255
164.467 64.9381 113.674 194 213 255
187.095 43.1053 108.281 184 207 255
125.498 99.7968 94.4205 215 226 255
40.1768 140.688 108.685 179 204 255
92.3508 11.2182 112.057 199 216 255
93.617 173.42 111.243 210 223 255
93.6167 173.425 111.241 255 252 248
195.707 11.5196 110.415 209 222 255
142.78 98.4113 104.557 185 207 255
69.4523 67.7856 98.2838 184 207 255
147.105 84.3799 117.112 196 215 255
185.262 197.461 117.327 197 215 255
91.1386 173.164 110.266 212 224 255
117.096 119.617 110.556 215 226 255
103.995 82.0308 116.589 204 219 255
93.6237 173.411 111.251 203 219 255
119.825 146.814 122.223 195 214 255
146.462 98.2682 116.695 237 239 255
93.6159 173.422 111.241 208 222 255
118.924 117.548 115.278 206 221 255
93.616 173.422 111.242 202 218 255
68.5935 183.476 107.544 255 247 239
179.255 104.029 108.52 255 249 243
91.3727 163.466 140.025 204 219 255
122.18 146.693 108.95 208 222 255
106.2 156.846 110.832 255 242 230
100.579 122.766 120.754 255 250 243
13.7661 148.933 114.535 191 211 255
93.6376 173.373 111.257 255 206 167
75.1842 133.707 111.303 202 218 255
145.901 113.613 113.605 224 231 255
85.0606 184.093 113.464 255 166 87
148.529 56.7191 120.482 202 218 255
44.2008 107.265 89.6452 203 219 255
104.092 111.104 131.338 204 219 255
120.488 116.252 116.258 255 231 212
166.148 143.34 105.402 215 226 255
110.328 86.3723 115.401 244 243 255
118.717 130.716 113.919 212 224 255
93.6164 173.422 111.242 189 210 255
193.517 87.4584 95.0624 188 210 255
128.059 129.385 117.602 255 244 234
93.6802 173.335 111.329 188 209 255
118.825 126.005 96.19 231 235 255
136.936 113.737 107.662 255 207 168
93.6152 173.423 111.241 255 246 237
14.0349 99.9776 109.925 243 242 255
66.9793 18.1288 97.7542 252 247 255
112.614 123.684 104.37 255 243 232
106.082 87.8136 118.821 213 224 255
103.68 122.534 113.625 243 242 255
131.281 51.3502 116.393 198 215 255
107.265 28.1452 124.212 179 203 255
109.269 125.642 111.992 255 238 224
93.8561 171.488 102.608 215 226 255
112.614 122.288 122.972 247 244 255
125.707 85.8878 113.669 199 216 255
106.081 96.4856 119.515 240 240 255
7.29095 109.662 108.251 185 207 255
17.5909 50.3996 68.7832 198 215 255
57.4114 124.831 122.978 230 235 255
64.8535 155.458 105.552 255 243 233
55.2281 59.6817 101.812 217 227 255
93.7761 172.814 111.861 185 207 255
127.498 112.149 103.809 213 225 255
40.4545 31.4414 121.901 180 204 255
143.771 70.2646 97.4963 255 217 186
62.8986 89.5679 114.265 221 230 255
113.933 119.947 103.097 201 217 255
80.9381 68.2463 115.308 255 236 219
77.8516 45.5018 105.042 188 210 255
93.6203 173.416 111.247 196 215 255
79.6 80.3434 108.695 234 237 255
111.665 123.456 122.6 225 232 255
93.6132 173.426 111.238 194 213 255
115.2 113.096 114.539 228 233 255
106.844 78.8174 118.089 213 225 255
105.763 114.599 112.052 236 238 255
117.784 132.272 99.2432 208 222 255
119.7 109.672 120.475 248 245 255
75.3915 115.354 116.162 200 217 255
93.6173 173.42 111.243 190 210 255
122.961 181.118 109.652 212 224 255
93.6145 173.424 111.24 255 252 247
88.9796 155.987 114.891 228 234 255
110.145 82.3997 116.017 248 245 255
163.296 107.473 91.2298 249 246 255
93.6311 173.401 111.261 233 236 255
93.6259 173.408 111.254 194 213 255
14.5375 163.578 110.047 191 211 255
139.282 67.9218 121.799 205 220 255
65.2982 63.8494 102.068 191 211 255
99.8979 89.8796 117.975 217 227 255
108.851 108.382 111.837 255 229 208
115.289 120.129 111.909 255 250 244
119.517 87.1492 107.605 255 243 232
108.167 143.115 114.837 235 238 255
93.6649 173.366 111.314 216 227 255
195.704 101.558 136.499 239 240 255
71.5837 59.0273 110.789 185 208 255
100.542 166.565 109.087 226 232 255
58.4855 143.724 114.304 225 232 255
17.6398 190.271 126.505 213 225 255
140.099 21.8568 119.606 193 213 255
72.0597 171.778 98.459 228 233 255
111.953 124.624 108.672 255 222 196
103.831 137.294 106.661 235 237 255
122.607 120.032 111.044 255 238 223
83.2771 75.6512 109.731 204 219 255
135.919 151.971 91.5056 255 249 255
113.86 122.187 105.172 197 215 255
137.119 80.7987 108.491 216 227 255
84.3099 189.328 104.896 195 214 255
96.9844 149.236 109.484 200 217 255
130.32 95.0079 86.9781 209 222 255
163.957 80.5723 114.74 232 236 255
123.25 99.3216 117.025 221 230 255
93.631 173.401 111.26 219 228 255
80.7507 137.619 141.047 221 230 255
54.2557 57.1257 72.0278 187 209 255
111.74 85.3057 107.141 255 253 248
70.4216 182.09 95.242 205 220 255
93.5575 173.408 111.094 202 218 255
93.6273 173.406 111.256 255 244 234
102.593 149.036 116.588 192 212 255
120.528 144.355 94.1006 255 250 244
169.589 8.47875 109.119 218 227 255
130.723 106.28 107.809 201 217 255
106.55 147.41 117.888 209 223 255
111.202 63.6262 123.195 221 229 255
109.904 107.821 106.117 203 218 255
81.5207 211.326 107.667 191 211 255
93.6565 173.369 111.292 251 247 255
110.869 115.585 105.327 222 230 255
109.801 103.719 126.712 255 205 166
117.953 113.078 134.304 240 240 255
96.3103 159.188 101.331 205 220 255
127.654 90.3487 95.754 255 242 231
122.791 86.8294 137.165 238 239 255
93.6151 173.423 111.241 194 213 255
117.429 104.828 107.093 255 231 211
139.264 94.0835 106.44 205 220 255
136.283 201.215 119.832 205 220 255
91.5378 176.21 103.956 248 245 255
49.213 192.362 113.766 187 209 255
93.614 173.425 111.239 189 210 255
115.37 143.966 104.801 255 187 131
93.0823 174.177 110.52 204 219 255
111.942 134.08 117.827 255 253 248
112.502 142.407 104.712 227 233 255
93.6131 173.426 111.238 218 228 255
89.4264 139.259 114.628 195 214 255
82.5036 183.895 116.086 216 226 255
111.101 103.581 109.511 224 231 255
114.657 114.486 114.255 243 242 255
40.9934 58.9836 89.2609 198 216 255
128.233 145.286 108.493 224 231 255
84.3928 126.347 109.573 255 220 192
140.818 121.173 106.65 255 180 117
117.38 125.876 103.909 255 251 245
208.12 44.9231 112.715 201 217 255
93.622 173.413 111.249 197 215 255
100.779 119.848 108.961 255 226 203
100.216 36.1746 112.882 202 218 255
33.7953 73.1875 132.205 192 212 255
156.241 218.626 126.649 186 208 255
148.796 117.851 121.152 181 205 255
62.9626 81.5448 69.2142 188 209 255
148.253 129.036 118.51 200 217 255
31.4283 218.884 113.043 190 211 255
192.103 81.6403 131.849 196 214 255
102.909 177.801 105.984 255 213 179
81.9509 107.512 104.905 255 239 226
102.937 145.604 123.788 255 217 186
86.8483 76.7421 113.902 215 226 255
105.491 181.495 108.579 186 208 255
123.588 128.476 110.103 255 221 194
97.8286 108.591 112.237 235 237 255
97.0314 172.172 109.484 189 210 255
76.569 16.6536 106.674 196 215 255
146.694 104.729 103.984 255 249 241
62.7957 136.953 104.741 202 218 255
54.4334 28.4893 99.8331 212 224 255
36.3585 91.3622 104.16 247 244 255
73.6963 19.3472 87.1393 194 213 255
78.4486 35.2638 115.287 187 208 255
93.5665 173.504 111.191 210 223 255
109.901 106.165 127.884 255 208 170
126.522 78.9321 124.705 208 221 255
114.794 57.4414 120.205 198 216 255
92.7652 173.163 111.682 221 230 255
168.792 12.5006 111.627 255 250 244
79.8771 29.9454 96.6915 242 241 255
93.6203 173.416 111.247 210 223 255
139.199 82.703 112.717 202 218 255
145.779 123.768 116.386 251 247 255
71.4439 47.0859 109.532 196 214 255
113.309 105.827 120.066 224 231 255
125.581 124.34 108.233 247 244 255
111.342 147.341 80.4535 255 251 245
93.6034 173.441 111.226 214 225 255
73.8557 107.117 111.263 205 220 255
135.986 11.8557 104.725 188 210 255
28.7696 199.297 100.813 255 253 249
170.128 140.991 126.664 212 224 255
132.345 112.958 116.177 219 228 255
109.919 200.742 116.801 197 215 255
91.9712 150.464 121.138 198 215 255
118.713 165.323 109.155 195 214 255
2.95531 88.3582 115.956 192 212 255
124.058 147.346 103.964 198 216 255
116.984 84.8906 133.798 247 244 255
102.557 89.7149 120.127 203 218 255
156.8 133.321 157.907 192 212 255
110.727 147.921 81.0822 194 213 255
121.231 154.737 117.363 234 237 255
143.654 133.423 121.832 194 213 255
93.4968 173.478 111.184 255 251 246
116.455 145.826 105.641 226 232 255
94.0527 110.972 106.489 255 247 238
106.807 98.7776 114.38 255 250 255
102.207 118.377 123.644 255 246 236
65.0655 52.9231 99.4598 203 219 255
85.1277 138.729 126.82 223 231 255
38.7377 96.6634 92.2637 223 231 255
119.249 118.77 121.265 220 229 255
116.309 106.91 112.487 225 232 255
125.459 134.492 140.397 255 196 148
93.6127 173.427 111.237 255 250 244
107.952 173.643 118.383 255 251 245
115.037 139.436 109.624 255 244 234
87.3133 141.173 109.214 255 240 227
56.0874 104.601 121.809 217 227 255
83.2146 169.274 111.673 200 217 255
93.6421 173.386 111.274 194 213 255
58.3969 130.789 84.0191 207 221 255
93.6221 173.413 111.249 190 211 255
93.6184 173.418 111.245 255 245 236
89.4158 64.6637 117.843 255 242 230
102.855 132.92 108.368 203 219 255
94.8128 146.938 98.475 220 229 255
113.077 120.333 106.843 255 235 218
33.8812 177.052 112.34 190 211 255
116.398 173.881 109.208 213 225 255
147.328 141.509 116.179 199 217 255
93.6103 173.431 111.234 194 213 255
113.352 98.8377 112.469 255 252 247
110.75 121.346 108.475 232 236 255
108.377 134.434 118.294 210 223 255
131.178 105.843 103.263 222 230 255
7.80939 171.726 110.323 196 214 255
60.2481 74.7485 103.086 242 242 255
94.1564 173.573 111.635 199 216 255
116.104 119.238 114.974 255 212 178
107.942 164.563 141.963 221 229 255
83.0868 58.0255 111.965 224 231 255
73.4734 63.7085 107.232 185 208 255
93.6158 173.422 111.241 197 215 255
56.4518 71.2943 131.541 217 227 255
93.613 173.426 111.238 218 228 255
119.694 111.92 123.236 217 227 255
136.655 29.7684 111.927 196 214 255
93.6481 173.379 111.282 220 229 255
107.071 101.135 104.661 226 233 255
112.125 80.4911 125.223 216 226 255
118.233 189.015 104.322 255 249 241
121.848 99.0936 111.828 255 199 153
95.9256 201.033 116.961 191 211 255
128.649 189.015 112.474 225 232 255
103.728 142.925 106.956 255 239 226
100.727 174.379 105.48 200 217 255
115.498 101.435 101.177 255 243 232
102.45 95.7052 122.506 207 221 255
114.397 126.868 115.771 216 227 255
93.6732 173.346 111.315 255 239 225
49.5815 167.406 115.602 185 208 255
116.36 77.2572 116.156 206 221 255
75.5528 199.912 102.391 190 211 255
124.688 48.3479 115.82 214 225 255
93.6049 173.445 111.227 209 223 255
195.705 33.869 104.937 194 213 255
117.022 116.313 107.458 255 156 63
187.716 125.496 106.787 210 223 255
154.984 104.679 122.64 203 218 255
119.696 115.024 103.823 255 249 255
82.8814 43.0935 101.455 187 209 255
129.304 109.947 108.928 216 226 255
106.806 72.9299 118.942 220 229 255
93.6323 173.399 111.262 255 240 227
120.111 130.143 114.951 255 253 248
131.801 86.2961 119.115 181 205 255
100.252 144.439 105.499 255 226 204
129.627 177.74 113.109 199 216 255
212.932 37.0171 103.531 180 204 255
160.283 87.1297 115.485 196 214 255
98.9107 190.985 112.661 207 221 255
126.725 112.201 99.6343 255 249 255
106.888 104.023 106.999 255 243 231
126.386 134.046 100.684 255 243 232
93.6135 173.426 111.238 228 233 255
93.6274 173.462 111.142 186 208 255
93.6225 173.412 111.25 197 215 255
100.125 102.906 106.045 222 230 255
93.85 173.137 111.543 227 233 255
125.113 12.5618 112.828 195 214 255
121.364 124.27 112.866 255 197 150
120.229 100.407 113.634 236 238 255
130.628 89.4875 89.3839 228 233 255
141.03 79.6909 126.994 230 235 255
146.413 63.4928 122.222 214 225 255
93.6195 173.417 111.246 201 218 255
52.1768 64.1415 115.578 209 223 255
110.724 114.48 106.796 255 172 99
93.6215 173.414 111.248 255 243 231
118.496 87.7533 114.686 244 243 255
142.251 68.0714 115.091 255 163 79
113.799 140.801 107.012 255 199 154
59.9853 63.1922 108.349 204 219 255
95.5578 65.537 113.831 199 216 255
159.544 141.742 84.054 197 215 255
93.8473 173.459 111.39 255 242 229
89.4745 141.63 111.849 229 234 255
87.772 146.662 103.177 199 216 255
93.6366 173.393 111.267 223 231 255
105.913 103.226 110.187 233 237 255
162.254 88.0654 115.975 227 233 255
103.374 122.211 111.779 255 201 158
93.6162 173.422 111.242 201 218 255
77.7314 30.9321 115.487 255 242 231
93.616 173.422 111.242 203 218 255
93.6207 173.419 111.242 255 250 243
93.7019 173.311 111.36 190 210 255
130.357 125.871 126.109 213 225 255
58.9418 111.608 123.516 216 226 255
55.6663 103.073 116.75 188 209 255
93.6293 173.404 111.258 198 216 255
93.7445 173.208 111.497 207 221 255
85.2377 201.939 98.5831 202 218 255
111.026 82.2436 116.129 243 242 255
79.3884 126.051 112.243 197 215 255
61.0719 86.019 111.863 216 226 255
90.8831 123.593 110.742 204 219 255
104.778 131.363 138.621 218 227 255
93.6163 173.422 111.242 211 224 255
121.651 165.822 109.303 196 215 255
81.1573 137.651 108.669 255 207 169
134.291 133.842 113.655 205 220 255
57.5164 84.8893 51.7135 208 222 255
99.8953 129.344 119.412 242 241 255
142.578 86.0588 144.155 201 218 255
84.0476 173.338 127.985 224 231 255
173.15 32.4625 116.503 190 211 255
206.52 47.9708 119.498 207 221 255
93.7206 173.222 111.434 255 244 234
93.6738 173.41 111.247 250 246 255
39.171 150.833 111.176 194 213 255
93.6611 173.264 111.428 255 251 246
46.368 119.634 106.646 242 241 255
76.3998 138.82 111.834 233 237 255
93.6748 173.333 111.328 220 229 255
134.102 119.68 106.898 225 232 255
69.9299 110.336 117.647 255 252 246
61.6246 84.2594 65.1472 191 211 255
102.043 191.837 119.531 194 213 255
16.0648 23.8042 39.1697 232 236 255
62.619 191.277 110.881 232 236 255
95.3506 152.453 104.336 190 211 255
123.584 80.0468 110.107 255 249 242
81.2441 189.509 110.895 206 221 255
76.7641 113.409 127.086 219 228 255
93.6182 173.419 111.245 201 217 255
93.5926 173.466 111.2 230 234 255
111.383 108.286 113.446 202 218 255
205.886 53.1092 112.245 196 214 255
103.428 155.922 114.196 212 224 255
146.588 146.21 116.533 182 205 255
82.6505 183.243 120.921 204 219 255
120.108 98.1868 111.846 198 216 255
100.537 130.78 111.199 255 250 255
77.2558 186.043 119.885 217 227 255
89.9838 82.988 116.091 186 208 255
118.724 129.454 101.454 212 224 255
148.028 133.091 110.704 201 217 255
175.263 25.4108 127.4 187 209 255
89.5958 106.891 112.695 255 236 220
93.6105 173.43 111.234 207 221 255
93.6152 173.423 111.241 194 213 255
93.6215 173.414 111.248 233 236 255
115.959 24.2028 123.163 191 211 255
133.631 120.988 104.878 255 196 148
93.6137 173.425 111.239 255 204 164
143.429 159.755 150.964 212 224 255
111.483 119.023 118.483 255 182 121
93.6123 173.427 111.237 200 217 255
100.091 115.876 105.581 199 216 255
110.048 137.272 113.133 209 222 255
85.5643 143.661 107.986 255 183 123
39.5543 68.2437 127.777 208 222 255
95.3624 101.398 103.307 255 239 225
76.6306 46.5899 115.759 194 213 255
162.138 154.111 87.9399 212 224 255
108.072 80.3393 118.282 255 220 193
132.121 88.2963 121.751 246 244 255
106.389 115.878 92.0343 255 222 195
124.52 166.917 105.712 255 245 235
116.746 121.69 119.096 255 255 252
169.774 102.24 111.817 194 213 255
108.991 104.585 46.4908 189 210 255
165.07 35.7143 112.602 196 215 255
93.61 173.431 111.234 192 212 255
123.804 196.129 106.321 187 208 255
106.475 104.9 111.498 245 243 255
118.965 75.5351 131.258 255 220 193
91.5173 175.764 109.364 235 238 255
105.812 89.2387 111.821 203 219 255
155.943 103.678 115.359 189 210 255
114.333 115.698 109.983 231 235 255
110.946 129.495 103.184 255 243 232
93.3826 174.063 110.762 229 234 255
59.535 15.2254 74.1706 241 241 255
41.3342 73.2386 118.012 186 208 255
118.626 169.813 113.392 243 242 255
93.4567 173.479 111.217 218 228 255
119.668 103.449 103.387 255 213 179
125.739 124.351 105.726 220 229 255
105.947 119.215 119.687 209 222 255
113.93 126.198 103.135 255 234 216
107.975 81.8357 123.318 198 216 255
9.95889 82.4185 115.349 199 216 255
135.799 160.339 113.896 190 211 255
82.3473 93.6337 109.859 217 227 255
50.8275 215.837 121.515 184 207 255
106.99 112.461 106.323 223 230 255
2.50846 88.5036 112.312 189 210 255
117.761 87.6368 111.502 255 222 196
110.101 60.6909 118.084 255 228 207
98.1959 106.618 114.382 207 221 255
146.027 72.8363 129.519 240 241 255
93.5737 173.481 111.199 199 216 255
47.4255 132.66 89.9108 197 215 255
122.464 104.543 115.815 255 215 183
130.798 67.2875 104.02 204 219 255
106.977 116.41 107.975 255 219 190
118.083 116.529 111.286 255 233 215
111.093 104.375 103.728 211 223 255
146.053 84.9602 106.019 208 222 255
62.7603 13.6584 111.524 191 211 255
85.6089 192.767 96.4189 196 214 255
9.75885 181.59 107.943 193 212 255
133.131 122.558 111.458 254 248 255
108.441 105.466 110.206 246 244 255
110.246 119.473 109.801 203 219 255
93.6141 173.448 111.177 205 220 255
93.6228 173.412 111.25 218 228 255
18.1349 98.0887 110.14 202 218 255
46.7581 103.383 103.448 205 220 255
157.353 102.415 107.149 199 216 255
71.193 44.0294 96.6941 194 213 255
122.384 85.7296 108.02 227 233 255
58.4785 104.038 99.6913 216 226 255
125.817 106.264 114.533 209 223 255
195.205 92.0039 80.917 188 209 255
115.965 117.385 112.176 255 249 242
115.447 110.663 113.37 219 228 255
104.978 112.408 121.335 255 246 237
93.6133 173.426 111.238 194 213 255
93.6209 173.503 111.194 204 219 255
106.5 106.3 118.867 235 237 255
79.5796 144.971 120.235 225 232 255
9.84862 101.228 111.782 185 208 255
125.839 100.973 107.628 255 232 214
200.619 36.4021 109.165 209 222 255
93.6183 173.418 111.245 189 210 255
105.94 86.2848 112.482 188 209 255
90.4788 149.743 118.51 217 227 255
58.6673 90.3409 113.121 204 219 255
93.6287 173.404 111.257 191 211 255
159.973 91.9766 113.26 192 212 255
108.538 175.446 111.99 208 222 255
25.1077 136.607 112.992 189 210 255
131.236 167.853 112.521 191 211 255
64.9433 85.6241 120.91 187 209 255
110.645 143.858 103.692 211 224 255
115.355 96.1312 56.6839 255 249 241
143.766 150.605 116.501 188 209 255
129.491 125.088 111.476 238 239 255
104.047 97.8409 114.311 217 227 255
110.884 118.821 113.567 212 224 255
86.7986 147.593 122.253 204 219 255
43.4841 182.475 117.213 180 204 255
38.7183 138.005 108.032 189 210 255
110.913 90.746 109.916 200 217 255
145.023 152.878 111.609 197 215 255
121.376 118.188 116.17 255 250 255
168.435 135.737 101.173 219 228 255
101.124 222.787 99.9523 195 214 255
132.694 123.604 114.266 255 186 128
90.8195 147.893 114.378 255 243 232
113.286 128.081 99.866 234 237 255
101.961 114.213 113.943 228 234 255
103.892 136.935 115.359 207 221 255
108.151 111.886 116.688 215 226 255
94.107 173.72 111.084 255 252 246
99.4505 178.582 110.163 196 215 255
93.6125 173.427 111.237 191 212 255
94.5984 57.4081 117.613 246 244 255
93.6111 173.429 111.235 185 208 255
157.038 116.519 112.838 197 215 255
146.752 64.8681 114.543 208 221 255
129.444 127.226 120.335 255 198 152
108.337 105.31 112.304 234 237 255
93.6262 173.408 111.254 213 224 255
102.238 105.402 111.665 233 236 255
120.959 152.776 101.251 195 214 255
109.264 89.589 113.409 229 234 255
117.906 118.019 109.627 212 224 255
103.908 104.73 109.317 209 222 255
114.993 27.0544 96.8643 212 224 255
132.909 102.784 106.22 215 226 255
76.2356 148.929 109.451 197 215 255
115.05 101.836 110.502 209 222 255
59.2797 122.767 98.964 196 214 255
198.098 5.19093 117.748 197 215 255
95.208 95.618 120.617 244 243 255
118.847 29.011 110.89 192 212 255
55.6425 87.6056 89.9685 193 213 255
117.733 138.824 102.122 255 181 119
45.3673 153.166 114.954 233 236 255
94.4696 173.18 112.283 212 224 255
111.786 76.1465 112.579 198 215 255
33.8029 103.244 108.736 188 209 255
155.789 111.317 106.709 203 219 255
105.262 160.705 114.652 255 224 199
54.0139 165.687 113.228 207 221 255
68.818 128.067 109.359 198 215 255
108.285 95.3843 117.406 254 248 255
69.2673 61.8028 102.495 179 204 255
101.803 207.073 111.876 190 210 255
0.988844 96.2155 109.161 192 212 255
109.755 106.973 135.483 210 223 255
108.993 188.513 105.199 211 224 255
121.244 174.541 109.428 197 215 255
113.716 90.1421 113.29 242 242 255
67.0322 95.1527 110.762 196 215 255
96.4981 91.0131 82.2517 225 232 255
93.6234 173.413 111.251 217 227 255
181.724 41.1934 109.93 184 207 255
93.6054 173.439 111.227 190 211 255
188.82 70.5872 69.6415 239 240 255
93.6224 173.413 111.25 255 253 248
79.2051 154.662 111.216 218 228 255
95.2009 184.571 112.104 255 246 238
93.6186 173.418 111.245 212 224 255
147.153 115.283 106.855 214 225 255
91.229 170.516 147.49 233 236 255
93.6123 173.427 111.237 201 217 255
94.5567 146.505 125.07 223 230 255
117.597 113.548 110.667 255 42 0
121.073 143.607 108.58 208 222 255
93.6359 173.394 111.267 205 220 255
118.625 156.51 111.677 230 235 255
140.955 122.991 110.013 210 223 255
