ply
format ascii 1.0
element vertex 1342
property float x
property float y
property float z
property uchar red
property uchar green
property uchar blue
end_header
120.285 115.998 131.402 239 240 255
88.403 120.122 123.747 255 211 177
133.096 72.3536 112.483 255 249 241
149.83 153.056 108.768 197 215 255
184.359 33.3345 113.44 198 215 255
146.734 168.861 112.265 218 228 255
24.2156 56.2549 114.653 215 226 255
57.9788 155.493 114.754 201 217 255
118.298 138.288 125.568 218 227 255
34.7665 152.79 113.134 187 209 255
94.6785 114.658 98.1563 255 236 220
63.1222 131.601 113.122 227 233 255
45.1638 167.893 115.168 201 217 255
150.88 142.873 112.245 209 223 255
141.902 115.589 112.574 255 253 248
119.865 163.203 107.015 226 233 255
92.8467 174.451 111.009 217 227 255
127.622 96.281 123.319 212 224 255
16.8372 152.69 113.964 185 208 255
179.545 142.843 111.524 216 227 255
136.426 205.133 112.341 198 216 255
112.294 99.9111 124.01 255 230 210
131.287 108.463 115.355 255 218 188
94.7218 116.359 121.827 255 235 219
106.086 126.739 112.973 236 238 255
173.558 163.984 115.009 195 214 255
80.7231 92.9903 114.608 242 242 255
84.1941 31.894 109.629 184 207 255
150.443 115.141 108.732 243 242 255
108.989 86.8437 107.054 255 230 209
84.5364 73.1169 106.175 195 213 255
71.2247 39.4892 110.976 209 222 255
128.149 100.251 126.715 225 232 255
76.124 109.155 101.385 216 226 255
137.04 6.83891 111.654 177 203 255
90.5961 117.461 121.37 255 224 200
12.4786 93.8349 112.55 195 214 255
81.8736 187.734 111.062 179 204 255
126.008 171.49 107.128 224 231 255
70.3563 36.0776 115.494 188 209 255
106.202 98.5313 109.117 255 251 246
142.37 163.282 116.416 229 234 255
138.415 51.7125 115.884 220 229 255
187.447 77.4912 114.165 202 218 255
191.649 167.433 110.595 184 207 255
87.9495 82.9086 110.784 206 220 255
117.473 167.32 105.814 207 221 255
56.9424 74.1458 114.204 211 223 255
111.26 149.859 105.184 228 233 255
135.807 92.3251 122.407 255 252 247
124.63 113.466 112.696 255 183 122
196.685 109.972 111.753 200 217 255
111.73 151.831 122.501 240 241 255
89.0513 90.6647 124.965 217 227 255
89.0235 106.879 112.45 255 252 247
138.598 170.066 116.82 190 211 255
146.951 115.289 116.873 255 212 177
164.753 97.6222 110.204 248 245 255
110.465 135.657 114.867 253 248 255
123.723 188.634 111.191 190 210 255
187.542 149.467 112.716 255 190 137
142.764 101.327 111.374 203 219 255
126.097 58.4082 119.447 202 218 255
103.204 42.007 116.775 206 220 255
50.8333 177.703 112.554 230 235 255
150.329 198.52 113.444 189 210 255
67.5723 104.661 118.5 209 223 255
206.563 67.1027 110.034 190 211 255
107.89 99.5283 124.463 218 228 255
119.241 148.924 106.424 194 213 255
126.964 45.9154 110.445 255 230 210
75.9181 34.6848 113.248 193 212 255
156.56 122.642 115.578 241 241 255
86.2542 147.517 111.882 220 229 255
177.96 124.783 112.484 200 217 255
52.7306 122.445 110.102 229 234 255
127.288 25.3904 113.964 186 208 255
182.496 75.9025 115.81 193 212 255
136.154 133.868 108.78 255 232 213
178.731 105.419 117.248 197 215 255
83.4485 103.973 113.093 211 224 255
199.474 69.3571 114.26 183 206 255
110.338 162.388 113.994 211 223 255
132.009 163.658 106.503 208 222 255
189.138 101.033 115.454 200 217 255
99.414 155.136 109.003 245 243 255
127.124 136.819 111.605 255 245 235
110.969 91.2648 118.285 255 228 207
189.037 166.602 113.225 201 218 255
151.156 131.132 112.897 185 207 255
170.599 186.249 110.665 185 207 255
100.26 134.933 105.577 220 229 255
84.769 143.038 113.622 255 217 188
150.087 99.9867 121.19 204 219 255
174.764 109.599 114.027 217 227 255
137.476 136.019 114.818 210 223 255
133.63 108.774 97.0906 255 232 214
100.786 123.559 115.271 255 225 201
151.651 67.5003 105.929 194 213 255
111.609 137.055 112.635 199 216 255
73.659 158.241 114.063 255 252 247
89.9917 93.1125 100.36 255 254 250
92.2929 62.4601 113.779 215 226 255
30.5146 62.0771 109.71 188 210 255
158.784 178.141 113.233 201 218 255
141.276 162.486 115.298 218 228 255
88.0523 127.499 119.272 222 230 255
175.419 131.814 112.541 220 229 255
111.026 44.68 107.088 224 231 255
123.041 121.522 125.787 217 227 255
115.813 158.898 115.586 255 231 212
90.8189 123.158 99.0081 206 220 255
147.63 104.334 100.72 255 241 229
130.092 152.482 119.811 232 236 255
126.869 152.789 116.629 199 216 255
153.963 129.604 111.632 216 227 255
144.153 179.27 115.248 203 219 255
118.664 86.4183 111.5 215 226 255
67.1662 37.6445 111.493 190 210 255
124.867 116.829 110.124 255 250 244
39.4437 77.6785 110.404 193 213 255
46.2565 99.3006 113.105 224 231 255
105.83 144.544 114.789 223 231 255
35.59 118.264 115.483 189 210 255
79.8844 82.2181 117.253 255 196 148
160.549 57.6228 111.742 195 214 255
62.0422 108.924 118.191 255 225 202
65.4366 35.2358 113.79 190 210 255
77.0319 142.676 103.868 255 241 229
112.078 89.084 126.397 228 233 255
128.048 69.6719 114.151 211 224 255
67.0168 53.1598 108.605 186 208 255
115.719 131.7 105.552 205 220 255
107.64 121.925 106.893 255 241 228
154.665 197.416 112.163 201 218 255
69.4616 40.7455 113.492 185 207 255
57.6027 87.3641 107.077 198 215 255
126.681 124.011 102.436 255 235 218
176.445 129.263 110.785 216 227 255
49.652 151.776 116.862 210 223 255
89.8742 91.3198 125.026 255 173 102
151.14 140.133 112.973 207 221 255
61.1159 101.325 105.49 222 230 255
201.968 130.551 110.219 221 230 255
189.156 178.455 111.793 185 207 255
75.2984 125.473 111.89 225 232 255
82.3568 142.824 109.884 255 219 190
91.9488 86.2533 109.908 255 255 251
120.583 123.908 98.1055 236 238 255
74.8066 143.653 109.706 255 227 205
41.0266 166.14 114.269 208 222 255
96.2118 127.305 116.242 234 237 255
145.052 150.136 118.262 255 237 221
82.6669 212.776 111.191 180 204 255
110.535 121.065 126.821 203 219 255
148.947 155.578 109.901 217 227 255
53.4295 125.837 111.714 216 226 255
76.4624 88.9655 111.625 218 228 255
100.226 112.814 128.415 255 232 213
79.5052 109.11 106.185 255 251 246
102.909 109.415 115.382 255 240 226
85.8902 90.6351 109.14 255 244 234
136.159 7.77002 112.36 196 214 255
24.613 175.072 112.736 186 208 255
81.2429 121.623 113.956 244 243 255
159.461 110.482 105.917 210 223 255
104.789 76.2337 119.632 255 247 238
142.26 88.9123 120.88 255 251 245
157.222 156.312 117.176 241 241 255
149.363 160.504 111.484 197 215 255
135.239 95.137 120.308 221 230 255
66.9604 105.327 116.324 203 219 255
149.592 198.638 110.896 202 218 255
120.821 109.861 96.8232 255 228 206
27.5449 106.082 114.637 193 213 255
40.3787 182.733 108.946 184 207 255
149.101 145.197 119.86 208 222 255
91.2039 110.865 109.471 219 228 255
170.794 103.082 111.484 206 221 255
94.1071 11.829 111.187 182 206 255
184.879 121.923 110.412 203 218 255
97.0271 109.593 121.255 255 250 244
51.0727 76.5355 114.778 199 216 255
123.609 212.166 111.79 203 219 255
111.952 25.7245 111.051 211 224 255
155.903 52.9947 115.55 191 211 255
141.085 37.1676 110.103 226 233 255
77.8175 163.458 118.176 215 226 255
92.0499 112.709 126.527 255 227 205
32.7469 127.758 115.296 199 216 255
117.823 108.801 89.7514 255 207 168
136.714 106.552 116.412 255 141 27
68.424 106.544 109.903 197 215 255
89.8749 187.052 114.266 190 211 255
110.476 172.086 108.029 189 210 255
113.446 133.587 115.503 255 167 88
98.9727 114.891 128.532 198 216 255
144.736 71.5263 111.218 255 247 239
108.89 139.5 110.943 255 200 155
57.451 53.2771 111.911 201 217 255
100.977 166.01 108.316 206 220 255
70.5624 65.8047 108.111 206 220 255
163.354 184.602 111.543 181 205 255
64.7747 211.791 112.219 195 214 255
29.2662 138.808 109.261 189 210 255
162.65 81.7282 110.91 222 230 255
147.718 216.632 113.134 191 211 255
129.91 111.53 115.273 255 240 227
68.4078 116.369 108.435 222 230 255
139.622 61.4703 107.459 188 210 255
110.03 107.919 94.0965 255 224 199
76.9821 98.3482 103.814 216 227 255
97.0932 36.4392 108.804 203 219 255
50.8812 78.2463 111.784 188 209 255
186.257 128.896 115.705 195 214 255
78.6729 38.9783 112.134 216 227 255
175.105 70.5831 113.455 195 214 255
84.8669 84.3885 103.606 201 217 255
150.358 92.8312 115.759 222 230 255
94.5134 111.148 121.223 255 194 145
43.2785 152.641 110.294 208 222 255
78.197 153.715 111.013 190 211 255
98.4894 82.723 116.258 229 234 255
94.274 155.102 119.222 203 219 255
161.928 47.6655 114.742 176 202 255
55.2717 128.034 117.279 255 250 255
122.896 116.292 99.4702 255 205 166
91.4924 97.4175 123.271 228 233 255
145.43 175.488 115.431 213 224 255
46.8905 104.989 112.201 187 209 255
113.049 177.44 113.671 192 212 255
93.5533 174.684 111.399 206 220 255
133.243 113.069 98.9844 255 219 190
117.684 76.0831 115.897 255 229 207
114.898 64.5901 115.757 255 242 230
126.33 124.427 108.44 207 221 255
15.0143 89.4493 111.783 182 206 255
23.2201 167.381 114.46 177 203 255
43.0878 85.8298 112.686 184 207 255
65.6333 195.989 112.729 205 220 255
139.535 135.85 123.314 255 239 225
58.8019 102.55 110.88 199 216 255
77.5126 125.359 121.535 213 225 255
26.5723 53.5891 111.222 182 206 255
100.737 133.592 99.7903 255 231 211
177.884 129.832 114.335 189 210 255
109.818 9.73834 112.185 189 210 255
184.08 120.25 115.23 195 214 255
133.924 74.7642 120.584 218 228 255
54.1058 121.924 111.616 219 228 255
187.033 92.8889 113.241 199 216 255
122.551 98.6121 128.233 255 176 108
62.8578 130.974 108.447 224 231 255
57.9184 68.8433 115.407 187 209 255
134.041 77.0943 106.264 223 230 255
98.7583 117.135 109.68 255 241 228
130.309 97.8118 105.86 198 216 255
166.584 150.084 115.651 217 227 255
191.832 88.0652 110.308 255 254 249
67.5789 145.557 111.563 193 213 255
101.666 138.387 122.967 255 187 131
111.974 146.555 117.293 233 237 255
147.408 128.023 122.151 241 241 255
140.029 157.451 113.858 198 216 255
133.213 170.363 113.777 198 215 255
75.7134 113.199 114.353 215 226 255
131.275 7.6862 112.125 186 208 255
125.609 71.5195 115.317 255 227 204
93.6141 19.9172 112.045 193 213 255
74.5798 119.712 113.044 207 221 255
113.063 122.186 109.39 215 226 255
99.6056 210.538 112.093 198 216 255
188.811 45.8036 111.542 196 214 255
96.3117 122.283 97.2263 198 216 255
157.109 165.864 112.858 186 208 255
75.9283 108.412 110.565 216 226 255
83.7274 138.314 122.53 203 219 255
73.61 128.454 108.985 206 221 255
164.233 139.474 117.875 202 218 255
69.0854 71.0574 107.068 201 217 255
81.6276 28.9111 112.958 191 211 255
83.8553 38.3715 113.861 255 208 171
154.666 124.545 116.523 232 236 255
136.867 41.0916 109.295 199 217 255
185.889 51.7768 111.408 187 208 255
78.6379 105.67 106.584 236 238 255
157.058 104.064 116.104 219 228 255
95.4215 83.3785 109.411 199 216 255
152.122 69.6364 118.413 206 221 255
136.814 143.167 109.369 192 212 255
68.9508 64.0584 107.54 208 222 255
100.835 116.482 102.119 255 223 198
125.31 67.025 113.042 255 247 239
142.933 79.1469 115.576 235 237 255
116.225 149.622 109.934 197 215 255
105.236 151.697 112.16 255 217 187
109.451 135.318 124.158 255 253 248
118.601 119.35 121.125 255 184 124
148.449 102.837 120.864 199 216 255
108.615 163.366 105.542 236 238 255
111.166 86.5641 123.272 228 234 255
156.734 65.4413 109.872 216 227 255
162.827 200.732 114.5 195 214 255
115.212 209.82 113.142 197 215 255
79.487 173.08 107.94 212 224 255
54.1236 67.5494 111.721 191 211 255
98.3113 16.5746 112.473 213 224 255
147.656 131.171 111.479 211 224 255
74.3654 207.502 110.693 196 214 255
67.7149 115.515 108.902 221 230 255
180.298 97.8657 116.166 199 216 255
116.152 128.768 130.5 217 227 255
99.6321 135.721 103.199 246 244 255
132.426 180.866 113.805 199 216 255
128.085 172.735 108.008 190 211 255
135.095 182.203 114.417 192 212 255
125.262 187.094 108.608 200 217 255
86.9621 126.737 108.849 255 197 149
97.8842 126.357 105.894 255 253 248
134.784 100.798 124.968 255 222 195
112.38 41.3162 113.216 186 208 255
95.879 115.495 114.015 234 237 255
82.6168 106.819 103.345 212 224 255
135.255 73.6523 113.096 202 218 255
194.528 96.6645 115.791 185 208 255
91.8172 185.977 109.53 201 217 255
179.99 49.1953 113.129 177 202 255
91.2736 77.2161 120.683 206 221 255
120.888 176.514 114.494 224 231 255
136.676 107.386 104.769 212 224 255
108.646 111.658 102.731 255 222 195
122.969 105.305 107.83 208 222 255
56.6504 94.2068 111.293 252 247 255
79.0875 91.5989 112.681 203 219 255
92.0974 107.907 101.222 218 228 255
68.5432 14.2274 111.505 201 217 255
142.168 34.3182 111.238 196 215 255
87.591 63.0191 119.296 219 229 255
79.324 107.093 105.898 246 244 255
44.981 58.4006 114.436 208 222 255
126.047 129.183 124.85 255 166 86
193.668 47.792 113.979 192 212 255
145.156 70.2034 111.759 214 225 255
151.245 39.7073 111.075 204 219 255
36.2314 115.867 113.932 224 231 255
161.017 203.248 110.048 178 203 255
129.718 88.8486 118.652 255 234 216
221.263 105.289 113.962 189 210 255
126.797 22.9962 111.905 177 202 255
186.44 145.863 114.906 210 223 255
93.0276 175.028 110.638 208 222 255
122.478 122.401 105.68 255 222 197
190.328 150.456 108.965 211 223 255
214.789 138.858 111.963 185 208 255
94.8411 147.198 104.42 221 229 255
124.203 147.643 113.287 255 253 248
60.7927 84.7413 118.769 207 221 255
197.369 102.252 109.9 194 213 255
153.225 93.7766 118.371 233 237 255
156.453 104.885 115.918 210 223 255
36.8523 153.519 109.925 204 219 255
92.2879 92.7566 105.319 255 227 204
115.003 25.9037 114.579 192 212 255
109.626 69.9532 106.723 218 228 255
102.048 121.993 93.1639 234 237 255
106.977 98.5057 130.492 228 233 255
123.756 57.7566 105.53 219 229 255
128.132 76.091 104.825 255 227 205
108.513 94.3853 111.588 255 246 237
142.144 104.302 113.52 255 234 217
157.888 59.6413 108.557 194 213 255
107.864 127.608 128.726 220 229 255
35.6655 104.787 110.101 211 223 255
55.2785 62.7126 110.311 198 216 255
181.92 103.059 112.693 195 214 255
20.0973 116.791 111.303 217 227 255
86.0018 109.965 117.986 217 227 255
104.201 16.8259 109.257 190 211 255
134.623 153.089 115.23 215 226 255
130.247 86.3741 104.782 198 216 255
114.07 146.073 113.878 230 235 255
109.868 72.6175 119.619 209 222 255
128.885 155.682 104.409 221 229 255
46.0212 88.7138 112.751 192 212 255
120.413 105.552 120.413 206 220 255
104.027 127.373 99.4832 255 244 233
94.9257 95.2183 126.663 220 229 255
119.612 113.066 120.638 216 226 255
159.969 95.6202 117.73 189 210 255
63.753 112.935 118.33 205 220 255
89.2669 176.513 108.809 195 214 255
103.613 80.2382 124.798 198 216 255
203.123 99.8605 111.604 198 216 255
132.826 108.649 115.082 226 233 255
22.2704 94.6052 112.835 196 215 255
203.092 134.656 111.824 187 209 255
170.203 21.1735 110.141 192 212 255
91.4618 140.596 115.225 255 190 136
140.406 66.386 109.494 206 221 255
71.1801 116.782 112.768 234 237 255
103.471 119.628 116.652 238 239 255
94.7988 100.355 116.461 255 241 229
182.444 164.272 116.606 202 218 255
157.113 83.5166 105.834 200 217 255
157.465 77.6217 118.667 197 215 255
142.645 71.7395 121.603 210 223 255
173.898 88.0446 117.937 191 211 255
188.412 122.297 109.651 194 213 255
195.328 113.219 115.426 184 207 255
129.851 78.5313 124.035 215 226 255
39.3547 70.0542 108.52 179 204 255
131.117 51.9974 107.14 199 216 255
93.6882 175.127 110.715 210 223 255
77.159 128.183 120.728 255 252 248
200.374 90.1191 112.199 209 222 255
176.211 163.409 111.737 185 207 255
108.064 53.0933 110.3 184 207 255
182.441 143.145 110.724 196 215 255
156.509 188.929 111.899 197 215 255
112.724 145.439 100.583 212 224 255
119.499 65.4631 111.752 215 226 255
171.964 124.396 113.684 204 219 255
84.2622 163.46 108.087 203 219 255
81.4276 204.17 114.166 195 214 255
168.966 157.218 114.854 237 239 255
80.0353 169.894 107.168 208 222 255
125.38 126.759 119.071 206 221 255
93.573 174.798 110.986 202 218 255
56.0498 134.18 112.6 255 247 239
158.622 128.97 112.31 255 249 243
64.0685 118.581 105.546 204 219 255
48.4423 148.467 112.594 208 222 255
52.1302 112.145 117.263 255 242 230
88.4564 91.6489 115.575 255 250 243
29.2658 73.7896 115.386 191 211 255
122.424 161.924 114.417 255 206 167
79.7365 88.0161 119.246 202 218 255
155.566 142.248 112.809 224 231 255
81.7929 118.572 120.96 255 166 87
153.839 81.4381 111.956 202 218 255
70.013 76.2475 114.827 203 219 255
151.094 34.2552 108.95 225 232 255
119.534 67.6825 115.578 204 219 255
118.789 127.754 119.75 255 231 212
145.996 156.117 118.193 215 226 255
15.6549 66.8507 113.073 181 205 255
158.713 91.5655 118.971 244 243 255
87.6626 92.7281 105.558 212 224 255
93.9732 174.674 110.665 189 210 255
120.814 203.181 116.188 188 210 255
98.3942 92.6725 127.142 255 244 234
60.5673 130.913 120.122 188 209 255
132.225 95.9441 107.486 231 235 255
93.8272 101.655 104.889 255 207 168
89.2255 163.747 108.223 255 246 237
52.0184 35.064 113.691 243 242 255
117.168 34.2841 114.673 252 247 255
98.7498 81.0391 121.89 255 243 232
125.51 84.0581 104.608 213 224 255
143.3 120.546 119.143 243 242 255
175.133 86.2642 108.567 198 215 255
184.425 33.4539 111.016 179 203 255
108.01 118.594 99.1263 255 238 224
73.3518 118.218 107.141 215 226 255
101.526 78.2497 103.312 247 244 255
174.852 120.496 115.962 199 216 255
92.3829 91.5953 111.256 240 240 255
43.8227 41.8131 111.692 185 207 255
82.1758 66.5862 110.616 198 215 255
67.3616 82.0763 106.422 230 235 255
73.175 103.504 114.364 255 243 233
98.8645 46.4827 116.358 217 227 255
128.239 163.682 111.832 185 207 255
137.207 105.249 101.959 213 225 255
90.8675 33.8706 110.893 180 204 255
142.193 92.9414 113.592 255 217 186
98.6338 63.7089 106.1 221 230 255
137.748 100.655 103.541 201 217 255
122.072 57.4337 109.748 255 236 219
138.049 22.7752 113.558 188 210 255
92.9516 184.887 111.196 196 215 255
114.297 60.0074 117.469 234 237 255
99.0644 82.7113 102.66 225 232 255
107.971 166.888 116.749 194 213 255
110.014 131.907 109.018 228 233 255
151.127 66.3669 118.547 213 225 255
97.8959 126.552 107.432 236 238 255
127.008 95.37 103.321 208 222 255
117.458 134.516 122.457 248 245 255
89.6548 75.5587 103.709 200 217 255
90.5275 180.548 110.178 190 210 255
43.7902 142.21 110.386 212 224 255
99.5272 144.554 109.499 255 252 247
47.9834 91.6009 113.536 228 234 255
164.011 95.5254 117.342 248 245 255
207.527 152.285 112.93 187 209 255
168.222 141.429 116.121 249 246 255
104.175 162.311 108.317 233 236 255
77.3434 182.412 111.739 194 213 255
24.1928 86.2194 109.738 191 211 255
174.074 35.9142 114.891 194 213 255
146.143 81.5638 121.112 205 220 255
116.745 15.3574 113.915 191 211 255
134.554 64.209 108.847 217 227 255
200.669 53.8048 112.878 184 207 255
117.225 122.252 116.606 255 229 208
125.614 124.294 105.355 255 250 244
130.611 80.4414 116.286 255 243 232
83.8397 98.3726 106.272 235 238 255
80.2928 124.708 104.075 216 227 255
147.702 156.358 115.027 239 240 255
122.194 39.0735 110.61 185 208 255
107.432 137.065 117.31 226 232 255
59.7132 97.3247 111.665 225 232 255
15.0351 109.034 111.013 213 225 255
184.555 67.4324 111.305 193 213 255
90.8058 139.606 99.9467 228 233 255
128.66 113.519 113.922 255 222 196
84.4932 93.9863 119.104 235 237 255
115.213 131.936 124.654 255 238 223
120.631 59.1674 116.407 204 219 255
146.686 157.674 113.415 255 249 255
99.7104 128.216 103.168 197 215 255
149.928 112.747 121.706 216 227 255
83.5033 128.015 100.78 195 214 255
48.4277 97.589 116.631 200 217 255
119.278 75.8975 124.613 209 222 255
152.81 113.656 111.055 232 236 255
147.133 122.511 106.126 221 230 255
102.318 156.147 115.859 219 228 255
49.6711 91.8568 110.614 221 230 255
93.2008 30.7921 113.936 187 209 255
125.517 83.8725 117.345 255 253 248
72.1557 142.945 109.038 205 220 255
126.429 166.671 119.492 202 218 255
108.326 153.463 117.255 255 244 234
129.416 155.423 105.735 192 212 255
125.963 13.9698 112.715 195 214 255
121.157 90.8563 117.052 255 250 244
200.984 76.2945 111.578 218 227 255
89.936 106.154 105.537 201 217 255
121.982 140.099 106.891 199 216 255
129.822 155.01 103.924 209 223 255
157.851 70.4121 109.469 221 229 255
139.082 69.3364 116.879 203 218 255
31.3798 144.085 113.083 191 211 255
71.2066 141.667 116.478 251 247 255
111.846 111.746 126.151 222 230 255
142.87 81.7299 103.153 255 205 166
103.446 80.6301 104.181 240 240 255
102.345 142.194 99.8238 205 220 255
174.576 122.437 108.683 255 242 231
137.959 82.1264 102.886 238 239 255
85.7658 158.466 116.839 194 213 255
201.75 173.537 110.373 183 206 255
133.498 141.587 106.059 255 231 211
172.904 133.901 116.837 205 220 255
51.8903 174.455 109.739 205 220 255
75.7951 111.081 102.647 248 245 255
27.7401 116.853 111.506 187 209 255
92.8849 174.857 111.479 189 210 255
124.337 96.0472 106.362 255 187 131
122.129 166.734 114.232 204 219 255
88.088 93.2001 102.36 255 253 248
136.148 103.175 111.951 227 233 255
95.9992 178.047 110.32 218 228 255
45.7216 76.3871 115.406 195 214 255
89.7489 130.15 121.786 216 226 255
145.407 117.279 118.713 224 231 255
133.123 140.145 114.605 243 242 255
81.8698 35.0482 114.403 198 216 255
113.705 88.1843 116.224 224 231 255
86.6821 80.8291 116.258 255 220 192
105.311 89.788 101.25 255 180 117
129.335 103.089 114.97 255 251 245
201.452 122.022 113.821 201 217 255
99.9595 180.362 112.491 197 215 255
102.979 113.823 115.657 255 226 203
146.956 55.0247 110.164 202 218 255
80.9122 67.629 112.676 192 212 255
138.686 201.272 112.733 186 208 255
154.998 184.978 112.677 181 205 255
75.9715 63.7413 113.789 188 209 255
145.718 184.481 113.46 200 217 255
7.51439 136.543 112.56 190 211 255
162.886 40.9616 112.205 196 214 255
85.734 117.8 122.564 255 213 179
98.4128 71.2166 121.678 255 239 226
99.5801 78.9358 115.787 255 217 186
124.433 60.0116 107.849 215 226 255
87.8711 192.221 115.309 186 208 255
109.348 96.2466 107.748 255 221 194
120.099 129.858 126.952 235 237 255
128.601 169.49 116.374 189 210 255
124.27 42.0676 110.244 196 215 255
164.259 143.968 118.651 255 249 241
68.1579 91.9976 117.1 202 218 255
106.531 19.1304 113.391 212 224 255
70.7766 63.054 113.998 247 244 255
129.751 21.7304 115.233 194 213 255
144.463 17.746 111.222 187 208 255
87.6495 130.379 116.422 210 223 255
120.101 116.892 97.4202 255 208 170
162.13 89.9074 112.387 208 221 255
161.066 72.9191 106.415 198 216 255
67.6384 120.802 118.227 221 230 255
158.164 120.591 106.848 255 250 244
125.411 46.6795 116.064 242 241 255
93.9614 143.571 122.464 210 223 255
149.755 115.44 111.176 202 218 255
144.32 147.286 103.32 251 247 255
118.75 51.2692 115.923 196 214 255
121.723 119.018 96.2823 224 231 255
115.968 86.5932 110.33 247 244 255
105.536 80.5709 117.469 255 251 245
115.891 158.989 119.405 214 225 255
94.4555 69.5133 113.382 205 220 255
177.016 60.4854 115.419 188 210 255
25.7132 120.752 112.927 255 253 249
151.742 157.721 107.811 212 224 255
89.6159 112.689 101.198 219 228 255
40.9653 173.188 111.32 197 215 255
49.756 96.8818 106.863 198 215 255
208.905 74.6768 110.243 197 215 255
43.9306 134.814 109.869 195 214 255
53.395 26.7264 113.373 192 212 255
126.579 196.841 109.522 198 216 255
151.903 83.0029 108.325 247 244 255
139.723 66.2589 108.415 203 218 255
164.462 165.601 109.873 192 212 255
140.631 179.084 115.463 194 213 255
86.3935 114.337 100.953 234 237 255
116.366 213.168 111.694 194 213 255
210.244 150.582 112.444 192 212 255
44.96 124.259 112.869 255 251 246
122.16 95.1568 108.906 226 232 255
3.61471 104.711 113.813 190 211 255
123.024 70.6181 110.841 255 247 238
136.794 95.9101 110.923 255 250 255
34.0301 46.2159 112.096 202 218 255
101.849 77.9755 100.368 255 246 236
113.786 29.3588 114.867 203 219 255
48.6279 86.3119 113.955 223 231 255
27.5888 167.262 113.527 190 211 255
66.7267 64.3707 116.503 223 231 255
27.3978 177.781 112.578 185 207 255
126.049 116.897 126.874 220 229 255
111.532 115.784 98.0347 225 232 255
114.186 101.397 93.1444 255 196 148
75.26 154.243 105.285 255 250 244
58.1416 123.833 115.993 255 251 245
136.637 102.497 120.028 255 244 234
80.673 93.7888 121.097 255 240 227
166.359 37.3416 109.916 202 218 255
70.2298 56.7695 109.1 217 227 255
39.8119 102.3 113.45 200 217 255
121.424 180.287 114.608 194 213 255
58.5027 90.0133 117.066 207 221 255
65.0196 171.785 115.493 190 211 255
111.503 142.339 114.673 255 245 236
130.386 58.445 106.873 255 242 230
139.589 116.444 116.061 203 219 255
118.748 106.421 131.889 220 229 255
102.584 86.4978 118.399 255 235 218
27.6794 100.971 109.055 190 211 255
89.2783 129.368 111.33 213 225 255
142.879 173.768 115.772 199 217 255
79.5917 169.767 115.03 194 213 255
121.558 128.142 105.51 255 252 247
127.438 70.6531 109.266 232 236 255
88.8364 91.7335 99.2756 210 223 255
14.3349 154.1 114.229 189 210 255
90.7122 103.009 105.845 222 230 255
20.2381 91.1775 112.938 196 214 255
97.9909 52.4749 118.877 242 242 255
76.0918 123.768 115.286 199 216 255
131.968 125.14 116.299 255 212 178
76.8482 122.385 104.265 221 229 255
126.903 55.3496 117.467 224 231 255
132.054 28.7086 110.719 185 208 255
91.8992 175.108 111.433 197 215 255
93.7235 36.3221 108.296 217 227 255
87.5158 150.248 118.774 218 228 255
92.8937 91.1919 120.341 217 227 255
176.576 76.6927 114.13 196 214 255
88.2636 134.963 122.433 220 229 255
148.835 75.7668 116.224 226 233 255
161.72 93.6957 107.975 216 226 255
195.855 184.094 113.284 178 203 255
42.0854 156.521 110.392 255 249 241
136.129 130.817 110.804 255 199 153
37.7453 137.286 107.63 191 211 255
44.7654 162.562 115.409 225 232 255
84.3749 97.2776 121.273 255 239 226
101.141 133.634 121.44 200 217 255
134.622 131.605 105.674 255 243 232
133.786 67.7864 104.284 207 221 255
120.999 102.981 101.215 216 227 255
52.8706 131.922 111.648 255 239 225
33.624 95.7487 110.096 185 208 255
173.29 94.6407 113.262 206 221 255
30.2009 133.36 114.395 190 211 255
170.822 78.5052 111.453 214 225 255
77.5935 129.652 119.336 209 223 255
204.498 109.321 112.796 194 213 255
121.841 117.666 115.934 255 156 63
158.306 141.38 113.078 210 223 255
166.096 141.693 107.019 203 218 255
98.2213 125.641 120.388 255 249 255
128.011 50.7919 113.822 187 209 255
91.593 99.8127 124.634 216 226 255
152.413 67.3226 114.679 220 229 255
74.0046 137.234 109.996 255 240 227
91.2149 85.7392 107.156 255 253 248
170.339 117.164 107.264 181 205 255
112.728 90.3336 124.513 255 226 204
189.877 32.9201 113.224 196 215 255
130.704 173.978 112.666 199 216 255
215.195 120.371 112.379 180 204 255
182.658 149.605 113.514 196 214 255
50.0363 118.354 110.233 207 221 255
101.029 89.156 103.135 255 249 255
135.604 95.6013 120.663 255 243 231
116.494 90.1694 100.378 255 243 232
99.0623 164.199 106.782 228 233 255
45.1264 125.995 116.959 186 208 255
74.2304 158.046 118.747 197 215 255
121.09 66.1934 119.936 222 230 255
168.717 38.4263 111.869 193 212 255
90.1285 138.937 109.285 227 233 255
186.47 46.2745 111.243 195 214 255
128.626 123.593 111.512 255 197 150
110.466 112.547 93.8633 236 238 255
156.5 105.146 121.763 228 233 255
145.678 78.8299 118.746 230 235 255
145.34 88.7783 112.079 214 225 255
101.406 168.611 111.248 201 218 255
98.2536 56.5519 108.49 209 223 255
115.03 128.352 112.949 255 172 99
116.672 161.366 118.61 255 243 231
128.441 80.0275 114.744 244 243 255
146.013 99.8111 107.658 255 163 79
120.348 98.311 110.11 255 199 154
105.433 57.6202 115.922 204 219 255
136.729 59.3344 112.341 199 216 255
152.065 159.136 113.924 197 215 255
122.519 167.994 108.657 255 242 229
51.3269 152.839 113.412 229 234 255
55.5421 102.969 118.085 199 216 255
104.41 145.222 122.327 223 231 255
129.385 89.5877 115.016 233 237 255
155.911 119.05 110.566 227 233 255
102.273 114.498 112.05 255 201 158
93.5194 174.861 111.143 201 218 255
125.448 47.8605 110.219 255 242 231
97.9439 160.652 110.129 203 218 255
76.3758 124.842 114.01 255 250 243
185.117 29.9601 111.592 195 214 255
106.857 197.073 113.526 190 210 255
103.98 112.387 93.2643 213 225 255
65.251 59.651 108.459 216 226 255
86.7109 24.3333 112.425 188 209 255
102.047 147.147 115.615 198 216 255
54.7141 128.672 118.88 207 221 255
77.7407 141.476 105.419 202 218 255
131.65 87.815 104.998 243 242 255
85.2608 80.5395 111.101 197 215 255
97.6335 61.7145 106.469 216 226 255
90.9463 77.1801 114.235 204 219 255
123.796 108.474 95.1697 218 227 255
93.3551 175.167 111.178 211 224 255
86.698 125.431 115.641 196 215 255
52.1515 81.1282 115.258 255 207 169
139.096 152.209 110.908 205 220 255
97.9889 37.1787 114.73 208 222 255
89.6701 86.0872 101.587 242 241 255
131.336 81.5886 100.799 201 218 255
93.3146 129.84 123.839 224 231 255
194.652 97.9619 111.818 190 211 255
202.469 124.219 112.809 207 221 255
79.0376 121.929 124.458 255 244 234
82.7203 123.904 122.915 250 246 255
35.3524 78.9548 111.517 194 213 255
80.3626 116.357 118.657 255 251 246
73.1941 82.9428 114.623 242 241 255
79.4682 90.799 116.456 233 237 255
123.734 165.843 104.89 220 229 255
142.905 143.295 119.313 225 232 255
88.6792 69.4533 119.454 255 252 246
87.513 38.2687 114.75 191 211 255
78.9681 128.398 104.484 194 213 255
88.0839 31.8829 113.257 232 236 255
33.2029 116.306 116.107 232 236 255
46.1155 91.9915 108.09 190 211 255
167.163 110.578 113.119 255 249 242
37.3101 118.914 115.433 206 221 255
83.1565 59.4174 110.676 219 228 255
71.2288 161.32 109.873 201 217 255
73.6595 135.936 118.169 230 234 255
101.651 130.96 109.399 202 218 255
200.387 128.844 112.657 196 214 255
81.839 103.917 107.919 212 224 255
139.739 175.391 117.019 182 205 255
92.8359 130.079 124.62 204 219 255
90.8545 86.7551 112.124 198 216 255
126.771 110.847 112.329 255 250 255
24.1577 148.173 111.927 217 227 255
124.657 62.2536 105.058 186 208 255
133.888 96.2538 111.649 212 224 255
139.112 207.504 111.088 201 217 255
197.276 91.3337 110.34 187 209 255
138.629 131.361 119.762 255 236 220
85.6182 147.54 114.521 207 221 255
93.3487 174.721 111.034 194 213 255
116.451 158.618 104.913 233 236 255
177.147 45.2851 110.107 191 211 255
122.837 100.29 123.459 255 196 148
95.2955 165.256 117.13 255 204 164
121.85 195.512 109.765 212 224 255
100.635 124.908 114.806 255 182 121
80.0228 170.772 113.01 200 217 255
106.919 69.2418 117.773 199 216 255
83.8467 94.8722 109.194 209 222 255
80.3535 95.4498 122.934 255 183 123
83.1449 55.5732 107.759 208 222 255
13.4602 75.7843 112.126 194 213 255
121.458 119.922 125.164 255 239 225
124.316 44.1501 111.158 194 213 255
162.081 176.267 111.346 186 208 255
148.191 167.887 117.848 212 224 255
165.597 95.409 115.948 255 220 193
170.637 120.716 105.613 246 244 255
132.607 97.5052 101.421 255 222 195
73.9765 130.818 112.665 255 245 235
95.3032 88.2832 106.991 255 255 252
26.8089 55.9941 114.056 195 214 255
166.359 91.1769 111.574 194 213 255
106.183 17.9091 111.115 189 210 255
189.09 97.3845 110.128 196 215 255
64.7369 156.075 109.558 192 212 255
45.1541 182.528 112.909 187 208 255
106.888 123.653 126.65 245 243 255
121.638 80.7774 106.744 255 220 193
80.5082 124.639 115.319 235 238 255
155.967 81.0056 117.385 203 219 255
126.539 199.062 112.197 189 210 255
166.973 168.442 113.014 189 210 255
117.731 118.322 97.7789 231 235 255
132.291 147.631 122.893 255 243 232
81.8677 120.043 115.137 229 234 255
129.453 41.995 113.874 241 241 255
90.1836 12.8377 111.914 186 208 255
70.69 122.284 107.665 243 242 255
113.426 146.986 102.948 218 228 255
93.3619 109.171 121.193 255 213 179
110.02 90.9548 106.386 220 229 255
122.736 110.62 106.78 209 222 255
110.085 99.6277 114.242 255 234 216
153.872 73.3819 107.289 198 216 255
60.4434 23.2214 112.661 199 216 255
50.344 203.656 112.212 190 211 255
109.85 63.3177 116.305 217 227 255
9.57809 143.361 112.206 184 207 255
110.513 127.933 111.55 223 230 255
53.1607 26.7926 113.169 189 210 255
143.389 92.0068 111.312 255 222 196
105.002 84.426 109.462 255 228 207
167.552 102.081 111.311 207 221 255
143.16 85.6602 111.686 240 241 255
114.174 168.098 109.242 199 216 255
51.3129 92.6876 114.08 197 215 255
129.095 128.26 111.332 255 215 183
151.241 99.1816 104.104 204 219 255
105.244 109.316 104.787 255 219 190
128.219 121.604 110.538 255 233 215
126.661 110.514 112.472 211 223 255
177.508 157.216 111.694 208 222 255
117.772 21.61 112.073 191 211 255
72.0692 135.684 106.528 196 214 255
17.8698 99.5107 112.136 193 212 255
87.9271 109.359 107.697 254 248 255
110.617 121.057 119.921 246 244 255
116.95 118.011 125.943 203 219 255
70.9379 134.078 107.924 205 220 255
83.9149 153.035 120.056 218 228 255
55.0844 33.4701 112.985 202 218 255
82.0636 76.0789 120.694 205 220 255
162.68 172.423 113.382 199 216 255
119.568 36.6448 117.199 194 213 255
172.938 112.161 118.257 227 233 255
69.912 48.6977 115.689 216 226 255
128.634 129.68 109.877 209 223 255
210.944 125.938 112.287 185 207 255
147.783 157.027 107.114 188 209 255
124.7 125.302 106.91 255 249 242
117.89 120.584 107.461 219 228 255
98.7265 120.59 101.151 255 246 237
87.8482 170.148 110.427 194 213 255
48.0556 125.013 111.106 204 219 255
145.187 75.7307 106.968 235 237 255
57.6413 89.221 112.44 225 232 255
49.3636 35.994 114.693 185 208 255
90.9387 107.242 106.548 255 232 214
202.156 113.033 110.994 209 222 255
104.407 158.556 120.636 189 210 255
125.193 85.0883 119.275 188 209 255
50.116 86.3735 113.069 217 227 255
95.0552 64.7319 106.527 204 219 255
60.7974 154.033 113.208 191 211 255
180.121 158.251 113.195 192 212 255
63.3551 117.788 110.082 208 222 255
37.0225 64.8015 111.81 189 210 255
121.774 205.705 111.966 191 211 255
98.1539 49.1635 110.198 187 209 255
129.904 107.2 125.491 211 224 255
117.349 113.351 127.534 255 249 241
43.642 193.6 111.317 188 209 255
137.666 161.198 105.443 188 209 255
102.437 101.247 112.003 238 239 255
149.784 79.2159 111.54 217 227 255
135.9 74.204 115.744 212 224 255
61.0682 85.4727 113.738 204 219 255
129.512 206.902 111.609 180 204 255
40.0223 66.8129 112.073 189 210 255
121.241 131.77 105.67 200 217 255
140.383 169.018 110.693 197 215 255
210.923 147.712 113.944 192 212 255
127.211 123.167 124.905 255 250 255
149.538 153.053 118.387 219 228 255
36.3956 172.717 114.372 195 214 255
100.154 113.232 98.3022 255 186 128
135.586 110.475 99.2183 255 243 232
99.8381 115.512 108.829 234 237 255
143.864 128.337 116.674 228 234 255
105.449 135.691 113.65 207 221 255
143.476 135.416 109.858 215 226 255
125.366 157.13 110.665 255 252 246
65.2094 176.446 113.076 196 215 255
95.564 158.62 118.345 191 212 255
108.598 83.4795 114.79 246 244 255
77.5276 162.872 112.642 185 208 255
140.928 77.5495 112.549 197 215 255
183.825 111.911 116.607 208 221 255
107.762 98.3021 101.289 255 198 152
95.2169 121.955 101.053 234 237 255
89.9722 146.18 114.936 213 224 255
106.714 124.181 129.164 233 236 255
127.039 98.5275 123.175 195 214 255
161.524 87.4918 119.446 229 234 255
172.853 28.0891 114.513 180 204 255
108.863 128.9 125.059 212 224 255
138.096 67.0638 111.248 209 222 255
171.001 48.1351 113.506 212 224 255
147.464 129.175 123.599 215 226 255
75.4972 98.7946 119.1 197 215 255
146.211 119.81 116.261 209 222 255
58.1001 72.3959 116.349 196 214 255
217.034 88.49 111.164 197 215 255
122 65.4114 103.518 244 243 255
164.408 63.943 113.691 192 212 255
81.9166 52.9908 116.012 193 213 255
106.466 96.1365 118.447 255 181 119
71.2855 206.065 110.96 188 209 255
62.2982 106.892 111.123 233 236 255
81.9665 123.378 121.865 212 224 255
177.703 126.544 112.464 198 215 255
59.7532 35.0537 113.984 188 209 255
159.151 164.038 108.752 203 219 255
104.443 134.021 112.435 255 224 199
34.8337 95.3575 113.6 207 221 255
59.2359 64.5145 110.655 198 215 255
138.344 97.0286 107.409 254 248 255
205.963 70.9514 114.461 206 220 255
123.38 9.64612 113.579 179 204 255
29.8737 167.416 111.172 190 210 255
48.1965 31.8138 111.71 192 212 255
52.2499 79.199 113.833 210 223 255
76.2668 142.814 114.389 211 224 255
129.852 172.901 116.519 197 215 255
200.584 62.0349 113.921 221 229 255
114.539 131.723 102.247 242 242 255
89.4966 43.6163 116.371 196 215 255
130.753 85.4131 113.996 225 232 255
113.457 160.715 106.823 217 227 255
195.719 109.726 112.465 184 207 255
68.4916 159.306 112.427 190 211 255
158.587 110.717 114.199 239 240 255
93.8223 145.287 121.036 255 253 248
110.535 148.232 111.033 218 228 255
85.5518 120.946 104.503 255 246 238
88.0968 179.209 111.709 212 224 255
161.329 165.496 117.799 214 225 255
50.9504 85.3922 116.726 233 236 255
94.5684 170.512 113.132 201 217 255
129.72 106.965 101.952 223 230 255
111.12 125.263 112.794 255 42 0
85.5682 105.131 115.795 208 222 255
73.9925 137.241 119.01 205 220 255
84.5204 112.576 113.52 230 235 255
97.1488 93.5682 103.607 210 223 255
65.8908 186.262 114.599 221 229 255
11.999 134.753 113.422 199 216 255
114.283 22.8385 114.079 212 224 255
126.679 88.1591 118.89 243 242 255
219.895 87.993 110.312 188 209 255
109.278 26.2589 108.974 190 211 255
90.0568 117.767 126.209 226 232 255
87.9095 152.846 106.679 243 242 255
137.622 42.1101 110.279 207 221 255
64.3526 202.737 114.103 192 212 255
77.5778 123.831 122.311 206 220 255
73.2763 194.328 112.291 192 212 255
11.928 73.0026 109.831 183 206 255
97.1434 119.16 120.581 255 193 142
156.177 21.0017 110.89 200 217 255
148.842 214.942 110.811 177 202 255
58.2815 95.6851 106.963 204 219 255
194.403 120.581 113.458 199 216 255
114.432 188.802 114.863 206 221 255
129.89 107.845 122.124 207 221 255
76.1476 97.5054 104.696 208 222 255
104.061 159.405 112.912 255 249 242
21.7392 66.2019 115.453 183 206 255
113.529 126.862 129.474 214 225 255
136.864 174.625 113.81 189 210 255
106.126 87.329 108.392 203 219 255
163.846 173.376 111.875 205 220 255
115.855 15.4294 110.99 225 232 255
127.499 96.512 107.117 255 200 156
27.5741 75.3536 113.15 220 229 255
153.204 144.632 104.75 234 237 255
80.5146 11.7846 110.592 182 205 255
77.4327 131.329 118.479 215 226 255
129.089 58.249 118.766 198 215 255
98.3065 127.312 97.7265 255 254 250
168.304 150.666 107.97 198 216 255
113.014 127.864 119.426 220 229 255
64.5249 175.168 114.365 204 220 255
116.94 121.319 100.156 255 144 33
49.705 163.036 115.979 220 229 255
25.9588 110.715 116.531 197 215 255
78.6165 85.6736 106.048 255 102 0
41.7216 154.125 108.5 201 217 255
139.718 138.721 123.264 212 224 255
127.778 74.2027 120.956 255 239 225
57.2385 102.058 114.526 222 230 255
137.803 45.7453 114.416 193 213 255
127.575 96.462 97.2658 255 224 199
177.375 150.193 109.751 197 215 255
12.9542 91.2878 112.689 181 205 255
71.6495 72.7817 118.81 201 218 255
120.243 40.9831 108.323 214 225 255
33.8757 157.085 111.262 185 207 255
65.6984 16.5906 115.603 186 208 255
80.0717 74.8771 104.885 246 244 255
157.415 138.082 105.849 202 218 255
138.709 152.541 107.499 216 226 255
105.686 133.186 105.402 255 193 143
104.651 118.541 103.412 238 239 255
61.1678 17.7845 113.016 188 209 255
97.7312 109.442 117.141 255 216 186
92.9848 174.342 111.373 206 221 255
154.13 108.487 114.114 215 226 255
138.218 163.484 107.533 212 224 255
114.552 95.2087 96.4484 229 234 255
116.833 39.8034 109.116 194 213 255
53.4463 47.1334 110.118 205 220 255
105.613 123.038 111.839 255 227 205
118.32 103.773 113.908 245 243 255
127.867 62.007 119.875 225 232 255
120.651 159.699 105.262 229 234 255
93.116 102.264 100.527 223 231 255
86.1498 66.0281 118.116 201 218 255
111.68 78.6048 101.203 214 225 255
89.7587 171.629 112.742 255 251 245
205.258 158.082 111.986 183 206 255
106.275 126.663 111.126 255 253 248
86.8224 98.5783 107.458 255 251 255
118.012 150.875 122.812 255 250 244
218.096 122.784 113.439 175 201 255
49.4684 94.4525 107.897 197 215 255
102.761 218.642 113.808 180 204 255
111.768 93.5468 127.803 255 243 232
93.2169 109.04 101.712 250 246 255
112.688 164.547 104.588 193 213 255
109.454 175.36 111.929 198 216 255
157.812 57.7994 110.612 209 222 255
40.7744 36.501 111.313 192 212 255
65.1518 47.8244 112.583 202 218 255
130.353 95.4936 109.164 255 114 0
106.315 134.866 110.249 235 237 255
104.698 112.045 118.925 222 230 255
114.81 38.8633 109.386 216 227 255
49.8589 152.262 109.467 211 224 255
179.4 35.6041 112.152 187 209 255
152.673 184.616 109.635 186 208 255
119.93 159.567 106.491 216 227 255
139.396 105.417 108.651 206 220 255
146.083 106.938 104.502 240 241 255
122.231 125.849 108.451 228 233 255
64.5305 38.0781 111.461 190 211 255
187.485 143.776 113.541 196 214 255
36.4154 154.901 110.747 197 215 255
160.314 99.9078 105.585 226 233 255
169.358 144.096 112.615 219 228 255
163.141 138.938 108.94 228 233 255
110.589 142.154 113.829 201 218 255
33.1499 64.3345 112.95 200 217 255
99.8684 82.6832 120.35 208 222 255
66.7355 116.403 107.28 255 238 224
123.991 217.194 113.39 198 215 255
131.916 146.866 110.751 230 235 255
83.092 67.826 114.559 231 235 255
109.433 170.648 113.595 203 219 255
162.811 133.049 116.146 197 215 255
173.368 168.064 110.969 198 216 255
28.1838 83.1101 113.19 195 214 255
92.0743 168.942 114.925 200 217 255
203.646 169.144 113.612 184 207 255
121.091 167.295 109.599 213 224 255
113.471 52.623 118.081 211 224 255
182.061 111.476 115.239 218 228 255
78.2738 116.483 114.505 214 225 255
17.9611 102.764 112.88 200 217 255
167.509 67.3623 115.652 209 222 255
119.019 64.8144 103.491 211 224 255
60.212 148.901 116.378 200 217 255
112.966 113.811 125.595 241 241 255
102.82 87.8365 122.42 204 220 255
142.598 92.8881 119.592 204 219 255
167.583 62.7581 110.666 198 216 255
127.232 97.7379 108.59 236 238 255
167.194 44.1361 112.552 193 212 255
127.294 117.489 112.985 255 234 216
120.128 123.187 107.433 255 235 218
44.724 129.52 115.139 191 211 255
129.003 69.414 109.021 255 254 249
77.7105 81.6663 120.365 209 222 255
193.872 109.523 112.26 194 213 255
129.905 58.0661 105.779 229 234 255
71.4126 162.655 112 192 212 255
146.093 106.822 121.219 208 221 255
62.0865 142.039 109.143 196 215 255
110.417 162.867 107.352 219 228 255
144.761 67.4978 115.741 205 220 255
39.7649 165.149 112.117 187 209 255
160.406 175.263 112.252 191 211 255
107.446 104.965 133.1 255 253 248
176.055 122.544 111.307 233 236 255
43.8784 128.606 111.733 203 219 255
20.8803 94.5675 113.691 188 209 255
64.4502 91.7289 104.738 208 221 255
123.946 185.667 112.511 193 213 255
169.643 85.5643 114.479 194 213 255
198.228 174.953 112.037 186 208 255
93.9671 174.354 111.541 215 226 255
65.3056 113.869 111.414 206 220 255
105.317 75.8658 109.113 207 221 255
106.384 49.6508 108.169 225 232 255
5.73134 118.422 113.832 188 210 255
66.2824 46.35 114.075 190 210 255
205.776 67.379 111.559 236 238 255
95.0175 168.415 111.682 226 232 255
144.352 156.201 108.726 198 215 255
147.781 76.3443 115.005 201 217 255
89.4989 56.2746 116.947 226 232 255
173.547 79.9935 110.134 191 211 255
94.132 175.239 111.208 255 247 238
197.098 127.823 112.656 192 212 255
26.6021 129.97 114.046 205 220 255
155.375 137.885 115.898 255 227 205
212.888 86.4963 114.078 211 223 255
169.869 21.3026 113.738 197 215 255
92.7796 4.86753 114.274 187 209 255
211.777 88.1986 113.994 186 208 255
85.0934 78.6713 109.309 221 230 255
88.8246 83.5435 101.497 197 215 255
35.8499 85.6343 113.461 218 227 255
109.243 81.693 105.397 231 235 255
32.5582 148.298 113.38 239 240 255
156.079 72.6728 115.082 237 239 255
191.34 142.293 115.821 183 206 255
82.8339 167.399 108.9 193 213 255
92.0561 46.3096 114.203 255 253 249
101.088 84.5943 108.749 255 230 209
126.824 125.157 120.191 255 236 220
37.0497 153.372 112.854 189 210 255
133.457 60.1493 112.717 255 250 244
73.2382 82.2211 121.044 227 233 255
118.507 150.663 102.705 233 236 255
143.324 62.0752 116.537 201 218 255
149.582 141.905 105.762 213 225 255
105.962 120.179 117.155 200 217 255
58.8026 188.814 111.809 214 226 255
122.253 73.5734 113.049 255 249 241
128.265 99.6852 96.9814 213 225 255
124.221 111.945 121.266 255 253 249
115.796 153.223 121.063 195 214 255
163.104 143.863 114.422 182 206 255
142.284 76.7173 104.338 217 227 255
170.495 132.999 108.998 213 225 255
104.847 65.9086 113.688 213 224 255
170.196 120.728 116.666 205 220 255
71.6185 157.335 112.524 255 247 238
45.3073 153.392 113.967 205 220 255
50.396 118.629 110.054 203 218 255
113.6 49.4352 115.325 221 230 255
62.1127 120.074 114.196 234 237 255
77.3423 117.021 110.023 204 219 255
89.9402 101.523 125.106 248 245 255
103.595 54.4647 116.003 198 215 255
93.6715 58.524 112.218 202 218 255
64.9452 49.5018 113.021 255 217 187
123.431 96.8848 125.111 255 202 160
135.338 140.067 114.614 255 249 242
129.827 170.159 109.569 197 215 255
111.946 131.337 105.638 227 233 255
88.4855 171.132 115.66 211 224 255
105.404 218.697 112.803 187 209 255
175.547 164.042 115.747 193 213 255
176.966 40.926 110.402 213 225 255
150.616 23.5102 112.178 203 219 255
52.584 75.426 110.21 201 217 255
203.879 69.1835 114.176 188 209 255
78.8343 97.585 123.531 244 243 255
15.6836 95.554 111.014 195 214 255
81.6435 161.593 115.639 183 206 255
144.204 137.417 122.368 244 243 255
77.843 169.908 110.118 255 249 241
113.329 89.5927 102.885 217 227 255
74.878 163.7 116.31 213 225 255
150.044 150.206 108.528 208 222 255
159.45 89.4058 109.675 218 228 255
158.283 134.192 110.429 197 215 255
103.34 107.525 94.1333 227 233 255
57.5918 131.263 111.337 198 215 255
127.598 99.9902 123.94 255 249 242
67.8127 186.463 108.915 192 212 255
120.698 115.131 128.262 200 217 255
76.0511 86.8411 111.618 193 212 255
177.6 138.894 112.358 215 226 255
136.013 72.2475 112.184 202 218 255
59.9917 114.814 117.062 211 223 255
88.0359 83.8332 106.3 237 239 255
137.959 8.85931 112.051 189 210 255
77.4949 147.503 112.547 197 215 255
201.06 114.064 113.587 196 215 255
151.899 44.7897 113.343 197 215 255
90.3068 116.142 126.055 215 226 255
18.6259 84.3288 111.177 184 207 255
127.326 28.751 112.872 209 222 255
68.7087 154.811 109.878 193 213 255
123.843 97.8 105.784 255 18 0
125.042 112.837 112.209 255 215 183
152.338 22.8581 114.894 190 211 255
114.958 108.466 101.639 255 230 211
167.329 162.279 111.734 194 213 255
137.674 181.333 110.65 201 218 255
123.957 154.081 118.51 192 212 255
113.296 115.771 94.8252 243 242 255
92.4684 79.8249 101.985 255 246 236
96.9658 155.707 121.288 210 223 255
69.0913 124.057 120.645 255 232 213
146.624 59.7175 118.934 192 212 255
52.7168 184.024 112.985 182 205 255
115.201 139.282 115.602 195 214 255
112.615 105.873 94.1176 255 146 39
155.034 75.8347 118.867 225 232 255
81.251 119.908 109.819 226 232 255
122.195 127.552 108.821 251 246 255
143.773 151.415 121.395 216 227 255
131.12 190.454 113.084 181 205 255
136.953 36.5649 113.243 187 209 255
92.1609 99.4524 120.423 208 222 255
105.679 207.979 113.014 201 217 255
83.4342 76.8835 114.189 238 239 255
132.926 111.277 122.271 255 231 211
214.378 95.7419 111.719 190 210 255
162.114 86.9324 107.834 203 219 255
78.6708 141.446 111.328 255 250 255
142.848 119.113 121.437 255 229 209
54.1683 96.5632 113.905 194 213 255
96.6287 174.093 111.583 201 217 255
106.738 71.1121 101.603 226 232 255
58.4253 142.561 115.959 200 217 255
197.981 131.837 112.254 179 203 255
149.767 157.069 115.599 211 224 255
128.764 71.6387 114.58 233 236 255
217.837 99.9662 114.15 180 204 255
137.415 21.4031 113.693 184 207 255
117.229 111.752 94.4274 245 244 255
202.748 146.081 113.961 190 210 255
115.76 124.889 122.522 255 238 224
134.453 147.786 116.363 255 236 220
122.66 59.7738 116.647 255 254 250
140.367 178.905 115.862 189 210 255
159.07 145.983 117.778 202 218 255
109.892 123.941 132.849 216 226 255
170.15 129.335 116.903 248 245 255
55.9924 153.467 108.772 221 230 255
143.882 93.5192 112.571 208 222 255
100.087 103.823 112.735 210 223 255
133.476 16.6251 113.929 186 208 255
168.468 179.005 111.539 200 217 255
166.4 42.0863 114.157 191 211 255
139.279 127.343 116.455 203 219 255
88.6538 16.4321 110.928 176 202 255
142.414 124.095 113.471 255 233 216
118.154 95.2625 97.9543 233 237 255
102.726 98.0608 124.138 255 229 208
106.088 99.3177 107.918 245 243 255
30.7057 160.748 114.954 185 207 255
71.7236 69.3663 115.316 255 251 246
110.376 122.101 105.908 235 238 255
102.172 156.302 119.535 255 245 235
69.3857 24.5289 112.635 196 214 255
136.275 206.552 111.657 182 206 255
93.8919 203.398 111.521 224 231 255
189.023 107.01 109.103 209 222 255
63.178 193.847 113.317 200 217 255
99.3287 136.704 113.16 239 240 255
87.4648 203.217 112.186 187 209 255
87.0547 182.673 111.689 199 216 255
101.777 112.541 116.531 255 190 136
123.216 95.2963 103.677 227 233 255
160.342 66.7278 107.58 193 213 255
62.1758 72.5721 109.108 255 215 183
95.2833 155.651 103.924 210 223 255
128.846 117.039 123.992 212 224 255
99.8705 88.4949 122.131 219 228 255
109.922 144.471 106.769 255 245 236
104.538 119.927 91.2089 255 252 247
110.745 147.262 122.929 255 212 177
161.887 138.483 112.755 211 224 255
5.62852 123.744 112.69 208 222 255
78.56 100.845 109.582 205 220 255
121.769 115.237 121.923 255 248 240
40.8018 121.817 112.715 255 250 255
110.045 90.3336 100.993 255 199 153
141.58 132.737 119.104 255 196 147
183.329 112.176 117.415 194 213 255
75.5768 131.098 112.859 207 221 255
