ply
format ascii 1.0
element vertex 1342
property float x
property float y
property float z
property uchar red
property uchar green
property uchar blue
end_header
144.082 98.4337 105.019 220 229 255
139.87 140.345 108.299 255 249 255
107.271 117.261 119.129 207 221 255
93.1003 172.352 111.233 209 222 255
80.0312 54.4264 114.785 208 222 255
14.8224 126.117 109.916 195 214 255
175.282 102.211 111.644 194 213 255
202.55 137.518 111.33 187 209 255
81.4192 131.297 105.032 255 207 168
134.375 82.6413 108.067 255 241 229
112.82 111.855 122.122 255 226 202
94.7802 122.496 118.865 239 240 255
134.957 202.875 112.485 194 213 255
149.011 200.519 116.104 198 216 255
95.3163 77.5335 104.611 225 232 255
122.705 140.641 113.841 211 224 255
90.4712 112.875 118.347 255 225 202
83.7957 110.049 112.565 255 249 255
123.359 100.126 103.573 225 232 255
133.132 96.4662 120.195 224 231 255
121.313 104.011 104.42 255 146 40
139.221 97.6442 106.772 255 206 168
97.7379 152.32 102.483 235 238 255
82.2856 109.714 116.051 219 228 255
151.89 102.944 119.035 207 221 255
99.9155 74.8022 122.195 209 222 255
132.321 15.9975 111.211 208 222 255
103.453 47.7188 114.083 211 223 255
134.501 119.622 103.576 232 236 255
75.1279 102.545 113.801 222 230 255
99.9491 93.4236 116.061 206 220 255
149.357 90.169 108.232 240 241 255
159.469 121.765 110.194 255 238 224
176.207 139.359 117.182 186 208 255
50.7802 111.751 110.407 219 228 255
190.807 54.5563 110.736 190 211 255
143.72 198.205 111.181 189 210 255
111.507 108.254 122.07 210 223 255
73.7495 65.1382 113.807 255 253 249
185.264 105.705 114.813 200 217 255
93.5781 175.602 110.087 210 223 255
142.843 51.4213 106.444 223 230 255
115.596 107.804 120.67 255 229 207
142.857 49.4851 110.923 223 231 255
116.39 109.794 103.584 255 222 196
190.279 71.2079 111.023 197 215 255
214.437 152.796 112.316 181 205 255
131.903 118.041 116.759 185 208 255
97.5131 212.744 114.799 188 209 255
58.5876 110.246 113.841 199 216 255
94.2562 14.3046 111.174 182 205 255
129.196 209.544 111.065 195 213 255
161.871 147.054 113.485 215 226 255
94.7847 166.624 114.937 209 222 255
97.9251 160.21 110.874 255 233 215
154.371 44.3538 114.367 194 213 255
104.382 84.8219 113.942 229 234 255
165.243 42.8505 114.258 200 217 255
142.524 72.0249 116.538 209 222 255
124.213 38.1357 115.45 210 223 255
63.1577 120.716 111.549 211 223 255
74.257 42.8703 107.487 191 211 255
147.563 148.268 109.996 195 214 255
121.375 93.9672 106.761 219 228 255
106.818 13.9201 110.859 183 206 255
93.6071 175.619 110.539 220 229 255
141.581 111.464 110.086 255 219 191
146.132 130.75 111.709 200 217 255
112.875 115.954 121.711 255 250 244
120.837 17.792 112.02 190 210 255
132.09 90.7506 102.035 248 245 255
82.7376 40.052 112.534 234 237 255
159.52 91.6813 112.738 201 217 255
203.379 154.804 114.442 182 206 255
189.289 122.67 122.775 220 229 255
74.0965 95.2503 114.228 228 233 255
113.195 121.542 117.351 255 92 0
59.0009 157.943 113.829 215 226 255
101.974 109.381 110.588 255 171 98
182.293 93.104 117.228 236 238 255
82.8379 14.5794 115.69 198 216 255
142.485 151.449 114.232 209 222 255
124.133 116.341 122.718 231 235 255
108.708 42.4564 116.153 197 215 255
134.279 137.19 103.942 207 221 255
50.4894 102.3 112.357 225 232 255
129.37 13.2838 107.288 194 213 255
95.5989 175.545 111.476 192 212 255
67.2747 138.398 109.863 217 227 255
150.188 154.587 116.702 218 228 255
116.648 151.121 107.475 239 240 255
83.1854 83.5318 103.805 199 216 255
176.041 130.947 112.722 202 218 255
132.821 139.813 116.917 255 241 228
150.647 106.058 112.96 213 225 255
154.408 117.339 121.191 228 233 255
74.8927 119.629 115.949 198 216 255
143.83 171.044 109.416 191 211 255
62.0145 134.852 112.637 205 220 255
130.041 118.781 123.316 255 242 230
114.259 193.601 110.817 198 215 255
104.076 75.2611 107.752 200 217 255
90.0622 104.169 103.223 212 224 255
101.259 56.8707 107.193 193 213 255
71.3585 144.205 112.887 199 216 255
128.362 111.909 119.416 225 232 255
88.8087 126.366 123.579 255 218 189
91.5983 129.327 116.22 224 231 255
62.3941 186.437 111.34 190 211 255
152.453 94.1843 111.908 191 211 255
78.2186 127.126 113.21 255 241 228
101.554 124.983 117.71 255 241 229
132.298 110.875 103.498 213 225 255
159.956 65.9521 110.395 209 222 255
17.1775 126.05 114.394 204 219 255
112.463 116.017 101.764 214 226 255
139.276 44.7395 109.644 196 215 255
98.9781 124.804 109.969 223 231 255
15.6102 147.787 113.906 191 211 255
105.712 76.4823 111.224 214 225 255
81.2788 175.005 111.086 202 218 255
121.81 40.938 112.48 198 215 255
27.2063 122.716 109.8 192 212 255
107.194 104.256 119.898 255 246 238
193.049 68.5821 113.459 221 230 255
173.343 128.364 109.27 203 219 255
78.7752 54.6941 111.199 221 230 255
39.428 138.649 112.042 198 216 255
83.9661 80.202 104.291 215 226 255
120.011 100.34 106.932 218 228 255
90.05 51.8687 111.658 238 239 255
41.1885 100.838 113.658 213 225 255
115.128 112.847 121.436 255 194 144
132.568 60.5954 112.141 255 254 250
64.6772 129.579 113.221 255 250 244
114.111 55.5832 111.833 209 222 255
177.222 164.499 115.751 186 208 255
143.382 196.838 112.277 199 217 255
93.4888 175.659 110.69 231 235 255
56.3015 146.418 110.84 199 216 255
159.048 113.904 117.177 217 227 255
81.1965 213.786 110.349 182 205 255
95.7433 40.1586 109.296 207 221 255
121.06 113.366 100.86 255 247 239
79.3409 144.396 112.534 211 224 255
53.3074 84.1495 112.333 208 222 255
55.107 61.3287 111.014 207 221 255
61.4884 151.804 108.778 228 234 255
209.631 142.514 112.117 225 232 255
147.054 165.629 111.377 211 224 255
27.1019 68.5754 112.083 238 239 255
108.023 120.964 107.565 254 248 255
62.4567 103.796 108.21 208 221 255
109.111 157.673 108.333 255 253 248
136.159 122.306 102.418 237 239 255
134.365 106.443 100.349 255 232 213
198.708 91.8342 110.178 199 216 255
86.4858 90.6312 103.597 193 213 255
43.6178 55.5621 109.009 194 213 255
175.912 121.435 111.444 190 211 255
114.188 98.803 102.859 199 216 255
139.452 162.459 117.49 184 207 255
100.366 110.182 98.6784 255 254 250
82.9791 99.8445 105.301 206 221 255
148.065 114.129 119.485 252 247 255
149 156.3 106.318 200 217 255
62.2701 151.684 110.489 231 235 255
157.395 135.933 119.942 209 222 255
78.2189 139.323 114.301 255 245 236
112.644 127.384 102.211 213 224 255
107.934 85.5559 101.699 192 212 255
124.013 135.03 115.045 255 227 204
198.633 100.692 108.987 208 222 255
139.382 78.455 111.013 222 230 255
48.955 93.132 111.949 225 232 255
56.8404 126.854 111.187 203 219 255
142.097 206.358 120.428 187 209 255
19.6332 174.542 112.01 211 223 255
87.1697 8.38461 109.577 186 208 255
74.1267 89.0467 104.853 212 224 255
133.75 99.0316 102.17 235 238 255
198.159 162.367 109.115 188 210 255
85.0931 156.556 114.177 255 250 244
14.0468 149.283 109.009 185 207 255
84.495 36.5447 111.706 204 219 255
106.342 99.2368 112.82 255 241 229
76.0376 125.882 120.661 255 250 243
94.2391 96.0878 110.776 245 243 255
137.352 104.27 106.661 224 231 255
97.8764 31.284 111.508 198 215 255
57.7835 118.744 113.225 215 226 255
104.301 129.052 108.578 204 219 255
131.841 14.3345 110.844 196 214 255
184.204 156.476 113.206 208 222 255
60.3556 152.106 114.551 255 253 248
95.7602 95.7349 115.573 255 251 255
93.1809 175.525 110.236 255 251 245
182.39 55.2523 113.356 202 218 255
166.515 62.5949 107.873 180 204 255
77.1062 121.695 114.023 255 215 183
165.112 81.9845 113.67 255 230 210
87.1452 127.398 108.525 252 247 255
216.922 149.793 112.216 178 203 255
154.758 104.721 111.649 255 242 231
7.74905 138.106 113.753 182 205 255
96.776 34.6811 113.589 189 210 255
54.7719 104.686 113.251 232 236 255
89.1744 78.1144 112.777 206 220 255
148.279 118.219 115.996 223 231 255
34.3858 110.803 108.626 195 214 255
124.508 145.875 107.082 255 240 227
158.156 70.2834 116.162 206 221 255
156.32 111.152 119.142 234 237 255
159.674 155.41 107.468 196 214 255
69.4533 110.912 106.958 242 241 255
124.324 74.4849 111.395 196 215 255
81.4469 145.854 112.959 229 234 255
184.65 165.621 111.827 185 207 255
133.018 66.2728 107.966 199 216 255
91.0089 95.5156 118.315 255 128 0
136.582 148.522 107.861 234 237 255
93.0946 166.491 113.628 255 246 238
96.9839 171.881 110.621 194 213 255
157.469 175.098 124.258 203 219 255
93.0926 176.009 110.686 193 213 255
198.486 169.078 111.146 186 208 255
90.5524 94.8293 106.81 255 236 220
127.374 164.203 106.187 206 221 255
163.842 166.125 108.085 187 208 255
154.747 61.119 111.892 230 235 255
178.317 71.5102 113.221 192 212 255
118.955 83.7646 105.436 248 245 255
73.3178 133.977 111.454 203 219 255
49.6472 92.1112 111.524 211 224 255
26.022 124.914 109.796 188 210 255
127.424 79.1159 111.955 255 211 177
42.7649 124.604 111.917 198 216 255
73.2241 119.55 107.645 226 232 255
38.3964 45.2529 110.823 186 208 255
115.326 33.5106 113.164 235 238 255
139.23 89.8726 105.849 199 216 255
112.457 99.6868 107.29 254 248 255
23.6918 49.2769 114.843 198 215 255
139.604 119.76 103.59 255 183 122
110.085 213.852 108.734 188 209 255
98.4017 138.148 107.624 195 214 255
27.3019 71.5204 114.423 214 226 255
187.425 71.3575 111.401 218 228 255
70.0795 57.4405 108.439 215 226 255
43.2676 43.2479 115.496 189 210 255
93.5132 109.674 123.052 226 232 255
70.9153 74.7185 119.307 195 214 255
35.041 127.226 116.494 179 203 255
100.197 118.228 119.29 255 237 221
65.8426 149.401 112.586 191 211 255
144.44 76.4266 113.595 255 210 173
158.441 173.74 109.591 208 222 255
156.725 151.922 118.221 213 225 255
201.189 166.275 112.136 186 208 255
50.2665 84.1651 112.564 191 211 255
102.379 45.0436 110.941 231 235 255
92.9335 175.706 110.835 252 247 255
111.052 140.325 110.305 255 227 204
85.3673 136.484 107.509 230 235 255
181.864 133.153 111.707 188 209 255
64.5579 80.8981 115.467 195 214 255
129.665 46.9562 107.683 195 214 255
101.038 127.414 118.512 255 241 229
69.4461 170.283 110.123 207 221 255
128.995 95.4416 102.451 242 242 255
98.4374 140.256 105.096 255 214 181
108.449 169.13 114.545 215 226 255
101.08 97.0564 113.95 255 240 226
110.855 153.117 115.824 248 245 255
55.4915 133.303 111.004 201 217 255
166.943 148.286 113.568 194 213 255
172.359 112.031 113.397 201 217 255
137.858 191.544 113.171 206 220 255
46.3708 147.496 117.388 215 226 255
113.447 140.749 123.213 227 233 255
127.161 95.2993 120.201 255 243 232
150.412 156.409 109.869 213 225 255
102.881 89.483 107.241 255 187 130
120.283 135.615 104.45 255 164 82
71.2647 114.023 120.853 219 228 255
117.481 50.0228 113.756 186 208 255
100.111 109.521 101.24 255 233 215
170.046 103.026 104.934 197 215 255
108.54 108.627 101.731 235 238 255
138.469 172.92 110.366 203 219 255
173.455 32.1093 114.644 189 210 255
167.151 151.892 111.276 237 239 255
127.343 12.0966 111.617 197 215 255
115.302 110.7 120.126 255 240 227
29.9406 48.1294 114.269 188 209 255
45.1263 177.33 113.314 195 214 255
178.926 99.4041 115.998 188 209 255
155.414 120.845 120.645 255 213 180
131.908 63.6914 115.649 203 218 255
55.9122 185.01 113.305 185 208 255
127.066 62.393 114.927 255 255 252
127.328 124.995 122.046 245 243 255
180.253 178.628 113.381 195 214 255
159.675 125.329 118.32 220 229 255
92.1551 96.3871 110.872 235 237 255
171.188 153.111 112.646 217 227 255
51.8086 87.3811 116.153 192 212 255
143.417 121.003 121.644 255 242 229
164.823 97.2852 109.809 210 223 255
132.862 101.933 106.447 210 223 255
78.2604 48.6298 114.99 182 205 255
84.4738 66.3849 109.423 206 220 255
187.678 96.9898 115.18 214 225 255
168.984 192.314 112.206 185 208 255
192.382 126.63 113.565 244 243 255
114.082 88.5816 101.903 205 220 255
76.674 100.676 110.66 255 251 246
110.232 174.294 111.381 215 226 255
170.853 149.862 109.982 205 220 255
13.9438 104.181 115.278 206 221 255
83.3023 122.236 120.068 255 239 225
177.288 151.192 108.413 213 225 255
123.759 94.7266 114.556 215 226 255
134.961 69.4174 119.41 222 230 255
87.2408 87.7361 117.343 255 237 222
125.682 89.2254 106.649 255 246 237
23.4654 157.442 112.402 185 207 255
77.9392 138.132 121.921 217 227 255
111.896 86.722 112.763 230 235 255
122.142 67.2417 118.259 219 228 255
38.437 175.739 111.981 188 210 255
12.68 70.1997 110.487 204 219 255
117.099 137.118 118.559 255 238 224
96.4829 134.731 114.349 218 227 255
55.369 123.595 108.291 193 212 255
191.797 157.571 111.866 192 212 255
109.629 77.0435 105.51 238 239 255
23.587 120.882 112.212 192 212 255
193.64 38.5916 112.73 180 204 255
60.7782 92.0391 117.362 217 227 255
104.231 84.1086 122.52 235 238 255
139.503 119.721 115.178 219 229 255
112.125 98.6592 106.544 255 245 235
175.507 141.557 113.262 196 214 255
96.9755 43.7283 111.088 200 217 255
150.677 75.2203 110.953 196 215 255
134.571 180.526 110.664 212 224 255
90.4946 73.7533 119.915 209 222 255
114.938 18.3482 117.705 185 208 255
86.0343 72.34 119.737 255 242 231
115.461 169.871 111.575 218 228 255
99.3009 65.4705 116.571 208 222 255
109.215 97.0491 108.095 255 188 132
155.232 12.6658 113.758 192 212 255
93.5121 175.615 110.622 187 209 255
104.852 14.5736 111.102 190 211 255
83.1104 119.036 114.414 255 241 229
50.4164 76.6094 109.719 203 219 255
204.045 126.091 111.284 217 227 255
82.3311 26.9755 112.047 183 206 255
52.9555 125.028 105.95 197 215 255
50.4646 70.4581 109.148 230 235 255
140.121 121.843 102.916 255 245 235
81.5386 86.1348 103.275 237 239 255
71.3026 87.149 112.72 210 223 255
104.569 86.0737 104.389 255 250 243
163.046 77.0821 118.136 188 209 255
120.907 109.655 99.2741 227 233 255
102.535 105.983 108.082 207 221 255
79.7713 38.7316 108.79 255 251 246
91.9493 140.047 105.547 216 226 255
49.4089 121.407 111.718 202 218 255
130.749 209.654 112.794 177 202 255
37.1331 128.455 110.676 187 209 255
93.5525 30.8992 109.491 190 211 255
151.439 59.9761 110.783 199 216 255
73.6238 142.801 112.344 213 225 255
55.0491 74.239 120.345 193 213 255
52.0854 104.878 113.22 208 222 255
81.5931 94.2229 106.182 204 219 255
121.359 111.877 109.367 255 237 222
32.6742 129.435 111.246 200 217 255
117.488 29.2783 116.115 184 207 255
128.852 145.198 111.164 195 214 255
171.126 186.326 112.968 207 221 255
123.485 109.745 112.32 255 171 98
148.283 93.9924 116.494 255 249 242
112.755 147.959 112.786 239 240 255
164.9 185.43 112.361 206 220 255
99.9847 127.311 106.474 239 240 255
75.0543 115.845 113.311 255 215 183
81.4486 123.577 115.092 244 243 255
110.715 194.309 113.393 192 212 255
144.843 113.315 102.16 206 220 255
123.574 105.348 112.222 221 229 255
151.426 178.46 110.078 188 209 255
141.152 123.048 118.813 244 243 255
92.0607 35.8158 111.782 255 249 242
104.674 119.844 101.087 255 250 244
88.9828 150.064 113.999 208 222 255
117.267 174.381 109.625 202 218 255
138.617 81.0742 116.229 204 219 255
92.4063 180.813 112.34 189 210 255
95.4978 138.86 119.949 204 219 255
182.258 122.874 113.692 187 209 255
23.5913 104.027 109.978 196 214 255
117.088 147.568 118.716 255 254 251
105.174 84.3866 112.727 255 222 196
58.4021 140.205 111.13 240 240 255
83.6119 152.144 115.598 214 225 255
85.89 88.2496 121.394 212 224 255
165.08 157.391 113.118 204 219 255
105.163 116.048 104.485 255 212 178
84.5408 52.1506 108.247 216 226 255
109.439 124.066 104.457 255 240 228
79.3045 166.188 110.883 209 222 255
175.215 126.379 118.217 226 232 255
62.9698 53.9457 111.983 190 211 255
168.914 117.114 111.246 188 210 255
126.346 108.185 114.007 255 245 236
178.011 45.4931 112.944 203 219 255
173.743 145.326 109.679 220 229 255
119.634 106.288 102.803 255 207 168
162.287 84.9912 113.669 206 221 255
110.955 204.95 107.343 193 212 255
139.373 125.455 113.09 208 222 255
92.179 86.549 103.371 255 252 247
47.2282 95.1389 111.055 205 220 255
112.648 102.079 110.595 255 202 160
112.91 74.6697 112.605 200 217 255
124.782 103.419 106.533 216 226 255
88.4806 24.9049 111.573 200 217 255
79.8624 122.934 113.639 199 216 255
103.155 120.845 105.27 234 237 255
168.236 166.886 113.556 210 223 255
142.031 121.237 108.431 255 249 241
121.175 113.65 97.3229 215 226 255
129.606 132.406 117.164 209 222 255
105.996 139.121 111.937 255 236 220
181.295 75.6532 115.195 200 217 255
132.251 140.736 120.266 255 231 211
135.363 6.39616 109.113 188 210 255
71.3978 35.0692 109.685 189 210 255
81.8615 22.0466 108.971 206 220 255
41.7117 88.2116 111.21 215 226 255
23.2657 64.6902 112.51 217 227 255
153.371 115.429 111 224 231 255
108.227 144.827 109.753 255 238 223
127.726 73.3078 113.647 197 215 255
57.0659 125.246 112.322 195 214 255
101.935 175.171 110.813 184 207 255
207.179 154.601 111.83 205 220 255
73.182 97.146 102.628 255 188 132
175.605 136.653 103.774 255 252 246
173.815 143.059 109.259 195 214 255
147.407 154.5 107.523 205 220 255
162.512 87.0307 110.761 211 223 255
12.0307 136.095 111.957 199 216 255
117.613 197.186 113.472 199 216 255
171.434 118.362 114.934 208 222 255
162.481 191.256 114.231 187 209 255
21.1518 161.071 109.656 180 204 255
219.887 138.857 112.534 182 206 255
112.439 127.67 101.97 255 240 228
122.813 173.406 113.288 199 216 255
71.6797 108.446 118.056 202 218 255
49.599 203.105 111.427 191 211 255
98.2214 156.015 117.566 221 229 255
89.2789 159.893 113.922 210 223 255
173.504 137.984 109.536 192 212 255
75.7863 98.4703 104.899 255 225 202
46.9188 46.7062 112.427 185 207 255
93.9466 124.014 107.498 233 236 255
126.483 126.735 112.249 202 218 255
121.468 163.324 110.543 195 214 255
96.6342 59.1751 109.178 210 223 255
93.5693 175.66 110.701 201 217 255
58.8677 97.4322 118.819 205 220 255
110.915 14.2978 110.668 185 207 255
107.913 141.013 121.936 242 242 255
171.747 112.455 109.948 225 232 255
114.01 113.184 98.3409 221 229 255
184.7 67.3418 113.122 193 212 255
134.378 104.737 106.808 234 237 255
61.1195 140.672 110.433 225 232 255
40.0653 104.761 112.467 196 214 255
105.995 133.204 121.527 205 220 255
103.489 107.02 115.053 255 227 204
151.603 74.7758 109.342 219 228 255
151.13 82.7708 113.377 193 213 255
153.905 95.6292 112.9 238 239 255
150.523 112.403 113.435 207 221 255
167.354 94.5668 110.997 193 212 255
203.19 113.749 113.224 184 207 255
117.706 129.122 112.251 255 221 194
124.529 37.8052 109.748 189 210 255
127.417 103.5 100.325 190 211 255
141.201 58.919 117.868 200 217 255
116.961 73.8692 112.689 193 213 255
162.471 145.11 111.871 193 212 255
139.919 84.91 103.978 214 225 255
103.227 115.279 129.875 208 222 255
93.5768 174.903 110.74 191 211 255
48.9838 45.3456 112.097 187 209 255
167.178 186.139 110.764 176 202 255
116.391 159.571 108.991 185 207 255
83.2464 125.346 112.809 211 224 255
182.954 174.044 114.263 189 210 255
14.8088 79.4588 114.6 194 213 255
73.3837 76.5335 116.8 205 220 255
49.1477 50.1324 113.136 187 209 255
132.845 78.6331 115.964 222 230 255
94.3295 102.206 109.562 208 222 255
132.62 128.055 112.125 223 231 255
122.393 75.5228 106.068 202 218 255
147.366 163.189 112.092 234 237 255
83.8732 141.906 117.606 212 224 255
118.787 108.725 117.786 254 249 255
53.8686 175.679 111.399 181 205 255
72.245 149.481 111.352 235 238 255
111.89 97.1188 108.498 238 239 255
65.8436 187.454 111.666 196 214 255
88.8622 42.123 108.137 203 218 255
93.7054 168.288 113.038 206 220 255
102.317 140.999 117.368 255 242 231
68.6755 98.0934 118.423 194 213 255
69.4491 157.271 116.255 200 217 255
89.5365 116.503 122.45 202 218 255
117.391 119.996 107.244 231 235 255
87.6721 127.978 104.071 255 248 240
214.176 155.946 111.789 190 210 255
101.306 93.2236 101.817 255 251 246
159.506 195.587 112.478 186 208 255
182.353 128.88 110.542 191 212 255
115.973 141.916 117.321 242 241 255
100.275 104.311 106.059 255 244 233
180.484 60.8311 114.11 227 233 255
127.806 57.3434 115.627 205 220 255
163.107 55.3995 109.519 187 209 255
69.0995 125.041 112.582 191 212 255
107.101 92.0008 108.544 223 231 255
112.885 117.439 122.196 255 239 225
81.5498 155.307 112.979 189 210 255
131.134 90.7159 106.555 255 244 234
54.4603 108.264 111.03 235 237 255
108.207 197.451 111.871 204 220 255
146.15 123.981 101.113 206 220 255
135.096 32.0283 112.383 181 205 255
93.4243 175.657 110.556 193 213 255
101.282 130.203 120.676 234 237 255
57.9036 61.744 112.156 243 242 255
61.5113 95.2385 108.394 213 225 255
47.5789 167.049 110.801 187 209 255
172.456 115.814 113.306 204 219 255
120.898 157.672 115.23 213 225 255
130.312 65.4352 116.445 218 228 255
124.318 93.7017 111.976 216 227 255
89.6513 96.7855 121.811 255 249 242
161.437 129.903 111.731 194 213 255
219.403 128.486 109.058 185 207 255
97.3115 153.05 110.859 224 231 255
205.559 57.5199 110.966 204 220 255
118.136 68.1331 110.431 237 239 255
162.909 131.613 115.083 255 242 231
107.933 154.605 118.932 238 239 255
202.413 171.706 115.674 182 206 255
155.714 84.8446 116.994 217 227 255
35.2315 186.696 111.975 186 208 255
137.731 106.514 105.273 248 245 255
94.9663 95.7658 109.609 213 225 255
93.5655 175.644 110.573 247 244 255
148.631 173.56 115.552 214 225 255
77.6976 125.452 120.112 208 222 255
95.5704 131.269 113.013 250 246 255
92.4028 120.566 123.211 191 211 255
203.277 104.445 114.626 179 204 255
174.091 132.77 118.629 197 215 255
102.615 66.3775 109.362 229 234 255
78.8323 146.807 118.964 255 252 247
47.3866 140.192 110.296 193 213 255
150.121 136.269 109.433 218 228 255
134.225 132.974 103.526 255 227 204
92.5557 64.4287 110.613 196 215 255
69.3755 157.714 108.042 199 216 255
114.958 169.933 112.638 255 236 220
75.4375 93.4542 108.962 255 244 233
163.226 87.1845 113.58 208 221 255
104.865 157.022 112.014 219 228 255
80.2643 96.8585 118.19 224 231 255
44.9106 67.7926 108.456 246 244 255
160.259 119.924 120.9 210 223 255
95.6559 102.002 119.52 255 210 175
204.428 77.6389 113.631 185 207 255
30.4839 130.156 110.388 222 230 255
35.5232 117.119 115.389 189 210 255
155.913 120.093 109.33 255 231 211
94.8525 113.118 107.796 248 245 255
144.905 109.152 118.863 255 244 234
92.0636 159.411 113.143 193 213 255
113.337 178.666 109.204 209 222 255
186.934 73.0145 114.899 194 213 255
160.08 65.5195 115.294 255 246 237
66.8075 113.119 121.329 246 244 255
115.114 147.004 109.104 185 208 255
57.8763 94.2149 112.448 226 232 255
200.603 95.1678 114.123 211 223 255
117.936 94.7715 121.937 255 241 229
154.667 126.2 121.491 223 231 255
150.008 60.6715 112.901 202 218 255
117.95 183.766 112.308 205 220 255
155.392 174.029 108.06 188 209 255
127.674 136.517 112.667 206 220 255
118.057 136.151 102.01 241 241 255
136.187 74.196 116.98 203 219 255
174.718 123.7 108.877 199 216 255
217.961 118.799 111.311 183 206 255
65.3307 41.4677 111.773 198 215 255
74.481 90.7807 110.12 206 220 255
108.361 211.569 112.972 190 210 255
133.359 152.709 118.977 255 206 166
67.9317 146.986 111.339 255 249 243
134.386 29.1156 110.702 255 215 184
94.2141 171.438 112.277 199 216 255
144.122 56.822 108.068 192 212 255
156.395 181.017 115.325 214 225 255
75.307 131.796 107.08 193 213 255
114.02 217.227 108.872 189 210 255
78.6167 192.781 110.557 188 209 255
149.654 103.201 104.377 201 217 255
129.721 18.8416 112.091 196 214 255
46.416 122.744 113.261 205 220 255
218.772 94.5445 112.24 207 221 255
82.3289 117.565 105.953 208 221 255
92.9275 175.781 110.746 200 217 255
90.0692 177.976 110.237 255 251 245
69.39 33.4755 115.992 192 212 255
79.2541 144.958 124.609 255 251 245
92.9094 134.212 123.601 255 220 192
116.604 147.033 117.288 255 254 250
160.444 89.5542 117.153 199 216 255
134.398 103.063 105.05 255 215 183
152.72 127.528 111.278 216 226 255
90.5024 106.957 100.229 255 226 202
128.767 26.3898 112.381 245 243 255
157.728 81.0789 115.254 232 236 255
93.0313 96.9282 110.678 212 224 255
133.635 72.3947 108.831 224 231 255
145.45 52.9459 117.722 193 213 255
122.247 104.966 107.723 213 224 255
168.153 140.439 110.294 255 244 234
79.6332 139.469 119.024 207 221 255
93.6174 175.72 110.437 211 224 255
126.464 46.5029 118.017 203 218 255
41.8081 93.2336 113.917 196 214 255
88.6192 130.792 121.425 214 225 255
145.956 121.427 104.533 203 219 255
52.0896 174.255 111.248 181 205 255
121.863 108.328 108.063 255 242 230
125.828 87.5429 108.11 255 243 232
132.318 12.2077 112.018 186 208 255
110.49 79.5304 107.399 250 246 255
106.047 125.04 113.122 255 217 188
73.9283 194.952 108.719 194 213 255
153.428 98.6681 107.238 189 210 255
150.631 151.043 118.599 228 234 255
140.275 18.106 112.211 188 209 255
90.557 97.0804 107.479 222 230 255
124.803 144.521 104.283 226 232 255
149.774 97.0826 119.134 255 243 233
92.0215 125.535 106.321 196 215 255
83.1716 32.7855 113.424 208 222 255
199.231 141.442 116.369 184 207 255
105.112 124.31 115.568 237 239 255
146.367 37.1289 114.039 192 212 255
107.466 121.433 106.963 255 218 189
141.136 77.4057 113.553 255 216 185
152.764 154.854 105.951 243 242 255
98.2182 70.2386 110.937 219 228 255
83.9006 182.937 112.248 213 225 255
184.69 123.143 109.748 188 209 255
112.418 84.3807 114.854 212 224 255
148.483 136.479 108.275 200 217 255
173.963 91.5376 107.836 255 214 181
153.535 143.732 108.488 213 225 255
154.742 85.5011 112.406 197 215 255
138.553 32.8493 116.355 191 211 255
37.8609 199.533 112.134 184 207 255
141.867 163.26 111.217 193 212 255
99.3365 106.261 117.589 255 174 104
93.4556 175.547 110.425 195 214 255
132.967 61.6236 108.711 239 240 255
92.9322 86.4487 119.644 255 237 222
116.55 14.06 111.565 204 220 255
141.355 70.4857 109.953 215 226 255
44.2205 93.5198 112.248 232 236 255
151.421 52.4144 115.411 208 221 255
175.419 75.1701 114.191 184 207 255
82.4599 28.5814 112.126 200 217 255
111.583 115.174 102.462 219 228 255
86.0438 111.422 100.815 255 250 243
88.8538 214.522 113.236 206 221 255
124.286 142.324 108.483 255 244 233
53.6616 71.5107 111.047 201 217 255
69.2492 96.1951 103.717 255 244 234
66.0863 139.048 109.375 213 225 255
115.18 38.4981 113.307 204 219 255
94.5179 99.4393 108.357 217 227 255
99.2475 17.4159 114.494 188 209 255
181.351 172.119 111.777 196 214 255
106.979 68.1347 120.783 217 227 255
105.741 174.196 110.013 247 244 255
109.65 164.87 111.117 222 230 255
126.409 126.015 109.378 221 229 255
70.5532 206.023 111.432 200 217 255
80.5944 110.906 107.409 204 219 255
92.6178 175.672 110.915 192 212 255
145.184 166.123 112.001 211 224 255
79.4483 46.8075 113.01 205 220 255
31.9348 144.662 115.014 206 220 255
122.191 121.904 101.723 255 234 216
70.8503 123.866 119.991 248 245 255
93.5654 113.18 121.909 239 240 255
195.275 151.189 116.92 191 211 255
71.7198 39.3777 112.119 209 222 255
31.616 112.176 111.713 186 208 255
181.235 37.3689 112.388 196 215 255
107.874 153.076 107.911 202 218 255
156.243 8.19936 112.233 186 208 255
111.82 126.987 116.475 223 231 255
169.198 101.154 111.739 218 228 255
110.484 204.354 112.342 201 218 255
188.474 61.6474 115.7 192 212 255
5.98189 137.933 116.588 181 205 255
57.2603 100.051 116.232 187 208 255
168.175 60.2904 114.938 183 206 255
120.096 112.059 116.112 255 229 208
210.124 78.2739 112.437 186 208 255
142.757 40.7073 113.831 243 242 255
110.048 131.649 104.266 255 235 218
18.136 110.683 114.486 205 220 255
76.9994 81.251 117.997 190 211 255
99.0413 164.735 111.125 240 241 255
67.3993 45.1304 112.81 193 212 255
90.8027 211.83 119.101 190 211 255
2.68649 128.435 112.278 193 212 255
132.145 79.8357 118.571 225 232 255
182.675 167.842 113.14 190 211 255
196.876 125.524 114.343 188 210 255
69.4268 195.13 112.484 188 209 255
28.4835 51.827 113.369 195 214 255
128.143 121.713 105.748 255 94 0
115.734 123.202 126.718 255 249 255
89.1993 42.0029 109.787 255 251 255
156.794 81.0139 115.757 204 219 255
150.913 114.735 109.869 211 223 255
86.6255 126.406 121.929 222 230 255
68.016 111.608 117.133 206 221 255
48.5887 95.6795 114.779 203 219 255
93.2025 124.489 100.579 221 230 255
147.073 149.434 107.164 210 223 255
195.063 117.389 109.597 205 220 255
97.6477 82.8475 119.012 230 235 255
133.477 69.1869 116.942 233 237 255
96.1458 117.377 106.753 228 234 255
169.361 145.612 115.634 208 221 255
159.628 152.783 114.886 197 215 255
124.687 150.874 107.035 209 223 255
116.907 55.3525 117.599 208 222 255
150.079 78.9771 106.935 202 218 255
150.623 145.09 111.348 229 234 255
102.773 191.554 110.943 207 221 255
39.2587 70.4677 110.378 201 217 255
95.7959 146.21 121.39 243 242 255
130.224 203.479 112.579 185 207 255
84.4233 197.886 112.033 201 218 255
191.027 99.1047 114.408 189 210 255
193.949 180.604 112.522 194 213 255
61.1613 51.079 112.833 187 208 255
104.395 101.949 119.38 220 229 255
93.8519 173.232 111.737 241 241 255
59.2534 133.153 112.264 200 217 255
154.707 163.152 114.805 211 224 255
81.9816 113.255 105.869 229 234 255
68.7844 192.293 113.184 189 210 255
217.325 137.108 112.779 199 216 255
106.695 115.9 126.799 239 240 255
66.4226 112.41 118.374 207 221 255
77.7953 127.059 110.534 239 240 255
208.361 93.7054 113.571 185 207 255
29.4605 108.548 108.648 188 210 255
116.038 99.2254 119.054 255 148 43
165.357 177.243 116.829 191 212 255
138.818 68.0095 113.242 218 228 255
56.4161 69.9171 113.536 200 217 255
70.6787 150.425 114.661 204 219 255
218.52 110.219 110.232 195 214 255
128.18 154.248 114.1 255 220 192
56.7665 23.0037 110.843 183 206 255
120.505 145.925 111.879 242 242 255
97.514 175.446 111.365 205 220 255
139.264 51.1505 113.596 186 208 255
55.6303 76.9829 112.231 208 222 255
119.742 56.392 108.683 255 254 250
152.935 124.321 114.975 202 218 255
132.654 93.6477 102.706 237 239 255
214.895 103.06 112.131 207 221 255
93.7662 125.211 105.259 210 223 255
106.193 101.728 109.243 255 243 232
89.5401 70.8494 105.144 212 224 255
79.3789 87.4349 113.161 186 208 255
219.452 83.8301 111.316 183 206 255
171.124 102.567 115.032 216 227 255
118.824 102.793 113.142 203 219 255
99.2207 115.52 120.607 255 255 252
133.985 73.0392 113.424 201 217 255
98.1206 98.7533 123.379 255 239 225
85.6194 125.168 123.344 255 241 229
101.617 43.0411 111.755 213 225 255
113.527 136.379 110.143 212 224 255
93.6234 175.637 110.549 219 228 255
93.3664 175.501 110.903 204 220 255
164.463 64.0026 109.231 187 209 255
74.8169 77.2198 108.276 255 233 215
24.7586 142.41 112.748 184 207 255
40.6101 45.8921 113.757 186 208 255
67.9468 139.835 115.028 195 214 255
79.4875 116.158 105.792 208 222 255
82.1291 99.8694 107.414 255 243 232
93.5804 175.562 110.471 227 233 255
125.72 86.6427 105.841 255 234 217
128.23 145.169 111.909 220 229 255
129.639 134.855 111.345 219 228 255
102.284 65.6211 112.572 227 233 255
71.1753 38.0165 111.98 185 207 255
175.599 116.087 111.392 210 223 255
122.462 202.786 115.824 191 211 255
100.454 171.513 111.966 215 226 255
53.2685 29.7934 111.34 203 219 255
107.274 201.556 111.124 205 220 255
108.993 10.1387 109.976 198 216 255
64.0841 154.164 116.239 201 218 255
93.2558 176.471 110.774 255 216 185
85.5079 146.613 114.657 196 214 255
130.887 131.347 110.986 255 233 215
111 152.529 107.144 224 231 255
114.856 71.5774 109.566 202 218 255
174.112 105.15 109.137 184 207 255
140.517 124.14 120 255 198 153
158.137 175.265 109.984 190 211 255
98.9978 155.35 109.022 213 225 255
141.816 174.47 110.641 198 216 255
161.259 91.542 116.227 204 219 255
164.815 96.6388 113.77 255 243 232
98.9568 189.335 111.879 182 206 255
98.0533 218.05 115.928 179 204 255
220.023 86.2175 110.373 187 209 255
90.3352 45.9282 115.731 255 250 243
110.135 204.219 109.414 188 209 255
84.4128 148.341 112.833 255 233 216
16.1687 82.3683 111.411 176 202 255
105.712 127.801 125.361 255 233 215
126.441 106.381 109.897 255 246 236
93.9497 140.895 120.786 253 248 255
155.035 89.0656 114.457 209 222 255
112.433 88.5493 117.427 219 228 255
126.565 115.356 116.093 197 215 255
204.265 148.611 109.216 206 221 255
138.292 43.2021 109.855 188 209 255
96.1871 87.1611 109.985 213 225 255
97.8166 10.7554 112.439 185 207 255
93.1379 175.507 110.335 239 240 255
113.144 110.609 128.933 222 230 255
60.8717 191.054 114.193 194 213 255
72.4313 108.611 120.108 226 233 255
133.94 108.372 123.267 255 243 232
96.7815 32.6049 114.69 188 210 255
87.674 148.491 111.556 250 246 255
111.581 114.867 101.941 255 187 130
116.544 113.036 120.401 255 245 234
174.123 82.0965 110.79 180 205 255
123.885 108.402 103.247 255 219 191
193.706 80.3963 113.274 182 205 255
115.33 71.0067 111.307 210 223 255
54.3629 44.9108 109.825 202 218 255
102.17 80.9085 111.495 255 245 234
128.649 12.4644 118.171 189 210 255
134.849 71.867 112.458 186 208 255
95.4392 101.086 108.529 214 225 255
77.2221 40.0774 111.511 204 219 255
156.139 73.9675 109.493 197 215 255
144.96 55.3432 117.007 187 209 255
42.2999 145.031 112.917 187 209 255
178.252 86.4899 113.083 212 224 255
46.0906 87.1361 108.269 192 212 255
71.8634 137.206 120.312 255 230 210
139.594 71.8611 124.907 215 226 255
214.691 81.7766 112.452 174 201 255
130.044 129.303 112.05 255 242 231
112.165 53.6374 117.828 211 224 255
104.121 159.236 109.87 255 252 246
81.0825 204.448 110.883 188 209 255
107.949 106.338 122.072 255 220 193
87.4427 189.943 112.756 187 209 255
123.997 10.3804 111.378 185 207 255
135.349 103.932 118.242 255 209 172
47.3388 98.0318 112.379 202 218 255
84.268 92.5499 120.287 218 228 255
67.7588 138.605 111.227 205 220 255
114.212 35.9989 109.646 198 216 255
117.646 100.807 115.02 232 236 255
166.998 39.0981 112.472 195 213 255
76.0574 71.6708 116.534 194 213 255
177.764 56.2083 113.649 182 206 255
93.5286 175.776 110.6 197 215 255
93.5995 175.657 110.613 191 211 255
118.032 121.863 126.079 219 228 255
147.728 107.083 103.667 223 231 255
132.497 123.745 120.144 209 222 255
152.916 181.368 112.382 214 225 255
97.38 118.811 113.676 255 239 225
64.0005 195.695 112.491 195 214 255
90.7328 89.9962 118.945 255 245 234
100.21 79.0438 116.288 203 219 255
93.3974 175.88 110.188 202 218 255
97.9828 134.608 116.159 255 250 243
114.63 54.6753 106.735 221 229 255
132.571 34.7615 108.694 208 222 255
85.9618 180.892 112.182 222 230 255
158.08 13.3047 115.608 201 218 255
104.664 44.0743 111.113 226 232 255
112.923 109.251 121.009 255 159 71
99.0731 72.9659 114.31 216 226 255
149.81 129.814 104.003 255 250 244
95.636 173.128 110.958 184 207 255
55.3361 197.745 113.042 193 212 255
152.167 93.4547 110.474 240 240 255
122.304 115.562 98.7398 210 223 255
10.5347 127.393 111.564 191 211 255
137.388 76.7605 115.816 204 219 255
93.8389 89.6589 112.478 255 254 249
182.8 160.649 114.696 201 218 255
183.159 111.564 113.974 186 208 255
64.4913 165.645 116.26 203 219 255
43.6826 54.5026 109.397 255 235 218
105.386 74.3183 110.246 222 230 255
120.46 179.302 108.52 215 226 255
13.9553 134.066 111.434 200 217 255
126.845 62.8734 113.507 212 224 255
98.0597 115.139 101.209 245 243 255
96.9035 86.2017 111.944 255 219 190
45.3078 165.754 113.639 183 206 255
100.726 133.918 106.992 228 234 255
132.309 90.9413 102.493 220 229 255
92.0159 68.1065 107.396 208 222 255
121.375 180.215 108.941 209 222 255
108.432 129.279 122.587 255 231 212
92.1185 113.614 110.887 255 244 234
149.653 144.997 113.446 232 236 255
178.345 67.6345 108.882 208 222 255
50.3327 96.0585 113.06 208 222 255
138.165 51.8125 114.562 255 251 245
163.486 107.321 117.534 200 217 255
157.885 116.871 105.307 239 240 255
46.8714 68.1446 105.197 206 221 255
135.193 207.045 111.11 201 217 255
41.6027 106.589 112.622 191 211 255
97.735 107.116 107.333 226 232 255
154.765 13.8811 108.753 198 215 255
92.7934 175.59 111.106 222 230 255
129.054 11.5643 110.45 207 221 255
214.308 101.95 112.516 177 203 255
108.718 70.3424 105.338 233 237 255
127.984 72.9107 108.647 206 220 255
143.828 123.871 109.737 243 242 255
93.8722 29.9292 109.886 206 220 255
174.021 190.737 112.478 191 211 255
101.296 155.131 111.828 216 226 255
134.864 121.214 114.57 255 242 230
159.864 125.4 118.353 214 225 255
97.2336 81.6234 111.708 212 224 255
93.6331 175.427 110.372 255 250 243
92.0289 58.8997 115.673 195 214 255
161.996 36.6799 116.398 195 214 255
162.82 141.171 116.974 194 213 255
194.484 87.8626 109.537 255 254 250
93.7498 175.522 110.411 185 207 255
125.271 11.1875 113.663 184 207 255
93.4678 175.613 110.637 218 227 255
108.14 198.704 110.676 191 211 255
178.708 160.266 125.622 197 215 255
67.2149 20.2857 112.751 182 206 255
91.6357 174.813 110.603 217 227 255
128.392 126.218 118.511 225 232 255
55.4961 60.4889 119.07 242 242 255
15.1054 72.8158 112.455 213 225 255
141.922 168.187 108.309 189 210 255
118.25 51.4359 114.375 211 223 255
71.2059 116.326 107.774 241 241 255
94.9768 122.306 123.858 255 232 214
50.578 46.3639 105.093 192 212 255
186.874 143.152 114.211 183 206 255
121.732 108.701 119.671 230 235 255
116.552 125.582 113.478 238 239 255
144.466 87.2343 117.699 255 240 227
157.453 126.099 106.11 215 226 255
151.46 132.92 110.859 255 236 220
117.002 105.482 122.671 205 220 255
81.1768 129.27 116.476 196 214 255
71.317 142.225 113.562 211 224 255
112.946 99.6619 108.743 255 245 235
135.555 87.0936 117.666 255 189 134
164.606 162.937 111.516 208 222 255
78.3715 89.8053 107.66 226 232 255
21.6548 126.002 109.784 199 217 255
139.732 206.694 112.762 199 216 255
92.9141 174.064 111.559 255 250 244
108.059 55.9857 111.75 200 217 255
92.3224 131.705 102.6 255 249 242
110.292 29.6362 110.262 194 213 255
78.1527 158.399 114.136 221 229 255
172.443 117.695 115.091 210 223 255
108.859 138.679 116.515 255 230 211
90.8986 125.999 106.39 255 242 230
164.483 116.437 116.669 202 218 255
102.104 169.467 110.596 214 225 255
156.374 8.7082 111.897 178 203 255
96.2181 133.648 106.291 217 227 255
131.051 130.65 110.588 211 224 255
88.9459 155.171 109.383 255 250 255
116.684 101.641 108.644 223 231 255
178.093 130.959 113.793 206 220 255
93.564 175.648 110.579 200 217 255
113.946 127.784 114.176 255 207 169
79.5222 96.8902 104.896 198 215 255
111.107 104.935 125.397 229 234 255
101.77 109.676 114.579 255 220 192
114.593 142.417 110.829 255 210 174
151.391 64.9571 118.218 189 210 255
171.984 13.723 113.118 191 211 255
86.7971 10.1916 104.827 204 219 255
102.118 110.123 106.88 203 219 255
133.479 172.113 111.255 239 240 255
127.65 65.4897 110.618 225 232 255
136.709 9.8647 111.874 197 215 255
98.7847 117.687 124.218 255 228 207
92.5485 173.201 110.256 188 210 255
104.487 135.086 103.847 255 226 202
121.482 177.819 108.806 232 236 255
175.51 104.514 113.311 228 234 255
97.0237 127.887 102.526 255 230 209
35.0826 189.328 110.873 179 204 255
122.51 49.8343 109.834 215 226 255
91.6767 139.94 108.915 211 224 255
92.8716 66.308 114.31 202 218 255
93.5528 175.643 110.588 220 229 255
122.435 52.4338 111.623 195 214 255
113.668 94.9643 105.917 255 211 176
152.4 150.878 119.222 214 226 255
93.7903 92.1976 111.782 255 229 208
131.092 79.2863 120.433 249 245 255
109.474 108.778 102.201 255 159 71
71.996 43.4084 110.258 189 210 255
4.26427 108.582 112.458 188 209 255
114.556 111.562 121.267 207 221 255
99.388 178.717 110.061 217 227 255
105.833 103.697 100.997 255 221 194
152.078 180.061 111.41 195 214 255
80.9199 84.8459 118.424 255 252 247
87.6613 73.4553 112.907 193 212 255
84.1403 60.411 107.481 236 238 255
57.9881 183.401 111.925 176 202 255
145.063 56.7562 114.824 209 222 255
110.868 145.984 109.769 243 242 255
38.0924 154.644 114.044 242 241 255
132.341 173.511 114.102 229 234 255
184.808 176.203 113.952 184 207 255
117.518 119.082 116.333 241 241 255
126.554 113.528 107.081 255 226 202
139.135 112.458 107.411 238 239 255
72.7016 130.606 115.371 255 233 215
185.038 61.1022 113.895 195 214 255
179.328 94.4531 116.191 219 228 255
90.8578 7.91497 106.69 193 213 255
161.383 169.109 115.146 230 235 255
116.036 46.3237 113.271 255 249 242
99.6815 82.2178 114.432 199 216 255
149.932 77.2994 111.391 205 220 255
121.098 108.237 123.485 212 224 255
75.0784 173.449 115.835 208 222 255
170.79 129.132 114.982 199 216 255
110.874 57.857 113.73 211 223 255
110.15 86.2816 102.62 218 228 255
141.185 192.98 112.515 186 208 255
150.934 121.429 119.999 213 225 255
76.9716 132.904 116.375 202 218 255
38.4691 81.7021 109.951 208 222 255
155.281 96.3417 104.464 212 224 255
80.9001 14.337 112.279 189 210 255
139.671 131.488 103.697 212 224 255
140.711 107.449 119.001 199 216 255
93.5416 175.616 110.476 255 250 243
179.452 43.6806 110.87 212 224 255
189.71 185.364 108.049 202 218 255
28.904 144.201 110.828 182 206 255
120.502 87.9631 102.311 237 239 255
205.632 62.6843 116.445 188 209 255
44.7506 111.346 110.79 199 216 255
97.7174 97.3558 102.445 255 209 172
122.367 112.839 122.253 215 226 255
160.516 89.7557 101.028 244 243 255
65.8462 104.409 119.866 225 232 255
162.601 106.999 107.355 255 249 241
192.124 131.928 113.147 194 213 255
104.17 105.545 116.382 255 241 229
81.5825 108.668 120.661 227 233 255
110.328 35.5779 112.032 199 216 255
158.154 84.8583 113.457 208 222 255
101.805 84.6805 118.33 242 241 255
33.2463 168.307 113.195 186 208 255
107.76 109.788 125.586 255 244 234
76.224 110.777 108.03 204 219 255
177.785 78.3605 112.076 255 241 228
160.083 126.339 118.522 198 216 255
167.331 106.657 113.934 187 208 255
123.731 149.037 120.488 240 240 255
84.6633 123.955 113.972 220 229 255
191.004 181.972 114.882 183 206 255
59.123 198.604 115.021 181 205 255
143.953 63.5893 111.032 190 211 255
80.7193 192.181 113.52 196 214 255
103.539 80.6274 116.652 255 242 229
121.108 101.033 104.009 255 219 190
51.9221 116.213 128.51 191 211 255
166.223 163.538 112.754 202 218 255
124.387 115.681 111.452 211 223 255
93.7261 175.169 110.438 255 248 240
168.816 107.119 115.065 208 221 255
121.76 111.708 111.153 232 236 255
147.286 47.7139 116.036 203 219 255
63.2698 160.659 117.74 215 226 255
191.821 105.78 116.566 196 214 255
128.169 89.9421 118.13 221 229 255
93.37 175.793 110.715 196 215 255
158.592 114.813 115.997 229 234 255
97.0739 140.741 111.305 207 221 255
124.686 96.615 123.574 255 251 245
124.59 148.46 118.049 255 250 255
141.777 138.727 109.663 240 240 255
93.2233 175.286 110.466 245 243 255
29.6426 123.795 111.453 189 210 255
117.835 129.384 114.026 255 203 161
56.8174 174.726 110.132 181 205 255
108.941 108.889 130.131 198 216 255
134.522 118.353 116.5 255 238 224
126.704 136.451 112.885 255 247 238
93.5789 175.595 110.559 255 254 250
114.558 81.1884 104.774 226 232 255
133.207 83.1027 118.16 209 222 255
176.359 129.375 113.67 198 216 255
59.0762 145.721 113.367 209 222 255
111.833 134.389 113.23 199 216 255
153.572 60.1664 113.701 204 219 255
125.742 91.5942 105.226 204 219 255
198.639 59.0178 112.771 205 220 255
159.687 95.3517 107.59 248 245 255
135.499 194.392 113.971 187 209 255
62.2115 146.217 116.024 189 210 255
69.7134 147.662 110.267 201 218 255
93.5426 175.629 110.595 206 220 255
97.1162 54.6827 109.239 214 225 255
146.181 69.0055 111.97 255 252 247
196.088 56.7091 113.975 177 203 255
35.7357 155.79 111.645 200 217 255
92.6414 41.8996 115.532 228 233 255
93.6067 175.557 110.635 211 223 255
146.758 20.0463 110.419 183 206 255
39.8038 36.4912 115.794 213 225 255
73.6955 137.307 120.052 196 214 255
68.8891 117.338 105.966 200 217 255
123.51 131.965 118.938 255 224 200
60.1096 130.317 115.52 255 249 255
122.686 179.351 114.443 221 229 255
104.805 105.874 107.191 255 255 252
92.9872 114.665 121.599 235 238 255
113.518 136.053 118.73 255 202 159
219.737 85.7881 113.302 188 209 255
203.189 54.4264 110.97 184 207 255
121.993 69.758 106.927 211 224 255
148.117 166.621 117.903 251 247 255
121.793 147.983 115.867 219 228 255
88.8512 204.162 115.744 193 213 255
102.104 175.456 111.385 215 226 255
153.951 179.431 111.808 196 215 255
159.466 97.5052 109.182 201 218 255
29.2503 180.761 110.833 201 217 255
153.923 85.3703 113.834 217 227 255
79.1574 183.8 110.936 239 240 255
124.486 136.684 103.632 255 230 210
103.227 161.444 114.152 202 218 255
81.568 114.6 121.475 197 215 255
153.206 16.751 112.025 185 207 255
145.738 99.6259 113.747 221 229 255
63.7757 99.2874 107.954 236 238 255
118.224 118.857 102.832 255 196 149
99.6085 93.576 104.155 255 211 177
54.3616 149.608 110.558 255 185 125
51.9433 129.448 110.241 215 226 255
124.84 47.2858 108.701 182 206 255
158.205 137.872 112.251 207 221 255
72.1884 36.9933 112.095 198 215 255
35.8699 140.515 111.451 237 238 255
90.5026 86.411 112.236 255 171 97
51.0148 61.3235 112.406 210 223 255
145.673 192.092 110.478 183 206 255
65.277 180.825 110.861 184 207 255
220.64 104.257 109.423 179 204 255
113.124 134.172 121.979 255 218 188
147.577 151.055 120.014 213 224 255
123.236 165.943 110.307 210 223 255
151.774 33.4225 111.377 199 216 255
118.5 101.875 126.523 222 230 255
88.7679 140.819 108.406 222 230 255
103.992 142.936 114.197 205 220 255
40.7594 110.507 110.311 234 237 255
167.739 100.055 113.357 215 226 255
93.419 175.705 110.301 203 219 255
150.482 147.523 115.125 242 242 255
113.57 160.3 110.61 184 207 255
158.28 160.054 115.861 199 216 255
158.338 170.975 112.168 193 212 255
71.283 139.58 117.628 202 218 255
99.7387 142.125 116.375 199 216 255
161.617 122.131 105.513 209 223 255
130.729 133.107 119.695 208 222 255
93.4586 174.964 110.358 223 230 255
112.369 132.714 103.177 210 223 255
157.025 99.6257 110.384 231 235 255
141.1 123.164 113.97 193 212 255
96.0768 19.1299 105.349 193 213 255
69.0675 145.141 110.551 188 209 255
57.8443 82.5699 111.257 190 210 255
127.334 110.862 104.945 255 234 216
133.75 46.5015 113.865 213 225 255
142.584 54.863 118.389 198 216 255
44.8401 85.7139 112.715 209 223 255
183.935 76.8645 110.634 192 212 255
83.342 195.612 109.973 200 217 255
127.419 94.331 112.146 207 221 255
130.349 20.6045 114.188 188 209 255
109.33 154.796 106.304 204 219 255
129.847 150.115 112.64 201 218 255
209.038 142.413 113.334 198 216 255
99.8688 82.2213 109.438 255 249 242
188.224 99.2852 109.865 222 230 255
2.57989 95.4516 111.723 183 206 255
161.41 156.42 110.031 255 255 251
158.869 89.8532 112.82 219 228 255
162.487 92.3653 116.445 218 228 255
200.616 117.38 113.084 232 236 255
76.5704 87.9911 110.069 240 241 255
174.262 118.92 109.194 195 214 255
94.6988 167.78 112.58 255 235 218
124.607 103.41 105.41 198 216 255
132.16 159.014 117.291 255 229 208
90.5494 107.952 121.897 206 221 255
83.6863 155.131 113.086 194 213 255
44.3007 75.2911 113.051 238 239 255
177.015 198.792 110.819 188 209 255
196.095 152.754 114.97 191 212 255
95.2793 122.878 105.873 255 204 162
47.3669 24.288 112.798 191 211 255
110.201 119.283 125.986 255 251 246
122.254 127.101 111.6 255 219 191
82.7264 87.7764 113.471 210 223 255
115.498 109.244 120.039 255 241 228
132.723 132.787 111.779 255 253 249
149.095 96.7291 110.556 215 226 255
103.579 106.531 119.807 231 235 255
174.827 81.5765 114.831 199 216 255
107.964 100.263 123.934 232 236 255
144.972 66.6802 109.456 199 216 255
119.219 71.2602 111.787 204 219 255
175.474 77.5658 115.368 235 238 255
165.401 110.687 108.482 202 218 255
165.852 123.05 112.148 215 226 255
91.8267 69.9425 116.252 255 244 234
172.044 142.786 111.594 181 205 255
60.7468 214.64 111.263 183 206 255
52.4268 102.371 112.989 218 228 255
125.34 113.541 108.707 255 244 234
208.124 81.1678 113.205 187 209 255
153.948 121.758 109.756 211 223 255
129.689 76.2559 108.884 220 229 255
100.744 117.94 97.6031 255 239 225
130.085 188.611 111.072 217 227 255
88.7813 78.4988 109.645 195 214 255
124.77 99.9018 118.769 246 244 255
130.686 105.78 114.396 202 218 255
75.8938 152.978 117.701 191 211 255
174.356 86.9981 111.226 193 213 255
81.9725 97.8166 117.155 224 231 255
76.8618 61.8374 108.221 244 242 255
102.077 115.986 105.292 252 247 255
119.277 196.585 110.812 189 210 255
89.7139 109.451 108.801 255 226 202
68.2402 141.401 116.686 242 241 255
66.9948 125.554 113.406 207 221 255
115.988 111.505 120.773 255 227 204
138.183 168.177 116.699 216 226 255
158.281 35.4955 114.315 200 217 255
92.8368 142.415 111.35 245 243 255
92.0832 127.323 101.143 220 229 255
66.4172 123.041 113.379 203 219 255
169.718 114.573 106.522 255 250 255
161.322 176.796 116.944 255 247 239
91.4075 81.3493 103.695 221 229 255
212.48 80.1333 111.504 191 212 255
35.7648 116.391 112.223 204 219 255
130.232 101.581 119.875 216 227 255
152.553 172.962 109.148 231 235 255
111.01 203.449 110.183 208 222 255
215.838 83.1586 112.882 199 216 255
9.78933 87.6618 109.195 182 206 255
116.468 110.622 119.738 255 252 248
109.358 126.305 108.308 255 210 175
143.893 47.2889 111.396 203 219 255
72.5183 136.99 111.689 199 216 255
159.194 126.618 116.97 184 207 255
73.8446 146.415 117.358 216 227 255
111.467 108.927 102.581 221 229 255
61.1221 24.0881 112.714 180 205 255
123.804 93.9674 117.387 248 245 255
69.348 165.459 115.885 199 216 255
110.126 25.0173 111.734 199 216 255
206.747 90.3072 112.628 199 216 255
99.7221 160.217 115.332 255 239 224
106.567 13.0196 106.3 186 208 255
107.526 89.8152 124.086 204 219 255
186.874 54.6541 112.465 210 223 255
60.1273 181.042 111.558 187 209 255
96.0567 206.536 109.696 191 212 255
106.834 178.255 110.761 206 221 255
