ply
format ascii 1.0
element vertex 1341
property float x
property float y
property float z
property uchar red
property uchar green
property uchar blue
end_header
121.364 170.174 105.891 187 209 255
122.809 109.514 111.935 200 217 255
57.7763 57.5784 129.693 199 216 255
109.652 112.848 112.288 200 217 255
90.1958 132.651 114.024 214 225 255
21.9151 153.194 111.762 187 209 255
82.8741 205.175 117.087 181 205 255
94.9452 6.24051 118.724 197 215 255
102.979 136.357 111.397 255 251 246
163.649 119.036 102.987 193 212 255
92.9905 120.396 109.396 205 220 255
113.255 47.3487 113.808 216 226 255
158.246 170.707 105.083 215 226 255
119.45 117.84 124.261 251 247 255
93.1028 173.767 110.506 224 231 255
98.243 82.8226 100.098 213 225 255
89.469 89.1433 113.21 248 245 255
85.6419 56.5853 113.258 187 209 255
105.591 134.635 115.273 208 222 255
131.898 90.256 114.465 255 236 220
171.372 116.46 99.5297 184 207 255
173.216 97.5734 102.764 205 220 255
60.7808 27.0739 112.286 175 201 255
201.938 96.5452 109.076 197 215 255
64.7428 91.1812 111.168 207 221 255
15.5852 140.436 109.926 177 202 255
73.8499 130.367 110.433 255 227 205
104.312 13.6722 106.564 194 213 255
108.408 105.658 110.672 255 198 152
156.625 109.52 131.816 217 227 255
119.909 103.071 114.862 252 247 255
127.304 53.9806 120.127 255 248 240
104.872 106.014 110.036 255 241 228
116.296 46.476 114.778 225 232 255
151.702 153.098 111.439 206 220 255
46.1148 87.5831 101.027 210 223 255
57.778 97.1837 114.309 193 213 255
194.31 120.946 118.579 197 215 255
115.508 119.09 111.488 210 223 255
93.152 173.827 110.586 185 207 255
167.239 138.71 114.227 207 221 255
198.085 66.7857 115.008 194 213 255
115.65 119.466 113.667 250 246 255
93.1358 173.818 110.583 255 252 247
121.415 118.599 105.69 225 232 255
121.825 179.185 112.602 226 233 255
157.941 102.649 114.191 255 254 250
113.89 121.768 104.278 255 237 222
121.303 117.173 118.201 229 234 255
140.68 167.043 111.297 198 216 255
40.2246 115.404 118.095 203 219 255
107.368 123.508 104.95 255 147 41
134.73 167.849 111.696 216 227 255
104.111 183.354 110.709 203 218 255
54.6447 49.2183 90.3828 218 228 255
92.8459 172.973 110.26 216 227 255
93.0734 173.627 110.429 227 233 255
75.4089 141.833 107.779 224 231 255
146.264 92.496 94.0556 255 249 255
49.5618 174.894 112.631 217 227 255
133.786 15.9988 113.81 189 210 255
74.7016 46.5109 92.9709 202 218 255
93.554 174.091 110.692 204 219 255
146.314 84.1927 107 197 215 255
147.688 175.432 111.166 200 217 255
59.0536 75.9836 98.097 208 222 255
94.1818 87.1098 113.513 255 252 247
76.66 168.269 113.793 193 213 255
66.9668 199.972 110.901 190 211 255
94.5468 79.0602 111.885 207 221 255
104.669 89.6349 115.08 210 223 255
201.73 47.5473 110.548 184 207 255
63.3155 182.66 110.559 196 214 255
115.264 144.154 109.395 197 215 255
179.464 122.595 104.698 188 209 255
73.8515 154.446 110.368 210 223 255
110.102 135.331 99.2492 249 246 255
103.201 154.372 105.368 207 221 255
68.6209 145.712 117.481 207 221 255
113.8 75.9289 105.322 255 240 227
118.267 131.609 110.61 232 236 255
106.768 117.653 111.163 212 224 255
110.415 112.157 109.131 205 220 255
147.499 95.5049 110.941 253 248 255
93.1556 173.832 110.59 220 229 255
150.172 27.9582 116.534 185 208 255
58.3244 39.1924 94.7363 209 222 255
111.993 116.736 109.824 228 233 255
92.7023 173.754 110.015 255 222 196
64.6438 118.622 111.932 255 241 228
122.783 78.7626 107.531 255 245 236
78.0895 86.5179 109.588 221 230 255
105.081 116.333 125.931 255 234 217
120.697 116.706 107.961 238 239 255
162.9 125.377 124.904 182 205 255
144.886 167.471 114.395 197 215 255
37.506 151.405 114.385 228 234 255
173.211 89.4216 113.585 207 221 255
81.0489 150.04 108.8 199 216 255
109.479 88.1537 125.504 255 243 232
146.668 124.269 110.876 221 230 255
105.595 112.142 109.281 246 244 255
126.543 81.508 114.966 214 225 255
143.916 92.5409 115.077 199 216 255
93.1487 173.742 110.553 209 223 255
177.283 87.5779 115.069 194 213 255
91.0921 146.317 111.375 193 212 255
64.7941 75.4861 110.7 191 211 255
209.937 89.4692 112.582 192 212 255
136.137 81.1112 123.724 208 222 255
105.173 159.259 101.797 207 221 255
143.202 45.6083 114.789 203 219 255
109.708 98.9816 114.488 255 231 212
159.156 100.263 120.8 216 226 255
93.9427 173.958 111.377 248 245 255
101.753 90.119 107.768 213 225 255
121.381 159.721 112.049 198 216 255
64.146 123.238 109.98 255 170 96
152.372 173.65 113.585 185 207 255
80.2218 183.209 111.72 192 212 255
115.254 96.8475 116.252 211 223 255
158.638 110.559 106.483 196 215 255
93.1992 173.856 110.607 195 214 255
133.564 78.3529 117.521 255 247 239
93.141 173.822 110.585 190 211 255
39.9255 163.219 115.478 189 210 255
111.029 115.574 159.021 224 231 255
117.48 36.1345 131.457 210 223 255
38.3646 194.128 111.505 187 209 255
188.498 111.682 116.637 195 214 255
99.6149 100.029 113.235 255 187 130
123.446 149.982 111.183 219 228 255
92.8335 53.1037 115.727 201 217 255
134.011 69.8994 116.461 255 208 171
112.943 124.728 108.778 250 246 255
119.775 119.454 112.135 204 219 255
115.924 85.8158 114.491 240 241 255
93.1467 173.826 110.588 213 225 255
98.6653 110.132 113.236 224 231 255
115.41 116.221 109.532 210 223 255
142.112 154.024 121.839 189 210 255
126.143 154.205 101.335 179 204 255
124.916 130.848 113.184 199 217 255
117.968 142.124 106.693 210 223 255
56.1635 56.2384 95.3376 234 237 255
80.3975 148.894 106.922 208 221 255
197.031 87.6547 108.407 189 210 255
34.9157 80.4927 109.806 199 216 255
104.261 157.164 118.952 255 251 246
104.961 22.3382 102.684 193 213 255
141.47 71.545 115.2 201 217 255
124.532 105.988 112.1 214 225 255
111.917 121.515 111.773 255 227 204
62.242 67.0916 110.319 221 230 255
65.7139 135.484 117.263 212 224 255
116.954 174.791 109.559 185 208 255
121.032 122.618 115.65 255 220 192
97.938 96.5172 112.897 220 229 255
99.6741 87.754 117.469 255 240 227
35.9974 104.164 109.392 224 231 255
156.664 106.833 113.522 203 219 255
132.455 177.295 109.88 214 225 255
148.373 94.7893 113.129 247 244 255
129.785 109.029 112.589 255 247 238
85.0975 48.481 111.531 231 235 255
106.055 105.855 115.075 255 214 181
27.2992 75.7121 113.729 219 229 255
116.907 86.7499 120.171 204 219 255
173.391 55.1053 111.943 194 213 255
96.7639 24.9324 108.243 192 212 255
120.269 136.605 115.371 255 234 216
86.0537 185.221 104.855 203 219 255
136.486 91.443 125.452 255 247 239
103.704 105.023 111.734 246 244 255
93.1751 173.843 110.6 199 216 255
157.82 172.619 94.1889 216 226 255
118.401 141.867 108.67 229 234 255
119.903 118.867 114.304 255 237 221
62.2422 224.269 103.131 193 212 255
93.1543 173.832 110.59 200 217 255
115.245 157.524 110.985 234 237 255
159.55 150.117 132.985 204 219 255
108.554 121.702 114.816 207 221 255
78.8434 146.789 104.117 214 225 255
93.067 173.759 110.562 201 218 255
213.762 149.554 113.616 203 219 255
151.632 150.447 110.715 196 214 255
103.013 105.346 108.035 255 216 185
104.949 109.308 119.992 255 220 192
207.465 23.8673 108.63 181 205 255
98.0944 106.454 108.024 255 225 200
93.1191 173.804 110.577 233 236 255
81.6353 149.088 114.197 208 222 255
112.446 102.566 113.33 255 219 191
69.0054 139.402 105.541 246 244 255
148.628 44.7497 113.181 220 229 255
106.353 119.941 112.857 214 225 255
170.894 104.978 111.922 195 213 255
166.544 38.5624 109.93 188 209 255
64.6352 133.461 107.581 210 223 255
80.9976 11.7471 115.952 200 217 255
160.768 150.05 110.918 203 219 255
113.192 124.654 107.242 255 245 235
163.806 2.95191 106.953 206 220 255
151.874 96.1092 115.538 213 224 255
93.1591 173.834 110.591 255 253 248
79.9958 206.248 107.114 187 209 255
24.8706 166.37 114.492 198 215 255
129.29 121.844 111.95 255 214 182
217.547 62.969 112.125 186 208 255
112.307 104.998 115.183 255 235 219
156.427 130.051 113.102 194 213 255
164.486 100.308 112.916 196 215 255
96.7098 181.07 111.122 255 252 247
135.709 75.9171 102.853 243 242 255
182.869 12.5401 109.994 197 215 255
76.0233 154.756 127.703 211 223 255
104.847 106.737 113.74 255 219 191
67.0608 128.653 96.931 196 214 255
167.432 70.2077 111.309 208 222 255
85.3594 156.437 114.843 255 243 232
129.327 78.3569 99.5029 255 255 251
116.768 121.258 109.809 242 241 255
170.113 133.338 110.772 191 211 255
31.0923 111.7 134.712 218 227 255
79.4363 61.0536 114.704 255 235 219
84.4429 158.321 116.086 200 217 255
92.4681 173.264 110.397 207 221 255
170.975 7.25792 89.1967 190 211 255
137.31 81.0793 110.609 255 254 250
87.9787 171.445 112.868 203 219 255
106.911 120.024 110.791 246 244 255
78.1708 45.1391 116.735 255 252 247
172.328 187.769 109.321 194 213 255
53.2633 96.2771 114.898 221 229 255
105.536 112.605 109.196 255 233 215
119.595 88.7955 110.317 235 238 255
118.719 55.4347 117.517 255 234 216
93.1462 173.825 110.587 255 234 217
113.282 105.757 105.355 247 244 255
111.358 181.548 108.852 192 212 255
199.65 85.4505 113.415 179 204 255
119.754 109.344 111.742 209 222 255
92.6831 93.94 109.677 227 233 255
93.0793 173.755 110.549 213 225 255
52.966 67.1653 99.0953 200 217 255
93.14 173.821 110.584 222 230 255
144.365 139.887 112.897 219 228 255
145.853 99.3354 112.741 231 235 255
138.422 112.087 114.401 255 249 255
80.6626 182.138 112.865 197 215 255
113.417 101.661 120.888 255 222 196
107.083 117.8 119.998 240 241 255
118.653 123.764 103.407 255 212 178
124.464 83.2433 115.155 255 254 250
93.1025 173.8 110.566 228 234 255
108.772 94.8675 123.773 227 233 255
146.879 154.459 112.331 205 220 255
93.1317 173.815 110.581 220 229 255
103.505 134.63 112.138 206 221 255
216.686 112.041 118.482 181 205 255
98.7002 35.4121 112.606 203 219 255
93.1299 173.813 110.581 197 215 255
135.138 205.574 105.601 184 207 255
115.954 106.245 98.9151 252 247 255
177.175 102.6 113.82 220 229 255
46.6311 156.505 115.33 197 215 255
103.329 111.935 109.335 255 252 248
170.118 149 116.223 255 228 206
101.205 50.6858 110.97 197 215 255
114.746 160.706 111.183 228 234 255
93.1474 173.826 110.587 197 215 255
93.1495 173.828 110.588 191 211 255
146.196 122.233 111.752 221 230 255
205.448 158.29 109.105 199 216 255
38.4066 65.9919 109.115 195 214 255
108.41 34.2076 133.619 193 212 255
51.3046 51.6124 104.92 200 217 255
159.684 121.683 110.97 202 218 255
85.9896 31.1535 113.786 212 224 255
60.3798 68.5485 105.681 192 212 255
147.891 76.1538 123.453 208 222 255
54.673 98.2151 102.055 201 218 255
186.463 127.14 99.3237 197 215 255
201.175 32.0577 112.4 181 205 255
31.7837 61.1536 110.099 205 220 255
136.758 159.923 114.868 184 207 255
102.98 88.0433 105.382 197 215 255
116.708 134.761 118.33 255 240 226
69.6084 83.1615 117.449 218 227 255
141.436 121.96 94.9468 222 230 255
102.141 120.706 114.917 209 223 255
51.1393 204.494 111.075 182 206 255
61.9072 173.986 114.874 203 219 255
95.3346 141.114 112.236 255 236 221
115.702 115.751 111.389 255 248 239
101.841 161.663 107.846 204 219 255
118.062 13.5927 114.733 201 218 255
87.3052 142.741 113.168 255 191 139
163.089 118.23 121.718 189 210 255
112.472 136.988 108.564 255 247 238
93.0995 173.799 110.546 182 206 255
111.276 108.56 113.445 255 245 235
168.439 121.609 108.118 206 221 255
43.1103 87.1768 112.301 188 209 255
93.1337 173.816 110.582 211 223 255
165.068 28.1202 113.468 197 215 255
140.414 52.6735 116.083 232 236 255
118.746 120.127 105.429 255 223 198
135.973 58.8613 117.986 226 233 255
129.412 86.5618 114.367 255 214 181
113.772 146.111 104.158 255 219 191
99.3095 107.95 106.61 255 246 237
119.606 114.884 107.795 220 229 255
146.762 154.788 113.606 255 255 251
138.263 115.738 111.453 221 229 255
92.5183 173.369 110.479 189 210 255
105.921 173.067 126.726 201 218 255
93.2913 173.177 110.677 205 220 255
108.096 150.808 107.023 196 214 255
109.552 65.5277 115.955 221 229 255
107.603 116.326 122.572 255 254 250
32.9942 187.814 113.25 187 209 255
119.461 95.4345 89.8959 225 232 255
66.2103 138.22 116.215 241 241 255
96.0938 169.609 108.538 214 225 255
77.6056 71.0161 109.789 199 216 255
119.819 152.585 106.607 199 216 255
81.3511 149.014 121.338 201 217 255
116.282 115.156 103.148 254 248 255
105.411 110.357 114.9 216 227 255
103.08 95.2701 109.5 201 218 255
117.025 127.091 102.224 214 225 255
7.41534 157.869 113.561 184 207 255
182.029 44.9754 112.645 190 211 255
198.986 27.1035 107.193 189 210 255
133.859 78.8001 118.377 237 239 255
198.091 137.204 111.646 211 223 255
93.0669 173.781 110.547 195 213 255
144.079 43.7293 114.784 194 213 255
105.373 187.706 111.983 188 209 255
94.3649 9.72084 139.068 182 206 255
143.639 45.6306 113.474 217 227 255
105.365 122.11 113.799 255 226 203
120.535 91.3521 112.735 215 226 255
48.3078 99.2928 109.162 193 213 255
70.3074 43.409 98.561 194 213 255
93.0324 173.731 110.521 219 228 255
60.6313 115.198 110.559 255 226 203
120.684 76.9951 120.653 207 221 255
104.639 110.221 108.603 255 187 131
83.4189 139.538 114.304 204 219 255
149.05 135.037 110.078 255 192 140
207.506 166.32 118.438 179 203 255
60.5987 107.556 112.492 206 220 255
106.002 121.302 114.977 216 227 255
160.71 94.466 108.562 199 216 255
135.848 66.0287 117.054 224 231 255
84.5372 98.8616 112.65 255 241 229
110.285 113.402 107.951 208 222 255
122.102 198.079 72.5154 184 207 255
75.9261 163.307 114.147 203 219 255
59.7202 134.538 157.186 194 213 255
54.5912 124.293 113.781 240 240 255
100.089 185.653 111.103 199 216 255
164.386 112.2 103.306 213 225 255
82.2553 179.496 114.433 199 216 255
206.234 108.453 108.865 192 212 255
159.567 69.9598 143.322 223 231 255
105.544 84.8373 123.349 209 222 255
152.573 106.789 109.35 199 216 255
93.1682 173.84 110.595 207 221 255
101.48 118.196 111.42 211 223 255
99.5677 121.407 111.582 225 232 255
93.2695 173.893 110.59 206 220 255
141.054 50.6303 117.929 185 207 255
138.972 210.429 121.095 190 210 255
134.507 87.9452 91.5465 204 219 255
156.814 128.067 111.93 189 210 255
163.813 158.796 113.898 202 218 255
143.63 151.903 95.3224 176 202 255
91.6989 90.9099 114.305 198 215 255
98.2863 124.404 112.323 220 229 255
168.951 155.493 105.763 223 230 255
93.1291 173.81 110.58 198 216 255
178.683 133.696 132.718 255 249 255
160.956 101.977 113.783 197 215 255
130.469 74.1749 113.383 213 225 255
93.1511 173.829 110.588 199 216 255
46.4704 137.953 109.724 209 222 255
62.4939 134.278 125.006 217 227 255
113.995 142.224 110.837 205 220 255
93.166 173.839 110.594 202 218 255
66.2714 136.337 117.919 248 245 255
93.1769 173.844 110.599 202 218 255
93.1503 173.828 110.588 255 240 226
119.792 172.65 108.76 220 229 255
134.841 93.1345 111.981 200 217 255
64.9103 110.242 111.753 203 219 255
68.9868 47.4086 100.087 188 209 255
104.544 158.853 116.046 255 251 245
114.928 113.196 133.237 219 228 255
105.355 102.938 109.325 255 125 0
199.064 141.187 116.385 199 216 255
110.888 123.073 116.508 255 242 230
60.0436 87.056 114.076 187 208 255
164.854 144.175 106.921 226 232 255
36.588 203.559 93.9223 183 206 255
124.765 10.427 124.642 192 212 255
114.637 124.653 105.284 255 250 255
52.3711 98.6311 109.596 224 231 255
116.781 145.183 110.195 195 214 255
3.95658 121.475 110.172 185 207 255
106.359 108.172 112.174 255 221 195
89.1638 184.646 109.626 213 225 255
28.5957 86.9108 115.606 191 212 255
108.133 78.2063 114.837 201 217 255
170.681 17.3834 101.899 183 206 255
108.564 113.425 122.613 255 240 227
127.343 19.645 112.534 210 223 255
163.01 110.359 118.247 192 212 255
120.458 84.4121 104.185 255 210 175
222.906 103.785 109.356 194 213 255
162.402 141.187 112.437 196 214 255
52.8914 101.068 107.424 209 222 255
118.188 140.444 111.649 255 178 111
102.888 89.7424 110.72 255 229 209
114.596 153.693 142.904 255 235 218
134.592 148.946 106.834 196 214 255
11.3896 156.998 111.227 183 206 255
66.2222 104.202 112.013 202 218 255
62.4777 127.848 107.344 197 215 255
93.1256 165.328 118.657 219 228 255
119.192 119.561 110.232 255 239 225
183.496 64.9583 110.074 196 214 255
121.755 121.487 115.1 255 216 185
105.443 108.436 110.224 255 250 255
4.65239 159.064 110.678 230 235 255
97.8908 147.292 109.26 200 217 255
27.3284 167.791 113.915 179 204 255
140.426 70.2177 135.493 211 223 255
183.217 116.502 117.031 188 210 255
92.8341 38.7746 110.471 189 210 255
123.663 94.0331 114.404 246 244 255
83.0044 72.4777 113.015 198 215 255
134.59 73.1484 126.651 255 249 241
142.705 107.598 112.287 239 240 255
93.1909 173.85 110.603 196 215 255
210.565 29.4155 109.939 189 210 255
68.4407 54.7914 110.464 192 212 255
163.946 193.704 120.562 204 220 255
123.484 76.5488 118.207 207 221 255
123.531 81.7666 106.632 255 238 224
152.839 118.617 113.123 228 234 255
115.352 129.836 101.879 255 232 212
58.6129 95.9098 112.609 206 220 255
113.597 112.775 103.284 220 229 255
63.1216 55.4068 105.831 196 214 255
77.5204 40.9896 112.457 188 210 255
148.395 136.67 111.014 255 172 99
41.6114 119.871 97.6756 234 237 255
93.1568 173.833 110.59 253 248 255
93.1131 173.799 110.575 219 229 255
211.667 118.767 112.691 195 214 255
169.611 120.251 131.601 210 223 255
112.331 48.6965 114.051 255 244 234
101.952 165.891 116.831 232 236 255
113.181 116.139 110.031 199 216 255
115.576 60.9955 22.3746 255 230 209
93.177 173.843 110.599 191 211 255
74.3643 110.498 112.823 225 232 255
99.7755 105.267 109.778 255 219 190
83.1842 62.7486 111.13 213 225 255
110.54 102.28 109 195 213 255
203.28 166.886 111.573 183 206 255
94.652 173.252 109.872 187 209 255
189.693 143.399 117.202 203 219 255
158.033 143.283 112.096 196 215 255
70.9549 124.25 119.121 190 211 255
102.436 111.314 120.352 201 218 255
46.2602 68.12 127.252 206 221 255
150.767 126.628 111.265 210 223 255
114.902 122.403 112.285 255 247 238
124.125 73.7345 121.522 200 217 255
93.152 173.829 110.589 239 240 255
141.665 123.435 114.666 199 216 255
124.911 83.3396 115.876 197 215 255
16.8558 90.4364 108.457 200 217 255
168.154 119.498 107.408 191 211 255
121.086 84.5432 116.398 222 230 255
91.626 175.225 111.938 209 222 255
136.52 172.644 113.541 186 208 255
85.3747 108.535 115.338 231 235 255
93.3144 173.746 110.498 212 224 255
142.192 70.6532 115.609 255 232 213
94.9133 109.756 110.971 255 227 205
49.1349 74.4211 120.621 201 217 255
163.427 99.9137 115.736 197 215 255
164.022 121.896 110.905 200 217 255
84.3671 88.4961 111.877 209 222 255
113.449 169.519 112.582 202 218 255
186.997 96.7344 105.458 197 215 255
202.908 48.2922 111.615 191 211 255
175.361 94.7034 105.26 205 220 255
93.1369 173.818 110.583 194 213 255
54.6938 107.774 117.688 200 217 255
178.546 107.349 112.095 193 212 255
109.025 123.924 106.354 240 240 255
127.911 47.3883 113.419 229 234 255
73.0997 17.4844 120.541 255 250 255
127.76 106.119 115.127 236 238 255
116.397 142.774 111.367 195 214 255
105.913 115.22 127.012 208 222 255
92.6673 16.9721 108.655 203 219 255
142.54 153.216 111.55 255 224 200
126.107 81.6863 123.02 220 229 255
111.905 187.608 113.048 188 210 255
93.1485 173.827 110.587 190 211 255
109.396 152.546 117.1 244 243 255
93.1548 173.831 110.59 212 224 255
133.901 81.8386 102.493 202 218 255
114.738 120.563 108.784 211 224 255
103.215 163.357 121.94 205 220 255
17.3451 171.591 114.116 194 213 255
161.427 129.455 110.78 255 251 244
166.844 161.589 113.42 185 208 255
110.885 120.907 107.03 216 227 255
120.684 113.123 120.249 255 238 224
95.6553 175.297 111.669 194 213 255
106.023 25.5081 115.241 216 226 255
30.0931 198.773 112.036 176 202 255
63.9867 135.981 100.724 190 211 255
107.131 167.207 108.94 198 216 255
61.7183 112.867 110.745 192 212 255
165.456 133.895 112.305 197 215 255
86.0944 176.371 103.871 228 233 255
116.269 119.674 107.632 222 230 255
117.403 100.927 113.9 208 222 255
112.158 111.798 114.438 255 224 199
114.594 123.988 104.899 216 227 255
21.9918 96.749 108.811 193 213 255
149.807 156.254 114.298 194 213 255
113.455 107.678 112.833 202 218 255
99.7838 23.3082 109.355 192 212 255
64.7603 31.6124 98.2062 183 206 255
66.0885 132.189 102.221 199 216 255
48.344 187.124 114.756 194 213 255
212.47 123.113 114.546 188 209 255
48.5383 113.89 109.773 195 214 255
108.1 154.23 106.147 255 239 226
145.587 79.8573 103.632 255 233 215
65.9672 105.002 110.458 253 248 255
140.168 79.7924 109.746 255 237 221
112.254 102.742 113.941 255 240 227
174.841 54.6305 115.202 222 230 255
92.9222 173.91 110.408 223 231 255
101.708 161.034 103.072 230 235 255
51.9483 88.4142 110.07 188 209 255
121.633 114.89 115.322 226 232 255
133.608 83.1141 119.033 255 247 238
91.5182 133.641 106.633 214 225 255
79.5274 166.585 106.185 196 214 255
93.184 173.85 110.601 215 226 255
93.0433 173.737 110.556 255 227 204
173.771 129.717 111.719 195 214 255
93.152 173.829 110.589 195 214 255
132.45 101.164 108.292 202 218 255
119.497 121.776 116.105 255 252 247
94.8963 39.3731 113.121 255 253 249
109.987 115.176 115.96 255 237 223
28.3448 133.761 109.573 189 210 255
41.148 151.859 110.063 236 238 255
134.671 85.0497 113.576 255 219 190
112.95 125.808 100.19 247 244 255
162.697 3.17375 107.317 185 207 255
92.6853 173.818 110.541 255 235 219
124.991 209.709 118.085 205 220 255
102.712 121.738 115.292 213 225 255
93.1487 173.827 110.587 198 215 255
48.0031 94.4888 108.248 199 216 255
36.5339 150.829 114.455 197 215 255
91.0428 107.43 109.637 198 215 255
130.39 84.0194 110.897 214 226 255
167.514 134.253 103.981 214 225 255
113.91 130.238 110.618 255 209 172
93.1145 173.8 110.575 207 221 255
55.7818 113.516 129.121 206 221 255
114.915 160.926 113.139 191 211 255
131.5 75.3879 121.75 235 238 255
84.8837 150.865 112.754 192 212 255
93.1874 173.848 110.601 192 212 255
80.6893 160.178 111.904 181 205 255
93.7717 174.281 111.026 195 214 255
143.116 97.0733 112.425 255 233 215
161.43 115.262 113.154 197 215 255
16.1313 197.389 112.143 206 220 255
176.414 163.903 116.466 231 235 255
109.87 112.452 110.142 207 221 255
174.718 90.9209 110.899 193 213 255
104.797 105.825 114.032 242 241 255
98.7755 112.386 113.766 223 230 255
113.079 103.695 114.453 255 249 255
118.801 79.5166 119.982 228 234 255
93.1464 173.825 110.587 197 215 255
156.096 128.401 110.913 230 234 255
135.453 93.5648 112.98 255 225 202
101.773 174.185 112.191 222 230 255
154.776 175.443 115.627 194 213 255
97.5669 101.165 105.838 255 254 250
102.44 181.347 117.149 200 217 255
93.0783 173.746 110.527 215 226 255
70.5379 121.943 112.937 192 212 255
135.171 115.106 110.675 255 254 250
181.551 160.007 115.246 189 210 255
144.132 138.056 113.045 192 212 255
117.302 104.774 112.816 255 235 218
153.569 98.0787 122.417 248 245 255
136.672 109.327 115.493 234 237 255
174.05 52.6487 113.987 199 216 255
150.505 81.5242 113.574 194 213 255
117.247 136.689 117.272 255 230 209
87.3172 125.04 112.403 202 218 255
74.0919 53.0271 112.434 190 210 255
118.355 133.977 106.248 255 245 235
95.9848 124.649 110.929 255 241 229
124.058 160.642 110.093 255 227 205
54.586 62.9318 111.564 185 207 255
159.262 139.413 116.352 195 214 255
66.2232 69.0532 106.459 206 221 255
72.5426 186.327 113.36 195 214 255
96.2638 108.483 112.258 255 227 204
189.503 46.9812 112.414 238 239 255
188.657 120.08 116.82 188 209 255
94.2226 173.862 111.359 247 244 255
146.488 124.133 109.936 196 214 255
96.181 99.1618 115.7 253 248 255
70.4926 88.0475 109.76 255 254 251
105.697 112.126 124.323 249 246 255
61.9347 57.4475 109.556 205 220 255
133.762 82.5464 119.862 209 222 255
101.948 138.781 120.138 255 216 185
89.9536 165.61 122.78 232 236 255
93.1321 173.971 110.551 255 252 247
62.3474 211.809 112.315 187 209 255
116.798 25.2733 112.52 192 212 255
87.8752 120.883 112.835 222 230 255
103.617 108.812 118.026 255 248 241
127.394 106.96 112.125 255 248 240
107.574 131.96 111.601 255 255 251
39.3506 51.2637 110.43 203 219 255
199.372 119.337 111.125 207 221 255
121.959 118.315 112.465 255 254 250
149.636 86.8818 108.054 201 218 255
179.404 123.847 108.125 215 226 255
85.574 87.4738 110.729 255 195 146
120.73 61.1323 115.046 221 229 255
135.066 175.164 111.128 189 210 255
128.549 202.714 120.424 204 220 255
185.671 23.4403 105.637 199 216 255
219.234 78.7777 116.068 194 213 255
93.1421 173.822 110.585 210 223 255
104.647 121.059 110.715 209 223 255
117.142 113.358 102.422 204 220 255
93.1306 173.814 110.581 204 219 255
116.409 172.281 116.793 181 205 255
176.439 45.1555 114.438 248 245 255
62.2308 116.115 115.087 255 244 233
89.9103 206.515 111.455 232 236 255
137.698 154.328 110.869 205 220 255
93.8136 174.537 110.97 213 225 255
100.139 127.654 108.063 206 221 255
74.1949 189.841 113.167 180 204 255
97.0814 125.743 110.894 204 219 255
87.9139 26.9046 119.043 185 208 255
31.6151 158.342 110.636 187 209 255
89.1164 83.9553 112.459 227 233 255
159.536 47.6251 113.194 196 215 255
54.8256 129.459 100.06 229 234 255
90.8969 36.584 131.222 195 214 255
117.644 104.607 112.999 245 243 255
119.867 172.57 90.6117 191 211 255
204.352 80.9871 116.39 202 218 255
128.18 80.5244 124.707 205 220 255
145.481 138.311 111.36 214 225 255
35.0923 87.7429 110.494 233 237 255
93.5376 174.314 109.598 197 215 255
109.262 119.38 112.136 207 221 255
107.409 110.356 104.143 219 228 255
164.408 162.373 123.684 201 217 255
113.679 112.98 125.19 200 217 255
120.578 117.73 112.372 255 252 247
83.5142 20.7341 99.3425 187 209 255
109.795 111.646 110.837 255 204 163
185.437 164.745 117.259 186 208 255
71.553 141.747 121.489 219 228 255
176.442 34.2892 110.821 193 212 255
118.317 75.2839 112.436 190 211 255
54.2524 172.771 112.147 206 220 255
118.478 42.9304 115.995 208 222 255
46.4761 132.178 138.011 207 221 255
150.784 95.2288 115.543 251 246 255
111.695 122.232 112.956 255 179 115
199.251 125.498 118.091 202 218 255
93.1436 173.822 110.584 255 235 218
93.0211 99.4532 114.899 191 211 255
93.1351 173.817 110.583 255 223 198
112.441 91.6925 106.295 204 219 255
138.063 74.6452 118.774 255 254 250
107.14 108.574 114.911 255 219 191
93.1784 173.845 110.599 210 223 255
97.1763 155.133 125.037 209 222 255
90.9968 196.678 45.6945 210 223 255
56.5294 30.1883 114.542 183 206 255
74.2172 150.505 123.295 255 249 255
163.723 117.388 112.476 255 245 236
47.2057 139.253 109.159 200 217 255
76.6922 34.4638 119.292 182 205 255
51.6684 134.503 113.027 196 214 255
97.581 84.3692 112.687 214 225 255
147.853 67.7612 114.267 215 226 255
91.3526 74.0915 112.9 192 212 255
104.772 167.014 98.443 225 232 255
36.4159 169.678 111.665 205 220 255
93.1781 173.844 110.599 210 223 255
105.753 105.27 110.999 227 233 255
148.922 84.7424 103.491 220 229 255
88.5495 110.592 113.155 255 91 0
100.947 180.464 112.247 203 218 255
148.546 55.6081 113.659 184 207 255
144.999 68.6134 107.779 185 208 255
72.199 63.978 114.414 199 216 255
187.053 113.081 116.365 181 205 255
86.7722 34.1863 113.864 209 222 255
130.743 61.9397 113.375 189 210 255
163.133 148.053 113.223 255 233 216
91.9933 117.508 111.847 203 219 255
112.31 110.941 112.403 255 221 194
80.9265 92.533 114.383 237 239 255
76.907 145.256 122.782 255 245 236
105.564 103.721 115.149 255 226 203
45.3003 110.176 111.153 225 232 255
92.6399 173.177 110.044 220 229 255
93.1458 173.383 110.516 215 226 255
127.988 102.629 137.861 216 227 255
118.434 85.2624 104.487 255 205 165
136.527 77.1886 120.544 252 247 255
1.20138 141.564 116.416 188 209 255
62.6522 133.924 108.695 229 234 255
92.6377 173.597 110.399 251 247 255
123.301 73.4861 120.234 205 220 255
101.547 24.3384 109.216 197 215 255
153.648 13.3936 110.956 190 211 255
111.189 143.029 117.345 205 220 255
93.0861 173.773 110.566 255 229 207
107.452 116.661 103.316 201 217 255
113.252 151.305 105.674 255 234 217
49.0786 123.152 112.913 190 211 255
147.345 73.3285 127.062 255 189 134
112.835 114.542 116.319 249 245 255
84.5566 172.568 101.231 231 235 255
110.107 102.994 115.966 199 217 255
67.2753 213.799 110.935 193 212 255
49.9988 118.542 113.946 240 240 255
105.353 135.264 105.774 255 233 215
32.7531 189.277 112.764 183 206 255
113.249 106.111 111.724 255 254 251
140.56 91.8668 111.962 212 224 255
94.7672 163.055 105.851 223 231 255
125.622 109.037 112.623 207 221 255
114.459 124.558 116.447 255 248 239
161.352 142.627 113.104 180 204 255
143.856 33.7345 113.282 229 234 255
175.84 12.8987 108.545 182 206 255
122.579 111.181 103.829 217 227 255
130.082 188.116 114.782 221 230 255
62.6987 116.005 111.697 255 249 255
72.8159 135.881 108.545 254 249 255
72.5538 135.88 113.379 224 231 255
109.652 116.11 108.526 255 113 0
78.2711 41.0547 109.157 218 227 255
79.5736 40.7361 109.241 182 206 255
94.6982 174.176 111.221 255 232 213
131.848 68.7268 116.413 189 210 255
57.7892 118.218 107.79 226 232 255
47.7349 207.346 110.451 192 212 255
127.537 83.0401 124.805 255 231 212
106.311 114.504 105.397 255 237 221
140.888 128.738 113.921 246 244 255
93.1542 173.831 110.59 237 239 255
116.748 114.512 125.95 224 231 255
69.0707 82.9748 110.194 232 236 255
93.1497 173.828 110.588 208 222 255
126.244 109.365 111.093 248 245 255
127.779 39.5201 116.273 198 216 255
79.3626 141.417 113.534 209 222 255
20.0469 109.802 115.844 174 200 255
93.7763 174.37 111.01 196 214 255
93.1509 173.829 110.588 209 222 255
159.002 104.956 102.467 225 232 255
111.052 123.981 118.366 216 227 255
145.052 164.727 113.442 204 219 255
142.916 136.815 111.837 228 234 255
134.299 75.9094 128.947 197 215 255
10.0285 67.9939 112.151 188 209 255
40.743 92.5508 112.275 188 209 255
160.018 164.552 106.583 199 216 255
84.1156 149.038 106.215 221 229 255
52.6121 60.4386 109.646 203 219 255
144.353 75.685 110.781 195 214 255
109.822 105.754 113.279 255 164 83
119.021 115.073 98.5793 255 253 248
28.2737 139.951 111.728 201 218 255
114.867 139.318 107.324 236 238 255
95.3268 172.708 109.837 221 229 255
29.0032 201.859 107.999 198 215 255
107.551 116.365 112.065 255 234 217
103.208 51.8555 114.079 195 214 255
35.9693 99.4638 113.032 226 232 255
20.8233 94.759 116.352 187 209 255
170.379 130.482 111.606 194 213 255
177.731 177.612 118.104 183 206 255
104.899 146.375 113.35 255 238 223
101.914 112.17 108.968 212 224 255
91.9133 183.971 104.969 253 248 255
94.204 164.099 109.714 213 225 255
118.276 40.9654 115.756 204 219 255
74.4795 177.198 111.684 231 235 255
110.288 116.904 112.318 249 245 255
16.1374 144.833 114.21 189 210 255
113.471 148.156 116.429 200 217 255
172.4 165.755 115.585 189 210 255
139.021 75.6688 109.168 237 239 255
87.5715 129.616 112.031 208 222 255
81.0852 145.91 113.274 187 209 255
103.225 88.6607 113.134 255 209 172
131.666 39.1085 113.937 196 215 255
205.458 108.1 110.716 184 207 255
136.068 79.3662 108.885 203 218 255
104.866 147.765 114.529 255 252 247
113.829 107.697 107.644 255 219 190
36.3766 35.2811 116.485 195 214 255
102.617 183.264 112.927 255 251 245
116.997 68.7791 117.494 204 219 255
220.733 147.55 114.93 178 203 255
93.1504 173.828 110.588 200 217 255
95.7056 144.105 111.596 236 238 255
104.221 122.507 113.474 255 244 233
139.788 203.785 92.5521 214 226 255
102.108 162.763 123.025 236 238 255
108.965 118.267 109.107 220 229 255
92.7237 173.477 110.526 208 222 255
164.318 37.6152 112.627 197 215 255
91.8283 153.169 113.634 255 252 247
47.151 212.016 124.179 195 214 255
83.3581 80.6378 124.485 208 222 255
60.7386 127.249 117.419 205 220 255
93.1397 173.821 110.584 199 216 255
139.638 124.043 112.141 217 227 255
108.44 121.387 119.194 239 240 255
79.9489 158.411 115.037 188 209 255
118.083 87.0356 114.22 255 227 205
108.474 113.133 116.09 200 217 255
101.321 186.744 110.476 196 214 255
150.459 155.845 111.349 220 229 255
98.5639 102.824 117.535 255 218 189
151.227 127.282 80.2264 207 221 255
104.772 152.176 107.991 255 252 247
184.283 107.815 114.839 198 215 255
67.4955 131.552 103.479 213 225 255
93.1572 173.813 110.583 204 219 255
158.044 132.167 110.511 195 214 255
97.2215 177.929 111.473 214 225 255
121.863 10.2174 105.309 189 210 255
111.03 190.04 111.308 183 206 255
103.141 117.989 121.695 255 240 226
132.166 83.1215 128.939 255 233 215
120.142 117.654 107.57 255 248 240
93.1226 173.807 110.578 197 215 255
71.882 135.44 112.195 203 219 255
80.2585 151.876 122.044 208 221 255
119.648 83.0101 113.022 202 218 255
119.072 122.885 116.501 255 220 192
143.028 115.626 115.328 210 223 255
56.5141 157.126 92.332 196 214 255
118.367 121.792 108.008 219 228 255
195.742 122.766 111.174 187 209 255
77.6326 51.8091 113.279 215 226 255
79.3617 135.831 113.341 194 213 255
114.286 119.296 113.824 223 231 255
126.449 166.678 110.98 205 220 255
135.814 189.402 108.068 189 210 255
108.06 118.143 125.323 255 250 244
130.103 96.0084 113.428 255 207 169
64.0874 129.487 106.288 193 213 255
81.6907 72.0382 113.132 215 226 255
94.5808 146.569 108.644 195 213 255
63.5869 59.8691 104.853 199 216 255
116.076 109.036 111.796 255 204 162
87.2073 135.862 112.572 255 225 200
158.726 141.883 96.7235 207 221 255
42.9228 221.494 130.545 190 211 255
77.4975 53.8853 112.238 250 246 255
108.101 87.172 127.654 203 219 255
51.217 72.8436 107.71 194 213 255
112.977 61.5423 114.498 216 226 255
158.633 85.9721 111.361 199 216 255
107.917 51.8278 113.415 203 218 255
43.6005 94.9777 119.179 192 212 255
216.647 124.333 115.987 193 213 255
63.3074 50.1122 78.7256 193 212 255
25.4047 84.2631 105.597 185 207 255
132.79 74.9046 121.379 219 228 255
119.125 76.8547 107.094 255 252 246
95.5591 83.2314 109.091 247 245 255
26.9973 194.35 104.113 193 213 255
93.1942 173.852 110.608 228 233 255
190.49 129.724 119.526 200 217 255
164.592 112.104 111.01 214 225 255
161.56 102.907 109.201 203 219 255
32.9496 45.8115 98.7243 204 220 255
71.6203 138.13 123.649 194 213 255
122.814 71.6059 118.527 205 220 255
171.737 155.023 89.2559 190 210 255
116.775 144.444 113.952 255 214 182
129.617 78.5584 123.617 255 211 176
104.241 112.514 119.375 255 222 196
93.0651 173.55 110.46 212 224 255
103.556 107.709 121.159 224 231 255
105.338 106.579 110.623 216 226 255
66.7509 50.676 119.831 186 208 255
130.983 83.1591 111.573 198 216 255
93.0946 173.782 110.567 200 217 255
119.016 85.0656 116.759 255 243 232
114.921 116.073 112.042 217 227 255
104.591 176.737 109.158 255 251 246
113.798 121.15 115.66 255 230 210
195.294 42.5076 88.4928 187 209 255
120.417 82.983 111.773 195 214 255
92.4345 173.722 110.503 255 220 192
101.02 86.8234 116.687 220 229 255
133.248 79.4871 119.966 216 227 255
64.0653 81.3592 132.238 188 209 255
53.5159 31.2994 126.885 188 209 255
116.133 116.067 116.904 246 244 255
105.82 104.561 113.101 255 233 215
92.9959 173.745 110.649 192 212 255
61.3986 119.361 113.329 220 229 255
105.481 117.949 114.281 220 229 255
79.6139 81.0189 110.368 232 236 255
101.238 89.1282 113.825 198 216 255
93.1511 173.829 110.588 196 214 255
116.387 123.483 106.777 213 224 255
47.0412 119.833 119.193 210 223 255
93.3293 173.804 110.628 206 221 255
132.92 143.156 112.619 231 235 255
49.2909 25.5021 114.577 188 209 255
127.982 79.8623 109.678 240 240 255
212.931 22.8529 106.182 184 207 255
191.917 122.184 116.345 192 212 255
93.0558 173.749 110.551 249 246 255
117.934 111.963 112.93 226 232 255
84.0089 108.421 114.895 205 220 255
62.6105 129.157 99.4817 209 222 255
148.818 147.12 112.394 195 214 255
84.0217 166.801 133.864 202 218 255
111.354 106.537 106.024 255 253 249
106.312 91.8071 110.141 228 233 255
110.577 125.879 105.097 236 238 255
105.395 126.055 108.252 255 201 158
79.8555 27.6121 107.929 195 214 255
183.359 139.045 121.736 201 217 255
89.6385 212.66 135.006 197 215 255
136.636 79.5049 110.86 204 219 255
73.8673 105.106 112.531 233 236 255
166.403 169.823 115.236 184 207 255
138.583 167.617 107.661 199 216 255
4.23992 170.872 112.151 183 206 255
93.1854 173.85 110.602 197 215 255
39.3152 168.294 110.948 199 216 255
155.037 123.32 112.563 189 210 255
131.039 79.5728 113.239 247 244 255
153.524 142.301 110.725 207 221 255
119.325 120.16 111.619 255 255 252
80.8385 177.017 113.038 214 225 255
117.137 120.195 109.941 255 243 232
111.072 163.994 108.181 238 239 255
87.0498 198.031 113.048 202 218 255
184.852 78.8594 112.901 186 208 255
114.081 160.172 109.666 183 206 255
107.925 106.236 113.547 255 150 48
22.4565 56.5435 109.889 187 208 255
100.935 103.322 106.354 255 233 216
107.431 121.455 108.167 223 231 255
72.4902 103.221 113.878 237 239 255
176.091 89.4885 114.119 191 211 255
113.564 161.676 107.504 212 224 255
60.8885 128.517 114.206 222 230 255
55.7641 108.25 109.796 204 219 255
222.516 96.0586 111.436 190 210 255
111.159 104.728 106.442 255 253 249
104.779 146.058 111.535 218 227 255
120.468 113.812 124.159 255 237 222
93.1464 173.825 110.587 188 209 255
100.124 117.319 109.231 214 225 255
99.3066 95.6398 118.848 255 247 238
152.491 86.7122 106.767 204 220 255
104.871 109.854 116.729 255 249 255
46.3166 135.906 113.432 185 207 255
19.8461 190.361 112.413 205 220 255
117.701 83.9112 111.834 195 214 255
106.94 103.345 108.785 216 226 255
114.457 27.3181 112.955 200 217 255
115.576 129.269 118.786 224 231 255
155.882 133.391 112.07 189 210 255
147.649 105.75 107.482 227 233 255
55.2845 211.857 108.874 194 213 255
53.2677 34.2694 124.618 201 217 255
158.036 101.909 115.928 241 241 255
104.61 112.823 115.121 255 254 251
112.005 116.141 115.523 194 213 255
42.5487 121.409 109.852 207 221 255
95.2377 174.715 116.16 255 237 221
93.3347 173.799 110.594 207 221 255
115.261 84.2735 105.812 234 237 255
93.0598 173.752 110.571 246 244 255
110.178 111.583 111.69 255 242 230
93.1007 173.789 110.57 230 235 255
134.331 83.9174 107.537 198 216 255
113.225 102.796 113.923 209 222 255
130.852 70.1221 113.12 255 222 195
113.839 104.676 105.876 255 238 224
161.697 102.981 103.552 220 229 255
71.5807 40.1672 106.995 183 206 255
127.167 74.7555 113.977 201 218 255
129.818 100.011 112.005 255 246 236
141.08 66.775 116.208 224 231 255
89.9254 133.523 109.355 209 222 255
138.383 79.8451 108.828 255 231 211
37.0333 71.2548 114.202 207 221 255
74.3782 142.049 103.472 239 240 255
74.6479 43.4882 108.08 190 211 255
100.148 153.235 112.753 212 224 255
107.146 92.6128 109.262 238 239 255
59.7822 190.4 112.431 194 213 255
124.893 80.9441 122.143 207 221 255
114.364 202.525 94.6443 181 205 255
93.2878 173.92 110.602 231 235 255
181.823 87.5374 114.953 183 206 255
104.025 9.62724 93.8194 192 212 255
116.75 77.1893 122.284 224 231 255
121.913 199.515 107.685 198 216 255
111.983 30.6217 112.831 187 209 255
9.91354 66.5233 112.37 195 213 255
93.0745 173.699 111.287 255 250 243
114.593 114.088 111.857 255 192 141
101.106 142.174 112.677 214 226 255
86.1395 124.704 112.115 197 215 255
63.9458 95.6793 112.242 255 245 235
222.488 111.703 112.784 187 209 255
93.1046 173.792 110.572 225 232 255
111.839 116.355 118.963 255 237 222
197.672 73.8077 115.084 204 219 255
113.673 158.04 111.391 196 215 255
80.2574 75.1996 113.097 191 211 255
52.3446 99.9319 134.726 194 213 255
93.0488 173.754 110.572 193 212 255
160.144 123.793 107.635 200 217 255
113.741 93.4596 120.005 206 221 255
41.3045 90.0309 125.079 207 221 255
64.0034 53.1933 108.997 227 233 255
47.337 205.161 109.677 187 209 255
93.8501 160.545 125.528 225 232 255
119.453 120.7 117.437 255 220 192
69.0701 80.0937 111.911 220 229 255
23.6879 149.816 108.105 197 215 255
93.9118 124.864 110.7 255 247 238
82.1325 56.3771 112.432 201 217 255
116.759 139.401 107.884 211 224 255
170.346 180.583 117.31 192 212 255
156.442 95.2047 122.252 208 222 255
93.108 173.831 110.563 249 245 255
149.781 76.8753 130.481 216 226 255
68.892 130.833 122.31 228 234 255
129.607 92.9428 113.56 211 223 255
108.666 39.6368 110.173 208 221 255
124.646 126.498 109.952 193 212 255
59.2746 121.919 90.7972 226 232 255
120.396 113.546 108.412 246 244 255
109.361 143.644 117.365 194 213 255
144.67 83.2279 112.05 228 234 255
143.777 173.238 111.715 204 219 255
101.525 65.8155 114.337 207 221 255
108.943 110.71 117.926 207 221 255
48.1055 29.0414 108.731 185 208 255
171.544 154.518 128.972 222 230 255
43.9867 100.433 132.134 189 210 255
192.744 105.523 112.307 200 217 255
93.5446 152.247 111.146 199 216 255
196.281 159.177 108.905 194 213 255
59.3022 110.464 108.165 193 213 255
83.1186 16.9797 100.669 200 217 255
57.9862 175.843 109.208 206 220 255
151.937 83.0493 114.022 192 212 255
71.3244 100.289 113.117 246 244 255
149.165 5.58962 112.45 197 215 255
20.0341 102.152 111.814 225 232 255
116.816 121.764 110.448 246 244 255
153.314 122.912 112.754 193 212 255
61.8325 38.9651 122.398 207 221 255
132.493 72.824 113.077 211 224 255
60.2593 123.145 109.196 250 246 255
65.6006 53.8136 111.548 217 227 255
100.434 108.941 111.704 255 209 173
114.517 144.183 110.974 239 240 255
124.338 86.9622 124.617 253 248 255
119.009 135.851 115.573 219 228 255
93.1659 173.838 110.594 188 210 255
123.776 78.7111 112.261 255 212 178
105.199 119.345 112.861 248 245 255
72.1139 58.4487 111.622 185 208 255
137.876 147.616 112.966 192 212 255
129.177 66.8164 119.409 244 243 255
102.995 86.5702 111.749 255 211 175
140.247 84.9439 115.434 240 240 255
175.296 116.528 112.209 215 226 255
69.9399 104.251 109.195 219 228 255
50.1834 104.241 117.98 189 210 255
205.045 138.158 114.487 189 210 255
93.0885 173.784 110.564 191 211 255
202.152 129.404 113.676 191 211 255
116.624 143.603 115.923 213 225 255
130.492 53.5697 115.379 207 221 255
130.707 82.1951 114.949 255 221 195
68.5416 83.5472 113.727 205 220 255
93.122 173.806 110.578 187 209 255
137.486 210.795 128.63 196 214 255
204.856 164.54 107.758 194 213 255
167.742 69.9255 110.296 196 214 255
135.117 158.279 112.06 188 210 255
135.123 67.4635 118.563 194 213 255
117.074 107.362 113.596 255 230 211
93.1479 173.826 110.587 227 233 255
208.783 81.8346 108.399 182 206 255
155.185 72.6017 113.245 198 215 255
93.1424 173.823 110.585 197 215 255
106.809 105.286 112.009 214 226 255
84.2018 190.107 113.128 215 226 255
120.996 115.926 115.416 210 223 255
93.1459 173.825 110.586 211 223 255
79.347 168.94 116.222 199 216 255
180.016 106.363 104.353 191 211 255
159.522 105.443 112.712 217 227 255
109.607 131.104 118.817 201 217 255
97.4755 122.714 116.916 255 206 168
90.6011 57.0513 115.067 242 242 255
147.576 99.7452 109.567 195 213 255
92.5043 173.392 110.395 223 231 255
93.1651 173.838 110.594 199 216 255
58.5631 64.3438 109.363 255 224 199
93.2429 173.875 110.58 219 228 255
192.746 51.669 113.813 185 207 255
103.725 202.644 101.274 180 204 255
116.234 80.9067 119.993 244 243 255
107.082 92.389 94.5718 230 235 255
109.54 106.018 114.375 255 233 215
105.958 123.7 111.285 230 235 255
107.661 95.4184 113.697 255 217 186
123.618 78.0946 123.949 255 220 193
115.796 136.654 119.882 240 240 255
105.146 161.716 112.659 189 210 255
196.069 48.4287 114.345 186 208 255
101.222 215.071 90.3756 192 212 255
86.001 129.504 123.478 187 209 255
109.394 112.312 113.633 255 210 174
116.428 81.6589 115.895 255 251 245
125.901 78.8897 105.145 255 247 238
160.366 156.324 112.898 200 217 255
142.687 75.1597 90.8687 206 220 255
109.978 115.722 110.96 235 237 255
95.4817 29.1365 95.7666 190 211 255
152.137 9.9735 117.733 205 220 255
93.1102 173.586 110.314 255 148 44
142.922 171.91 107.35 194 213 255
102.026 91.371 117.111 215 226 255
187.046 26.315 119.891 198 216 255
44.7991 208.53 113.855 188 210 255
11.4692 94.2531 109.727 188 209 255
135.843 78.0848 120.825 202 218 255
107.102 121.54 113.048 255 255 251
116.957 117.723 121.068 255 246 238
108.74 47.278 97.089 209 222 255
156.875 107.698 140.139 205 220 255
54.5287 169.069 116.712 205 220 255
131.29 122.528 113.209 197 215 255
113.723 96.0122 112.458 231 235 255
64.0731 132.931 104.846 206 221 255
114.859 144.97 113.437 204 219 255
114.435 125.535 99.5581 240 240 255
132.157 78.2464 111.993 202 218 255
120.892 76.235 118.636 205 220 255
102.679 151.212 123.249 233 236 255
101.445 165.623 105.028 195 214 255
108.298 6.27164 99.9706 178 203 255
87.1113 104.83 110.096 255 233 215
93.1097 115.874 110.659 217 227 255
108.981 166.14 110.327 225 232 255
137.732 137.176 112.432 210 223 255
165.71 108.561 107.141 228 233 255
119.159 108.819 121.806 255 211 176
93.1451 173.824 110.586 213 225 255
135.694 58.3706 112.536 194 213 255
214.892 28.0078 106.867 179 204 255
117.907 59.0928 113.753 198 215 255
103.568 94.3319 112.782 203 219 255
61.2678 130.2 116.644 195 214 255
99.4164 94.1735 112.252 255 226 203
92.7172 175.099 110.64 183 206 255
77.6636 166.855 112.288 201 218 255
94.5128 175.117 111.844 255 247 239
115.495 122.556 107.936 220 229 255
174.521 82.8522 112.787 231 235 255
106.944 144.184 118.598 255 251 246
118.054 132.351 110.113 202 218 255
111.054 101.518 114.524 229 234 255
188.84 7.58188 117.66 179 204 255
121.585 93.1187 114.126 255 249 255
114.528 121.279 109.33 242 242 255
77.492 141.112 120.177 207 221 255
143.025 30.8932 114.918 207 221 255
19.8536 65.5818 114.746 240 240 255
42.2123 89.9156 107.445 222 230 255
71.077 196.965 109.95 210 223 255
118.422 118.788 109.232 213 225 255
160.14 111.272 118.702 197 215 255
115.873 111.078 103.858 239 240 255
69.4125 178.186 109.372 215 226 255
103.888 121.797 110.629 216 226 255
58.4871 132.907 124.74 203 219 255
77.9267 144.753 104.195 216 227 255
115.02 82.9901 108.023 226 232 255
94.4233 127.752 111.729 219 228 255
158.094 157.839 111.97 209 222 255
133.899 9.69498 118.065 189 210 255
115.317 113.604 110.769 211 223 255
68.8762 115.268 115.962 202 218 255
148.384 181.854 114.189 186 208 255
61.2293 115.488 124.198 204 219 255
91.6441 134.95 104.945 200 217 255
127.996 186.739 112.321 195 214 255
119.601 117.394 126.439 255 243 232
160.22 87.3898 108.543 192 212 255
97.6355 92.7198 101.182 255 237 222
93.2344 177.147 109.201 255 227 205
132.136 74.0849 113.297 255 252 246
111.404 103.335 102.841 255 234 216
121.008 116.865 116.069 213 225 255
105.697 110.932 109.089 255 249 241
117.039 114.604 104.808 220 229 255
103.414 104.091 117.297 232 236 255
82.714 62.7635 112.975 255 248 240
100.469 106.052 108.387 255 152 54
62.3798 78.6313 105.201 209 222 255
93.1391 173.82 110.584 255 244 234
72.9846 64.6632 110.434 202 218 255
99.2201 93.5093 115.617 255 248 240
83.2338 62.1132 109.113 203 219 255
106.934 203.583 85.8978 202 218 255
99.6765 126.962 111.46 255 217 188
70.2832 49.1454 113.339 208 222 255
104.078 164.575 110.311 233 236 255
142.761 170.918 127.213 196 215 255
85.0374 161.518 119.989 211 224 255
108.943 103.145 103.121 255 192 140
135.511 38.3068 115.742 191 211 255
93.1593 173.835 110.591 199 216 255
121.451 113.803 102.315 255 240 228
125.557 73.9822 115.879 216 226 255
122.188 107.632 114.088 204 219 255
110.668 115.363 109.903 193 213 255
93.5826 174.391 110.682 255 251 255
30.7095 142.024 111.769 218 228 255
70.7298 70.7415 114.357 213 225 255
93.2004 173.857 110.608 203 219 255
93.1513 173.829 110.588 223 231 255
97.7315 120.734 111.53 255 213 179
83.9329 148.705 124.286 221 229 255
118.245 122.673 106.269 226 233 255
106.853 117.417 110.65 222 230 255
129.41 140.262 112.245 227 233 255
169.554 30.9212 108.481 187 209 255
46.0614 48.8021 99.7728 195 214 255
100.983 119.957 111.438 255 171 97
109.904 75.7349 119.573 255 252 247
186.379 39.1197 108.923 188 210 255
130.372 99.5591 111.402 215 226 255
100.578 164.879 116.016 234 237 255
109.143 107.063 109.871 225 232 255
101.604 100.29 96.5588 213 225 255
93.1661 173.839 110.594 188 209 255
109.323 103.822 104.425 255 194 145
84.8968 183.494 111.234 212 224 255
158.307 119.658 107.008 207 221 255
106.667 104.646 109.648 255 225 200
110.651 110.467 118.413 231 235 255
10.6879 155.201 107.947 194 213 255
93.1421 173.822 110.585 255 228 206
130.804 78.7159 126.039 210 223 255
95.3616 174.92 112.789 255 232 213
88.4582 140.614 113.992 255 227 204
49.202 94.587 120.73 210 223 255
127.678 79.2679 112.277 208 222 255
106.488 109.469 110.534 236 238 255
97.1455 180.722 107.505 217 227 255
193.236 47.99 114.738 188 209 255
111.05 110.144 108.2 225 232 255
147.372 131.354 113.042 247 245 255
108.386 108.991 111.668 247 245 255
41.1195 102.662 104.181 202 218 255
102.234 121.3 110.283 228 234 255
23.5794 156.2 111.708 207 221 255
74.3549 138.854 121.956 192 212 255
152.275 23.1729 111.611 189 210 255
153.419 84.0929 109.843 188 210 255
156.938 113.739 113.672 255 238 224
93.1377 173.819 110.583 255 241 228
90.638 32.1706 107.012 211 224 255
144.102 93.1264 112.379 192 212 255
93.1054 173.792 110.551 213 225 255
92.3276 173.24 110.388 244 242 255
123.229 126.529 108.54 255 127 0
165.663 68.3751 115.97 202 218 255
122.844 58.7604 116.596 200 217 255
116.332 82.6559 111.126 191 211 255
45.8059 91.227 128.682 191 211 255
92.916 173.599 111.637 199 216 255
13.1938 147.127 108.049 193 212 255
16.7317 85.4031 111.259 192 212 255
92.8399 173.908 110.667 255 246 236
77.3795 141.443 120.361 209 222 255
93.1494 173.828 110.588 202 218 255
185.726 57.2017 112.17 218 227 255
