ply
format ascii 1.0
element vertex 1342
property float x
property float y
property float z
property uchar red
property uchar green
property uchar blue
end_header
90.4065 51.8712 110.414 192 212 255
71.1709 61.5605 110.624 183 206 255
120.463 105.266 129.571 230 235 255
81.9224 128.447 118.457 200 217 255
41.192 172.573 111.564 183 206 255
60.7604 124.622 112.237 206 220 255
137.575 198.684 112.153 196 214 255
163.517 48.2006 109.109 209 222 255
102.003 159.264 114.925 255 163 80
119.806 142.05 104.623 255 196 149
111.812 158.206 112.78 219 228 255
93.6839 174.442 111.228 191 211 255
89.8274 150.155 113.352 254 248 255
25.7273 112.502 113.511 181 205 255
120.445 149.911 113.716 240 240 255
60.0559 118.48 106.804 197 215 255
112.863 120.696 106.044 255 197 149
94.2971 91.6322 112.162 255 251 255
17.7348 119.6 113.977 184 207 255
130.253 61.7246 105.72 222 230 255
165.414 113.428 118.694 249 246 255
43.4971 136.186 113.364 203 219 255
82.8693 64.376 114.024 205 220 255
107.401 174.875 109.946 214 225 255
115.266 102.453 124.223 255 207 169
148.138 46.336 114.665 202 218 255
110.236 88.3097 121.592 255 221 193
130.212 126.042 118.242 216 227 255
67.4397 22.7273 112.719 210 223 255
166.5 15.1812 112.376 189 210 255
93.9119 173.542 111.209 198 216 255
58.2264 123.3 112.633 240 240 255
181.945 94.5884 113.825 200 217 255
51.9825 112.979 112.193 201 217 255
150.399 164.133 117.792 224 231 255
92.5395 127.19 118.091 255 253 248
143.395 156.278 108.818 209 222 255
28.8765 97.0456 116.235 193 212 255
91.0261 35.7411 115.213 205 220 255
206.224 113.821 112.393 197 215 255
134.384 186.948 115.428 192 212 255
142.126 159.525 117.38 213 225 255
93.0979 113.894 124.461 239 240 255
77.6215 102.781 119.947 255 232 214
146.178 60.3327 111.882 240 241 255
86.4866 108.228 114.896 255 241 228
20.312 52.3503 112.627 203 219 255
175.337 19.1776 111.927 192 212 255
30.3965 123.815 111.057 201 217 255
93.6887 54.1764 113.516 194 213 255
176.564 115.033 108.903 242 242 255
93.4688 174.432 111.408 200 217 255
131.741 146.275 109.972 234 237 255
77.7439 110.628 105.105 255 244 233
134.456 157.143 114.217 198 215 255
111.671 134.268 106.007 216 226 255
101.314 75.6401 113.676 219 228 255
105.603 119.278 96.9658 255 230 210
132.924 162.08 111.565 242 241 255
151.283 140.7 112.613 217 227 255
114.177 74.4058 103.826 228 233 255
42.4083 170.973 113.891 177 202 255
155.894 79.5858 111.732 255 237 222
173.591 96.5782 112.834 219 228 255
189.518 88.6217 113.908 188 209 255
154.208 120.659 117.727 213 225 255
139.756 139.041 111.972 214 225 255
185.313 145.915 115.032 202 218 255
165.521 94.1391 117.399 206 221 255
80.1796 82.7486 121.473 204 220 255
65.9293 99.3854 119.19 200 217 255
133.934 134.913 114.668 221 229 255
79.4479 176.46 109.358 185 208 255
147.881 122.903 124.088 196 214 255
161.258 44.8646 112.785 182 206 255
22.7111 103.301 110.284 194 213 255
166.85 89.993 108.8 219 228 255
113.145 70.316 103.114 255 253 249
127.626 50.033 114.212 206 220 255
135.832 213.642 114.203 200 217 255
99.851 124.713 98.5573 255 217 186
113.285 156.365 109.928 255 252 247
163.139 39.8547 111.097 205 220 255
134.622 127.227 111.19 210 223 255
55.6131 92.7206 109.982 200 217 255
118.021 180.925 108.55 248 245 255
112.076 21.0268 111.273 199 216 255
97.8045 42.3814 108.166 221 230 255
151.348 25.0921 110.488 196 215 255
41.3656 142.073 109.285 195 214 255
145.234 83.114 117.474 203 218 255
92.9867 91.4603 120.274 242 242 255
140.592 77.1406 112.938 231 236 255
133.852 105.749 107.155 205 220 255
51.6772 148.078 113.259 196 214 255
179.904 139.464 110.08 190 211 255
153.727 66.8637 108.164 208 222 255
137.839 11.4636 111.104 192 212 255
128.834 89.5044 124.169 215 226 255
141.16 75.2561 119.103 195 214 255
127.795 116.735 124.642 226 233 255
168.204 59.5371 115.794 203 219 255
138.808 144.258 118.339 214 226 255
116.686 126.881 120.421 255 210 175
98.4106 80.3819 115.828 212 224 255
156.068 183.264 109.135 199 216 255
119.484 73.8239 107.115 255 248 240
162.729 107.437 115.088 192 212 255
50.8842 77.0191 112.529 208 221 255
118.694 79.274 121.729 212 224 255
45.016 158.99 114.057 200 217 255
126.516 117.779 99.483 205 220 255
143.12 191.379 112.771 195 214 255
142.193 85.8168 112.762 233 237 255
123.318 45.4106 116.732 245 243 255
45.3903 123.432 113.982 186 208 255
54.9163 155.988 116.512 191 211 255
147.863 10.3108 113.076 177 202 255
109.133 182.677 112.798 201 218 255
29.5601 57.9069 109.768 184 207 255
217.329 141.477 113.999 199 216 255
95.9832 78.2166 103.18 213 225 255
86.0784 187.477 112.925 202 218 255
107.619 126.094 128.344 212 224 255
156.512 35.1841 112.329 215 226 255
103.105 56.0328 110.797 255 165 84
97.0448 149.573 117.192 229 234 255
122.463 154.853 104.857 255 250 243
72.2475 65.0539 106.312 199 216 255
132.395 73.4294 112.242 218 228 255
124.063 119.32 113.857 224 231 255
183.049 173.002 112.934 199 216 255
162.974 86.3316 107.376 255 251 255
157.988 144.829 112.492 255 170 95
67.9595 135.07 109.092 238 240 255
135.181 82.6656 110.232 255 228 207
70.6428 114.724 117.365 210 223 255
164.609 81.8666 115.565 231 235 255
172.5 91.6109 110.416 211 224 255
129.793 144.424 117.767 255 205 165
64.2149 159.698 110.747 201 218 255
98.8852 193.439 111.297 224 231 255
92.7404 174.117 110.965 213 225 255
53.4484 101.281 110.983 230 235 255
55.429 148.474 110.139 201 217 255
126.262 64.8704 116.636 195 214 255
154.184 105.559 103.531 255 228 206
112.504 35.9996 114.422 190 211 255
160.021 52.7025 108.556 204 219 255
87.875 91.0477 105.891 200 217 255
214.91 137.09 111.772 187 209 255
103.872 109.358 124.393 255 252 247
84.0312 200.081 111.38 186 208 255
104.373 139.229 101.196 195 214 255
160.739 109.347 105.663 203 219 255
75.4107 177.345 111.967 189 210 255
100.458 44.3257 106.969 210 223 255
190.68 139.889 111.216 204 219 255
128.912 190.542 114.476 184 207 255
72.2554 130.904 120.061 255 221 193
109.853 79.0901 124.235 255 243 232
66.2597 67.4546 115.435 192 212 255
12.6433 111.136 111.199 189 210 255
150.48 143.231 114.124 240 240 255
128.572 80.607 103.37 226 232 255
137.379 133.535 120.891 212 224 255
6.35071 105.549 113.862 192 212 255
90.7521 103.555 112.224 184 207 255
86.7844 161.706 109.05 212 224 255
118.219 110.136 129.387 201 218 255
122.719 122.425 124.479 255 237 222
138.596 46.1367 115.075 194 213 255
208.873 160.949 112.233 190 211 255
101.735 51.5247 111.961 194 213 255
86.986 89.8673 121.242 255 230 210
141.395 88.4338 112.231 217 227 255
109.257 168.214 117.035 255 242 231
80.0834 198.574 114.687 196 215 255
168.025 110.548 106.282 218 227 255
80.3904 116.877 115.114 255 247 238
78.9102 168.68 115.304 229 234 255
118.547 111.829 133.104 255 255 251
50.7045 134.338 109.344 219 228 255
107.538 104.992 105.526 255 250 244
177.586 110.383 108.428 202 218 255
130.007 136.727 112.625 210 223 255
103.33 119.827 109.3 232 236 255
103.739 45.8178 114.665 198 215 255
120.715 125.94 128.674 255 251 255
110.806 101.299 130.493 255 233 215
139.747 77.5502 120.793 255 239 226
135.009 150.743 115.169 206 220 255
179.446 127.128 116.507 252 247 255
106.777 100.749 118.31 255 187 130
126.788 107.848 111.469 209 222 255
148.87 165.848 116.532 198 215 255
60.8828 142.284 110.713 194 213 255
76.1343 97.5237 101.394 204 219 255
178.844 88.339 113.474 190 211 255
97.5348 60.318 119.771 207 221 255
106.503 77.7623 93.2606 247 244 255
84.5856 63.0018 117.512 212 224 255
97.6738 96.4205 110.752 203 219 255
146.641 160.465 116.982 213 225 255
114.042 74.2352 104.384 255 242 230
185.17 103.059 110.756 192 212 255
125.577 116.323 97.4148 208 222 255
18.0037 86.8059 112.344 186 208 255
105.031 94.9713 114.141 255 233 215
110.383 52.2197 106.582 242 242 255
108.797 154.868 96.6125 194 213 255
114.374 178.433 110.855 193 212 255
92.4933 71.1137 114.731 219 228 255
29.6496 145.158 112.835 184 207 255
105.068 149.939 114.212 218 228 255
114.286 177.565 114.687 210 223 255
105.032 137.68 112.968 255 246 236
175.792 52.8192 114.923 190 211 255
121.721 147.855 107.007 215 226 255
175.751 134.598 111.231 247 244 255
84.1016 109.332 101.733 217 227 255
89.7292 110.994 100.339 204 219 255
129.121 169.127 108.038 184 207 255
120.346 193.296 110.335 184 207 255
63.055 124.891 110.604 232 236 255
173.145 145.011 110.816 240 241 255
90.3344 116.285 122.239 245 243 255
54.7132 78.7471 113.922 186 208 255
112.549 121.555 117.005 255 197 150
113.325 26.8306 108.894 199 216 255
118.687 179.376 113.357 210 223 255
65.042 57.3922 115.3 203 218 255
43.1502 107.137 110.491 210 223 255
142.607 81.6023 113.299 255 242 230
151.317 114.36 121.202 214 226 255
116.746 105.486 128.425 218 228 255
62.2161 15.3196 112.277 190 211 255
125.756 75.4754 104.194 206 220 255
134.81 183.676 110.05 208 222 255
154.756 127.823 107.548 209 222 255
85.7223 124.699 111.835 255 240 227
104.863 128.568 100.227 255 220 192
118.076 104.896 105.092 255 218 189
95.751 68.741 105.353 225 232 255
73.4486 189.955 111.278 190 211 255
115.032 162.357 107.528 195 214 255
84.2159 179.677 113.07 187 209 255
157.541 52.8122 113.153 192 212 255
115.697 164.685 107.457 201 217 255
152.412 39.5274 114.989 181 205 255
35.737 102.942 113.069 203 219 255
168.324 164.559 111.714 202 218 255
95.9839 102.771 127.35 237 239 255
78.2512 32.9887 113.764 189 210 255
93.1616 102.071 108.883 255 235 219
155.759 106.566 105.659 199 216 255
18.6843 159.955 113.856 200 217 255
75.9902 101.591 103.09 227 233 255
117.035 154.265 107.498 211 223 255
54.0698 121.276 115.082 207 221 255
132.475 81.1339 118.755 224 231 255
137.784 194.715 113.19 191 211 255
179.105 128.576 116.064 211 223 255
150.287 134.944 117.206 234 237 255
12.2003 139.592 111.801 212 224 255
68.4631 92.5413 104.74 255 247 239
103.851 81.5203 118.749 230 235 255
27.4769 92.5083 113.968 190 211 255
199.398 160.748 111.34 205 220 255
126.434 98.8952 117.775 215 226 255
127.342 135.882 111.154 255 205 164
193.906 184.095 112.497 195 214 255
16.1887 113.479 111.223 191 211 255
55.0733 116.016 109.004 188 210 255
127.261 202.062 111.436 197 215 255
73.1981 60.523 109.789 198 216 255
93.497 130.058 122.319 255 229 207
111.973 52.5024 115.585 201 218 255
117.228 151.921 115.449 211 223 255
81.3461 89.3173 105.217 255 238 223
123.19 167.988 113.37 221 229 255
55.8465 62.3366 111.226 194 213 255
88.6517 197.583 111.456 223 230 255
53.986 24.3854 113.257 192 212 255
121.627 32.9601 111.128 199 216 255
90.4702 23.4219 112.896 189 210 255
128.098 145.505 119.459 217 227 255
42.2956 99.9348 113.45 220 229 255
93.7663 174.278 111.209 189 210 255
135.523 136.984 101.385 246 244 255
149.907 10.0877 110.914 191 211 255
160.557 124.274 113.605 198 216 255
64.8482 185.581 116.3 189 210 255
33.1303 108.355 109.957 186 208 255
151.352 111.403 122.504 202 218 255
167.779 162.249 112.675 188 209 255
150.361 138.419 111.156 203 219 255
36.6437 113.264 115.835 198 216 255
106.865 124.879 118.07 199 217 255
139.436 45.5274 118.006 245 243 255
109.671 82.8877 111.286 222 230 255
117.115 41.2683 110.321 233 236 255
19.7048 153.453 111.992 186 208 255
114.955 75.4214 108.785 210 223 255
83.7715 132.087 117.997 230 235 255
76.7131 93.0576 114.977 204 219 255
127.225 63.7235 112.329 223 231 255
100.26 57.0285 113.572 191 211 255
42.1023 37.6025 115.486 185 208 255
121.82 113.781 95.7962 202 218 255
123.319 201.325 112.176 218 228 255
94.0152 174.602 108.1 210 223 255
114.867 18.9191 112.74 186 208 255
43.8533 164.054 113.624 199 216 255
92.6703 105.331 115.45 255 250 255
130.112 33.9512 111.783 198 215 255
40.4679 133.457 112.508 228 234 255
118.025 111.49 123.966 255 157 65
90.2029 81.461 116.776 232 236 255
65.7383 163.503 117.053 194 213 255
109.446 119.592 122.531 226 233 255
106.03 62.006 118.562 225 232 255
172.961 117.17 115.581 240 241 255
99.4472 76.8913 104.097 218 228 255
125.074 102.807 124.479 255 237 222
161.535 111.796 116.201 191 211 255
111.778 141.281 111.296 197 215 255
145.286 32.649 113.934 196 215 255
92.4879 117.814 100.294 255 228 206
99.8579 134.646 105.56 248 245 255
83.26 9.53234 111.272 197 215 255
198.103 81.7623 110.992 187 209 255
146.217 186.266 110.947 185 208 255
137.54 106.443 124.974 226 233 255
102.772 156.616 117.566 232 236 255
119.454 59.2765 110.887 192 212 255
84.1252 124.396 100.558 229 234 255
154.2 108.76 112.435 208 221 255
172.247 112.66 114.499 255 253 248
101.763 138.166 116.254 253 248 255
147.157 92.6353 107.635 217 227 255
183.453 148.782 114.177 198 216 255
98.699 105.311 126.84 255 249 255
174.549 159.822 111.421 197 215 255
31.3558 85.1366 114.388 205 220 255
180.409 52.2558 111.657 202 218 255
38.7054 62.1479 110.72 190 211 255
128.111 86.1712 109.092 255 207 169
97.0562 174.003 110.216 208 222 255
47.3691 116.124 111.244 191 211 255
9.37326 97.8916 110.33 180 204 255
145.138 102.353 120.259 205 220 255
144.847 37.6396 111.509 207 221 255
16.6179 160.412 111.558 194 213 255
131.257 46.3441 113.211 233 237 255
27.1112 108.134 113.776 188 210 255
50.2147 63.5381 113.377 197 215 255
30.6886 123.861 113.95 202 218 255
213.725 116.149 113.93 199 216 255
146.48 128.448 104.543 255 221 194
91.0985 147.388 120.034 225 232 255
63.2956 46.4679 112.568 208 222 255
13.1814 64.7792 113.502 193 212 255
138.994 17.6727 112.642 187 209 255
120.566 97.5819 120.705 255 210 174
61.9386 193.821 113.431 195 214 255
132.624 133.666 117.126 248 245 255
66.079 131.89 110.425 203 219 255
120.281 78.1219 110.087 205 220 255
93.4827 174.583 110.488 255 247 239
120.25 163.068 120.668 255 221 195
120.647 74.3715 105.488 255 252 247
85.1548 113.143 103.42 251 247 255
194.198 97.2465 111.082 255 250 243
74.5886 177.529 115.651 204 219 255
147.486 108.003 107.262 220 229 255
144.411 108.949 106.07 255 254 251
132.159 128.606 111.113 255 208 170
122.941 46.1516 108.884 200 217 255
90.0849 155.425 110.666 255 240 226
55.7772 115.859 109.575 225 232 255
161.48 140.318 109.285 200 217 255
19.1187 146.707 113.073 196 214 255
103.101 109.117 116.804 231 235 255
91.822 113.888 119.091 202 218 255
149.287 132.779 105.95 255 236 220
113.14 128.264 95.6637 255 158 68
94.3222 163.88 110.01 255 238 223
171.92 188.057 111.519 181 205 255
134.433 108.315 120.891 255 241 228
62.6751 108.503 109.177 194 213 255
158.151 199.045 112.079 181 205 255
94.3876 115.697 112.086 255 185 126
96.6441 92.1257 122.611 224 231 255
150.525 126.254 105.412 198 215 255
160.008 102.341 112.591 255 248 240
148.413 136.882 106.36 204 220 255
49.8012 119.002 116.427 213 225 255
102.09 186.215 110.636 209 222 255
89.1814 74.7124 119.001 212 224 255
88.0548 25.9645 109.687 196 214 255
103.258 99.6425 123.273 255 255 251
192.938 124.4 113.533 187 209 255
176.614 70.7656 114.918 197 215 255
173.949 153.619 111.643 202 218 255
159.633 144.986 112.675 201 217 255
46.7968 129.262 109.869 188 210 255
48.7729 124.926 111.694 204 219 255
103.849 126.326 102.353 255 251 255
63.0437 156.534 108.725 203 219 255
171.426 142.286 108.417 192 212 255
85.091 87.5546 118.367 198 216 255
132.388 175.315 108.15 255 252 246
100.999 81.4834 103.02 196 214 255
65.0037 42.0834 112.232 226 233 255
163.288 103.775 112.809 213 224 255
94.6145 67.2722 112.758 252 247 255
130.741 9.40706 112.559 204 219 255
87.9629 115.485 101.67 237 239 255
128.279 142.428 103.348 220 229 255
56.6281 118.756 108.992 219 228 255
118.058 122.311 126.58 255 244 233
81.9826 131.108 120.875 228 234 255
97.7465 166.853 110.774 215 226 255
147.857 37.3363 111.524 191 211 255
118.717 199.233 113.001 194 213 255
82.9878 46.39 113.021 203 218 255
125.307 173.443 117.391 193 213 255
57.9955 53.8851 112.387 206 220 255
48.2805 107.989 108.145 219 228 255
17.0326 114.539 110.116 189 210 255
129.07 113.225 103.998 215 226 255
79.7315 144.748 109.303 255 242 230
173.652 196.852 112.381 189 210 255
82.5776 115.305 121.273 212 224 255
63.8637 137.162 112.331 223 230 255
101.39 112.206 106.295 255 206 167
98.3318 179.694 110.361 187 209 255
163.45 131.751 120.513 213 225 255
118.425 120.665 120.805 255 234 216
129.017 141.146 106.088 250 246 255
118.158 85.0271 103.4 226 233 255
62.0773 19.0837 112.744 181 205 255
81.3341 152.083 119.041 255 250 255
112.518 213.088 112.507 186 208 255
129.315 122.322 114.631 210 223 255
90.8951 28.4706 113.999 209 222 255
94.1901 43.2873 107.498 198 215 255
111.897 112.829 100.362 255 237 221
79.2067 9.23129 113.874 186 208 255
29.6676 150.345 109.662 189 210 255
123.747 112.86 116.973 255 242 230
86.897 86.5823 115.923 209 222 255
31.6016 52.516 110.984 189 210 255
133.777 57.7987 107.872 211 223 255
87.6166 134.543 112.003 215 226 255
131.503 205.039 113.516 192 212 255
112.759 76.6752 109.499 255 177 110
195.389 181.108 113.383 197 215 255
93.8027 174.317 111.064 197 215 255
83.4187 24.4461 104.273 194 213 255
93.8658 125.947 109.618 255 241 228
107.421 96.5718 117.54 255 210 174
32.9173 58.4893 113.64 182 205 255
176.647 143.653 113.081 225 232 255
166.042 146.755 114.664 224 231 255
118.533 119.259 108.235 247 244 255
76.8596 61.1962 116.99 200 217 255
123.811 81.6828 117.548 255 251 245
101.429 104.994 118.957 255 234 217
148.519 66.5972 112.063 206 220 255
144.449 97.4521 106.462 226 233 255
90.3453 77.797 102.639 226 233 255
103.545 38.8921 113.736 255 244 233
79.183 146.538 112.771 253 248 255
150.02 147.272 117.301 206 220 255
153.021 144.095 118.644 245 243 255
172.75 169.541 115.615 184 207 255
68.5104 118.404 116.59 202 218 255
154.255 113.829 114.509 255 243 232
45.0506 139.511 116.687 198 216 255
122.09 168.632 117.642 255 247 239
150.128 93.0184 112.839 255 218 188
94.5452 39.4404 112.475 188 209 255
111.51 170.373 112.465 234 237 255
178.844 132.831 111.371 201 217 255
84.0539 111.098 108.753 255 245 235
160.988 89.222 112.266 237 239 255
92.9707 157.704 112.256 212 224 255
101.468 110.678 126.845 240 241 255
95.8055 117.053 109.883 255 224 199
91.8766 156.344 112.966 205 220 255
119.193 64.8436 108.638 205 220 255
31.9986 96.582 109.987 194 213 255
45.847 155.318 113.71 192 212 255
76.0301 130.773 107.234 227 233 255
132.891 83.4443 120.225 255 226 203
111.685 31.5405 114.881 188 210 255
16.3118 140.055 111.105 185 208 255
220.338 117.991 114.902 201 217 255
85.4844 192.734 110.464 207 221 255
106.873 138.952 99.69 242 242 255
108.798 129.678 98.9466 255 212 178
153.553 123.367 111.634 227 233 255
122.916 100.595 115.817 255 246 236
92.8625 95.976 100.956 255 230 210
59.7775 86.8844 106.519 255 230 209
132.186 110.941 109.021 196 214 255
209.51 77.2976 115.849 192 212 255
124.121 45.1895 115.168 247 244 255
108.889 164.493 108.191 198 216 255
130.644 129.861 102.495 255 228 207
115.592 181.127 110.48 246 244 255
144.728 124.732 107.934 187 209 255
113.369 85.6156 116.593 207 221 255
16.9827 83.2111 113.145 184 207 255
61.3331 18.8664 116.442 183 206 255
71.2127 110.134 107.328 215 226 255
55.115 55.0439 107.697 200 217 255
104.335 84.7636 104.03 239 240 255
143.389 151.008 120.21 198 216 255
116.057 16.1103 112.008 188 209 255
124.717 37.9335 109.24 196 214 255
117.315 149.86 114.655 255 227 204
65.2465 18.0481 110.281 210 223 255
70.7689 93.1682 111.054 211 224 255
140.404 56.2705 107.253 208 222 255
151.461 67.8131 109.512 218 228 255
106.876 152.91 117.474 255 240 228
114.393 144.341 100.77 204 219 255
155.407 107.462 108.796 214 225 255
118.628 51.281 108.209 216 226 255
122.862 119.712 128.549 255 211 176
105 162.429 105.85 214 225 255
97.1989 124.957 99.6338 255 222 196
69.9301 202.948 114.084 196 215 255
205.983 69.0422 113.451 188 209 255
93.6479 174.417 111.153 197 215 255
116.9 113.85 102.536 225 232 255
143.603 146.481 111.807 202 218 255
58.4348 23.8936 110.494 231 236 255
182.72 97.1628 117.377 255 230 210
119.525 90.397 125.817 196 215 255
200.493 170.841 109.214 188 209 255
65.3801 196.998 110.325 193 212 255
73.2128 107.797 106.722 206 220 255
97.4221 142.903 109.245 248 245 255
164.264 169.448 113.414 184 207 255
168.54 17.4885 112.779 181 205 255
92.0063 151.348 113.649 210 223 255
161.082 124.891 112.347 243 242 255
56.6356 175.78 110.438 192 212 255
130.929 217.883 110.9 190 211 255
160.775 151.436 107.47 195 214 255
77.7693 211.452 112.377 187 209 255
55.2883 22.4857 109.876 195 214 255
98.8085 157 120.359 255 240 226
144.816 95.5906 111.597 255 232 213
131.588 45.9203 110.338 226 233 255
99.5271 59.0752 107.604 197 215 255
117.642 92.6874 112.108 255 250 244
142.407 111.041 104.864 214 225 255
132.132 215.867 112.215 179 204 255
190.117 58.4079 110.98 191 212 255
115.67 127.71 113.588 255 193 142
51.7296 66.0753 111.374 186 208 255
92.7235 128.892 106.779 218 228 255
208.271 138.143 110.907 202 218 255
71.2758 11.9517 109.493 186 208 255
49.1499 73.3988 112.407 211 224 255
159.089 98.3073 110.501 196 214 255
131.278 29.5088 115.632 192 212 255
78.7874 117.363 120.956 212 224 255
119.402 172.401 112.852 213 225 255
61.9176 138.397 114.485 226 232 255
133.051 88.9987 115.62 255 184 124
102.815 119.905 113.264 255 200 155
117.765 25.5562 110.738 191 211 255
130.096 131.258 121.413 231 235 255
59.8529 77.4152 116.636 255 240 227
156.277 31.1783 113.878 204 219 255
88.9265 91.5062 120.508 217 227 255
160.961 74.6303 109.134 255 252 246
138.807 51.2544 116.093 217 227 255
115.521 128.088 123.74 232 236 255
118.175 109.545 128.645 246 244 255
88.3325 169.421 113.242 226 232 255
101.405 157.307 117.274 211 223 255
116.387 7.67625 111.857 185 207 255
140.387 14.3092 111.154 183 206 255
162.877 183.98 110.423 201 217 255
103.261 122.598 100.402 211 224 255
38.2577 111.404 108.013 188 210 255
168.197 75.3825 117.581 212 224 255
114.309 205.854 112.811 209 222 255
94.7161 79.0529 104.885 255 250 243
150.987 122.253 104.366 223 231 255
172.745 136.436 110.538 202 218 255
122.059 84.5657 109.05 255 255 252
121.758 214.92 112.969 189 210 255
99.641 29.6037 115.977 214 225 255
27.4224 54.3054 114.639 191 212 255
46.1978 143.854 113.583 204 219 255
90.0189 178.659 111.311 220 229 255
84.6409 107.484 122.512 226 232 255
173.415 123.677 111.34 216 226 255
120.044 85.0379 102.353 203 219 255
146.416 26.9606 112.232 229 234 255
219.419 139.442 115.079 194 213 255
131.623 77.9535 117.109 210 223 255
143.599 69.566 122.517 200 217 255
126.701 187.342 114.697 194 213 255
76.7859 90.9932 112.568 255 220 193
30.5927 46.9155 113.79 182 205 255
124.793 125.153 121.096 204 219 255
130.036 104.19 122.679 236 238 255
74.4558 102.959 103.526 255 219 190
106.484 45.205 112.584 203 219 255
50.8969 24.8195 115.197 182 206 255
119.287 115.121 101.467 203 219 255
42.6946 103.391 108.658 198 215 255
105.893 135.98 121.322 255 242 230
84.4578 11.6762 112.365 190 211 255
217.158 119.262 111.624 197 215 255
30.808 65.3489 112.125 192 212 255
123.03 101.687 106.319 222 230 255
112.017 161.576 108.905 235 237 255
105.335 147.736 117.476 255 235 218
162.159 72.2217 111.717 211 223 255
129.797 7.94588 112.274 186 208 255
27.364 58.0733 115.037 187 209 255
94.4774 131.84 109.653 255 237 222
207.233 148.377 110.632 183 206 255
16.4284 98.6665 111.378 209 222 255
65.5348 128.617 104.564 209 222 255
93.5383 174.44 111.401 201 218 255
53.2146 102.33 118.248 216 226 255
154.531 126.221 102.573 255 233 215
112.331 108.061 121.623 255 223 197
156.499 99.8748 117.945 212 224 255
124.777 114.676 117.723 217 227 255
101.781 143.41 124.323 194 213 255
85.4355 106.814 121.539 192 212 255
127.332 77.7966 105.539 255 176 107
96.1665 66.5465 111.551 231 235 255
114.857 103.952 105.622 255 222 197
152.47 169.182 111.301 213 225 255
160.036 36.6892 111.824 181 205 255
44.4304 76.064 114.267 198 216 255
88.5541 31.5933 112.19 190 210 255
96.3901 93.9445 119.917 255 253 248
81.1421 152.376 112.276 241 241 255
150.462 118.944 115.682 225 232 255
138.358 105.165 112.052 224 231 255
133.185 16.8758 112.96 196 214 255
196.027 115.337 110.616 183 206 255
80.3942 90.06 103.097 255 225 201
122.822 133.214 114.862 255 185 126
52.1707 170.586 108.319 193 213 255
117.579 104.011 125.286 214 225 255
81.101 75.4308 118.915 217 227 255
58.9849 42.7776 113.33 199 216 255
31.4505 49.472 111.625 200 217 255
128.579 191.097 110.36 197 215 255
34.7944 41.9416 113.425 187 209 255
76.3745 118.806 101.192 255 237 222
171.544 37.3803 112.09 183 206 255
96.5234 127.999 121.349 255 179 114
128.572 89.9921 114.662 255 226 203
113.12 124.124 123.63 255 241 228
53.006 197.167 114.363 185 207 255
87.3769 156.444 112.15 214 225 255
123.674 162.148 117.582 213 225 255
74.2603 100.267 105.673 255 232 214
93.4656 174.408 111.461 207 221 255
127.993 125.647 117.209 249 246 255
127.161 35.2406 107.618 191 211 255
119.805 92.8777 113.131 226 233 255
31.0543 141.681 113.694 212 224 255
84.8351 197.846 110.324 182 205 255
207.03 160.85 111.256 188 209 255
62.7305 165.466 112.146 193 213 255
95.9444 175.152 110.45 204 219 255
146.446 128.908 110.216 201 218 255
117.755 72.4901 118.108 206 220 255
91.6931 120.874 102.043 255 238 223
83.1806 66.694 108.17 255 245 236
126.75 119.021 101.46 234 237 255
188.054 82.9812 110.567 211 224 255
101.747 180.145 111.617 190 210 255
61.2062 145.981 116.873 207 221 255
137.755 59.4602 112.227 255 222 196
49.2364 104.729 117.447 197 215 255
103.899 127.632 114.523 207 221 255
55.6384 156.026 113.167 210 223 255
43.6701 174.539 111.259 212 224 255
74.4222 72.3456 105.5 213 225 255
117.193 131.416 110.885 255 127 0
206.61 55.2793 111.822 182 206 255
113.514 33.2962 112.998 199 216 255
159.687 180.534 114.345 190 210 255
126.654 55.4324 108.96 211 224 255
101.39 88.9894 119.528 217 227 255
37.493 91.8709 114.651 197 215 255
26.1734 141.575 113.769 191 211 255
133.181 110.307 125.685 229 234 255
119.707 145.815 111.779 255 250 244
38.781 175.538 109.549 186 208 255
159.317 138.715 106.282 191 211 255
146.644 180.522 113.685 211 223 255
73.4526 101.175 112.09 255 249 255
108.335 115.646 120.967 255 250 255
130.352 75.6065 111.346 255 255 252
36.2942 148.086 111.073 200 217 255
171.744 94.3601 115.831 218 228 255
185.885 58.9379 111.026 186 208 255
134.513 109.403 107.495 218 227 255
183.026 122.233 112.495 197 215 255
117.329 92.1172 119.067 233 237 255
47.2129 72.9801 114.107 255 234 217
88.0158 97.1747 104.018 255 226 202
148.348 127.925 113.366 191 211 255
100.712 45.5895 108.214 188 209 255
124.904 49.0217 117.168 222 230 255
163.726 133.975 116.54 210 223 255
175.058 57.4702 112.37 216 226 255
116.365 146.466 111.027 217 227 255
148.716 33.7487 113.177 203 218 255
168.253 121.653 109.7 217 227 255
53.1723 117.22 116.068 211 223 255
155.986 171.863 108.718 196 214 255
62.825 21.8822 109.07 182 206 255
106.001 88.8761 124.077 255 204 163
149.722 62.5843 113.962 251 247 255
134.369 85.9747 124.573 187 209 255
65.7682 161.906 108.848 182 206 255
38.222 107.242 115.089 200 217 255
158.973 127.991 112.02 237 238 255
208.329 71.3675 113.085 195 213 255
51.9375 108.14 111.129 193 212 255
66.0156 72.5763 112.899 232 236 255
175.087 113.711 115.545 237 238 255
171.32 159.916 113.806 196 215 255
119.336 109.876 121.961 255 251 255
48.0162 105.23 112.209 193 213 255
130.421 100.923 102.886 237 239 255
58.1812 114.421 118.462 252 247 255
134.496 111.861 125.698 219 228 255
169.943 48.2695 110.488 185 207 255
84.0228 216.644 111.798 181 205 255
102.45 80.8257 110.66 218 227 255
106.718 119.165 94.3691 255 209 172
119.041 84.9306 103.952 255 103 0
127.724 58.3005 111.957 192 212 255
163.84 76.2224 113.056 214 226 255
128.324 139.323 123.204 194 213 255
113.725 121.202 107.653 215 226 255
61.9276 166.212 114.199 200 217 255
128.597 130.897 124.691 239 240 255
57.4349 101.091 115.718 193 212 255
102.146 70.1331 115.421 221 229 255
94.6831 95.3039 104.308 225 232 255
76.4468 140.719 120.132 204 219 255
167.939 96.2289 110.19 204 219 255
90.8939 139.532 104.761 192 212 255
49.9486 94.5939 111.431 201 218 255
126.524 147.947 120.399 223 231 255
118.384 122.136 105.352 255 231 212
146.749 88.4792 109.607 220 229 255
108.284 34.3382 117.271 204 219 255
60.519 97.0295 119.598 255 249 255
113.823 66.7329 112.014 203 219 255
71.6814 36.8342 111.377 192 212 255
114.215 98.9431 103.916 255 243 233
131.738 124.207 105.373 247 245 255
140.666 78.8351 104.233 255 245 235
91.6218 155.184 107.238 255 239 225
169.285 116.708 116.819 227 233 255
164.767 17.2037 112.923 177 202 255
93.6655 174.89 109.726 223 231 255
88.7188 69.3182 104.264 198 216 255
170.705 118.833 115.866 218 228 255
55.2688 98.2289 115.137 186 208 255
182.074 126.512 110.911 215 226 255
29.7634 112.742 114.485 188 209 255
145.308 181.295 109.726 207 221 255
79.7155 93.6527 123.232 209 223 255
100.911 149.793 103.121 203 219 255
130.458 96.1792 102.295 211 223 255
168.622 157.678 112.326 218 228 255
125.188 104.353 126.609 200 217 255
135.378 48.6214 108.465 201 217 255
71.7791 172.511 115.912 191 211 255
31.7302 155.556 110.46 193 212 255
109.902 142.205 118.173 255 244 233
74.3707 36.0194 112.746 192 212 255
68.9526 58.5518 116.34 200 217 255
170.614 176.004 117.45 190 210 255
123.097 141.241 122.94 236 238 255
144.029 113.087 111.746 218 228 255
105.09 177.895 110.461 255 218 189
128.408 69.0858 112.179 247 244 255
184.856 147.175 112.896 190 210 255
93.6566 83.842 103.704 226 233 255
208.943 79.5435 112.785 191 211 255
149.442 75.6716 109.998 216 227 255
90.9607 148.694 120 255 235 218
191.717 146.337 111.89 211 224 255
94.0767 174.677 110.924 193 213 255
23.3225 80.9544 113.59 193 212 255
67.0654 53.4632 115.042 255 249 255
76.6838 143.463 106.741 208 222 255
112.074 69.2031 119.364 255 245 235
199.959 135.417 110.84 187 209 255
99.3718 114.892 106.066 255 237 222
154.683 169.132 109.258 207 221 255
50.2871 69.8998 110.27 206 221 255
88.2949 113.38 102.945 255 221 193
134.559 72.8251 116.363 221 230 255
5.76954 105.111 110.773 210 223 255
58.6896 73.3503 113.588 205 220 255
88.1391 91.1533 100.737 209 222 255
86.0006 74.7336 113.745 236 238 255
104.945 142.44 117.75 255 254 251
97.0954 209.581 113.422 192 212 255
89.5419 85.4937 113.036 233 236 255
157.542 37.8058 114.197 189 210 255
142.959 141.665 113.392 210 223 255
102.967 75.4375 111.445 210 223 255
111.913 96.3347 104.966 212 224 255
132.987 106.28 108.012 229 234 255
165.425 141.878 108.657 199 216 255
52.3991 68.375 110.754 191 211 255
123.207 151.756 101.845 202 218 255
162.419 168.419 111.64 192 212 255
86.9095 169.911 116.014 219 228 255
105.571 124.74 118.112 226 232 255
193.884 169.215 113.822 198 216 255
80.6141 138.255 112.672 255 232 213
63.9803 143.097 111.933 255 247 238
157.567 182.091 110.77 197 215 255
82.5967 50.7496 112.066 191 211 255
115.469 126.298 105.256 255 233 215
56.882 40.9443 112.746 198 216 255
93.7439 174.59 111.114 204 219 255
143.254 68.1775 104.948 201 217 255
139.851 120.937 105.948 232 236 255
128.24 11.4955 112.66 212 224 255
55.1345 107.661 113.748 196 215 255
152.477 133.977 118.618 201 217 255
48.0046 166.961 112.465 209 222 255
122.028 47.1272 112.708 199 216 255
122.66 76.8868 116.604 197 215 255
177.571 65.9217 111.616 200 217 255
120.098 114.54 106.014 255 155 61
119.391 193.363 111.773 188 209 255
115.598 124.845 124.635 255 240 227
93.9082 174.705 111.074 255 250 244
94.3442 173.248 110.686 207 221 255
118.661 115.29 103.748 255 215 183
148.029 127.551 108.61 255 248 240
120.259 133.498 125.595 233 236 255
160.661 136.881 118.524 209 222 255
157.202 173.244 113.504 219 228 255
112.321 120.789 129.34 227 233 255
72.5994 106.189 105.559 237 239 255
99.9483 99.1449 117.904 255 227 205
89.1501 156 111.111 224 231 255
21.9137 106.589 110.718 188 210 255
119.101 113.471 119.122 255 232 213
26.455 141.56 113.103 192 212 255
176.625 183.674 115.509 185 207 255
52.5479 118.852 111.776 221 230 255
43.9326 74.0512 113.236 202 218 255
103.918 10.0808 112.334 197 215 255
176.642 125.446 109.252 187 209 255
128.177 145.216 116.34 199 216 255
156.99 95.4404 112.442 255 249 242
115.129 106.77 128.806 255 247 238
173.229 136.816 112.87 220 229 255
51.9276 107.393 114.673 203 219 255
156.507 48.0365 110.008 210 223 255
93.6289 174.671 111.372 236 238 255
57.2834 124.264 111.939 214 225 255
109.867 160.751 106.565 255 209 172
141.844 89.7089 107.927 255 225 201
100.365 126.148 124.324 255 245 235
102.34 60.2922 109.108 255 255 251
76.1959 112.709 108.845 255 212 179
147.789 97.813 112.19 197 215 255
98.8729 70.4047 106.251 234 237 255
101.474 134.878 103.211 255 237 222
134.675 57.704 106.476 255 249 242
139.366 126.458 116.812 202 218 255
152.706 205.398 113.137 199 216 255
172.715 112.64 111.372 219 228 255
65.6642 55.6284 116.046 199 216 255
106.126 159.724 116.706 215 226 255
174.614 128.096 112.404 193 213 255
204.819 152.609 114.826 194 213 255
167.019 161.354 110.575 196 214 255
136.129 71.6254 104.619 206 221 255
67.6662 150.648 118.348 208 222 255
83.8937 40.9671 111.486 204 219 255
171.582 103.751 111.521 255 250 244
133.79 80.918 102.511 213 225 255
152.713 103.169 119.268 196 215 255
202.023 75.3186 111.634 189 210 255
150.578 144.075 119.74 224 231 255
64.0549 42.2376 114.561 202 218 255
89.511 121.602 107.216 219 228 255
73.3271 43.4609 114.743 194 213 255
41.4515 73.1919 113.018 191 211 255
116.056 68.7298 106.777 228 233 255
100.873 131.501 105.246 255 254 250
197.787 75.7097 113.025 187 209 255
171.297 127.608 111.634 202 218 255
141.141 144.384 110.363 200 217 255
101.417 114.916 97.8652 255 251 255
92.9733 171.01 110.084 197 215 255
173.55 137.424 111.328 196 214 255
135.899 86.993 123.983 217 227 255
90.099 158.195 111.961 205 220 255
143.953 72.1248 115.168 204 219 255
118.039 51.5728 118.216 213 224 255
65.0676 54.3087 113.765 189 210 255
132.365 133.179 121.385 255 251 246
167.746 181.629 114.143 190 211 255
71.7412 175.18 110.703 190 211 255
128.6 102.613 103.35 255 224 199
155.204 34.067 112.556 194 213 255
94.171 151.13 113.285 225 232 255
153.679 200.537 110.615 193 212 255
152.551 75.1963 113.201 240 240 255
103.141 127.501 97.0024 255 241 228
184.864 183.505 109.807 194 213 255
126.201 147.568 108.575 250 246 255
79.2557 118.837 117.649 199 216 255
89.8108 140.378 120.981 223 231 255
170.856 123.321 115.879 196 215 255
91.4399 95.9897 102.409 220 229 255
120.971 50.2634 116.959 192 212 255
177.331 164.656 111.564 189 210 255
151.953 66.7316 108.976 197 215 255
32.659 65.4962 112.887 211 223 255
110.87 162.126 105.54 196 214 255
83.7309 118.377 113.426 235 237 255
157.691 149.195 112.462 194 213 255
122.056 92.3123 121.367 255 226 203
173.84 133.157 111.922 222 230 255
6.26197 110.821 115.161 182 206 255
111.116 126.777 100.061 255 245 235
107.146 72.7573 109.217 205 220 255
57.8389 176.424 112.706 191 211 255
138.957 172.646 108.139 195 214 255
110.875 30.2092 114.787 197 215 255
52.3671 115.577 111.847 219 228 255
123.51 133.258 124.131 255 237 222
142.752 96.9126 103.534 255 250 244
141.494 109.765 119.187 223 230 255
43.5836 111.179 110.775 204 219 255
127.469 145.991 116.274 197 215 255
176.21 65.9728 114.108 205 220 255
124.787 73.8387 112.629 201 217 255
46.8262 101.91 109.011 204 219 255
145.747 39.8654 113.727 202 218 255
136.749 156.952 112.31 222 230 255
49.0646 108.349 112.348 223 231 255
118.096 122.053 122.771 255 250 244
53.5546 96.25 106.119 212 224 255
40.0873 143.28 113.907 189 210 255
123.067 170.313 109.806 191 211 255
37.5131 147.222 115.825 200 217 255
106.496 121.879 108.723 255 206 166
68.039 137.145 108.316 227 233 255
150.35 110.244 105.724 255 244 234
69.5731 56.1952 108.331 200 217 255
104.847 124.201 122.974 231 235 255
100.291 18.5226 112.823 202 218 255
95.7575 140.147 119.84 255 106 0
81.8246 90.3597 103.518 228 234 255
119.178 86.0737 104.856 255 242 231
175.824 131.302 116.327 196 214 255
72.9662 44.562 110.657 192 212 255
111.389 98.2394 127.943 255 234 216
65.6747 151.607 113.077 198 215 255
42.0084 100.098 112.174 216 226 255
195.361 89.0666 114.814 197 215 255
116.062 144.434 111.408 255 232 213
24.6195 163.266 111.403 185 208 255
212.172 94.1263 110.506 186 208 255
139.615 37.9082 115.487 189 210 255
95.852 81.4639 120.682 255 228 206
126.872 83.557 119.083 225 232 255
77.8859 81.5857 121.708 255 248 240
118.27 117.282 130.929 255 242 231
111.592 82.744 101.297 255 251 255
83.516 108.965 119.887 221 229 255
128.911 75.2104 107.168 216 227 255
182.164 86.2419 109.313 210 223 255
143.642 137.723 116.729 194 213 255
72.3978 192.174 114.198 228 234 255
200.365 148.305 115.02 188 209 255
93.6096 174.411 111.296 199 216 255
135.995 89.8816 117.555 190 211 255
149.4 79.8807 113.094 255 247 238
132.987 122.363 112.222 234 237 255
72.1854 151.077 108.263 255 251 255
51.45 139.935 109.637 255 251 255
93.0829 174.125 111.324 255 204 163
132.27 134.339 112.229 232 236 255
99.7616 151.121 118.923 218 228 255
54.4769 55.4901 109.791 212 224 255
131.244 166.188 117.132 194 213 255
120.01 66.2549 113.324 190 210 255
65.852 147.964 106.817 233 236 255
155.783 85.1663 111.511 250 246 255
162.663 135.537 118.953 221 229 255
134.338 122.657 108.333 217 227 255
24.3875 152.137 113.164 197 215 255
97.3023 157.685 111.112 255 235 219
173.605 110.371 116.188 196 215 255
92.7148 101.568 113.596 255 225 201
163.984 153.611 108.58 210 223 255
106.552 135.718 114.479 206 221 255
93.6693 174.548 111.414 203 219 255
98.7119 136.493 121.775 253 248 255
92.9037 71.2169 112.568 201 217 255
71.3011 95.7757 117.288 236 238 255
50.6576 98.3545 104.428 213 225 255
39.7538 74.1836 113.069 193 212 255
24.4932 62.6175 111.819 198 216 255
205.656 162.448 110.642 185 208 255
146.394 149.877 109.138 194 213 255
56.3201 97.4578 117.419 198 216 255
79.8488 147.074 116.807 203 219 255
137.476 39.6943 114.964 185 208 255
174.378 39.2523 114.709 189 210 255
169.203 107.804 108.561 215 226 255
82.0023 176.636 114.967 213 225 255
186.032 76.2845 110.861 255 244 234
76.3576 69.82 110.827 205 220 255
98.4691 117.644 121.611 255 214 181
114.78 193.051 113.51 200 217 255
107.65 114.593 129.041 255 188 132
102.929 133.2 121.38 255 254 251
103.675 135.363 112.871 201 218 255
161.122 43.2428 109.717 198 216 255
81.2307 10.7085 112.683 188 209 255
106.404 126.355 96.1494 255 250 255
112.33 70.4566 114.16 215 226 255
107.011 91.6313 120.244 255 220 193
83.965 135.499 117.962 227 233 255
62.8632 94.9917 106.823 208 222 255
125.439 167.353 108.288 196 215 255
149.868 89.7122 117.352 239 240 255
107.292 121.694 120.489 241 241 255
142.921 122.664 104.513 202 218 255
100.239 178.586 111.356 224 231 255
134.01 147.345 117.77 232 236 255
107.064 128.062 120.144 255 241 228
95.6938 151.318 121.213 255 235 218
64.8486 87.992 110.895 192 212 255
211.509 133.115 112.809 194 213 255
123.022 104.822 118.844 255 232 214
38.2479 103.034 113.994 192 212 255
150.806 165.975 109.16 195 214 255
120.171 111.674 105.718 210 223 255
140.978 104.954 104.145 255 227 204
125.743 121.214 121.1 255 246 237
93.6053 174.27 111.316 220 229 255
99.6608 141.15 122.396 252 247 255
88.7644 37.8148 114.279 186 208 255
177.109 139.051 114.677 199 216 255
123.629 71.2709 111.355 216 227 255
145.521 87.2109 113.339 255 193 142
164.434 95.2642 119.41 215 226 255
122.859 74.3022 122.74 220 229 255
32.8065 72.3141 114.849 204 219 255
83.1471 188.981 113.66 205 220 255
83.6103 112.281 104.027 255 159 72
136.243 151.6 103.42 221 229 255
132.416 105.394 114.497 255 244 234
127.342 114.287 126.043 255 141 27
61.0319 118.075 104.379 231 235 255
92.5138 96.0145 126.753 247 244 255
110.879 97.1628 112.924 240 241 255
161.957 32.056 114.159 183 206 255
121.306 107.574 112.891 255 247 239
148.925 50.3003 110.425 220 229 255
188.19 190.06 112.911 204 219 255
139.209 124.724 112.671 198 215 255
134.075 32.8901 114.008 210 223 255
132.509 144.974 118.214 255 240 228
175.369 97.3577 108.403 225 232 255
10.0004 109.755 114.526 190 210 255
134.578 152.064 109.94 196 215 255
149.177 131.43 109.239 209 222 255
139.424 144.833 109.247 194 213 255
117.694 83.6604 103.149 195 214 255
70.3148 140.438 116.5 192 212 255
131.706 199.296 112.245 185 208 255
139.221 134.471 123.668 199 217 255
86.1188 164.571 112.792 200 217 255
82.7045 194.478 109.691 212 224 255
139.675 134.988 123.497 255 251 255
20.8564 67.8142 108.944 187 209 255
39.3652 179.21 112.772 191 212 255
157.391 164.536 109.551 215 226 255
31.6143 55.9415 114.73 200 217 255
136.485 113.866 110.001 255 240 227
93.7533 78.0187 107.881 197 215 255
42.1182 62.0117 115.012 204 219 255
151.552 86.6397 112.99 193 212 255
92.8966 81.443 109.789 217 227 255
128.697 101.164 117.953 255 181 118
136.974 101.257 104.483 239 240 255
42.2716 132.418 112.557 196 214 255
87.586 24.9688 112.295 181 205 255
115.427 92.2334 118.802 255 230 210
142.672 103.843 120.823 255 255 252
82.2029 106.372 118.038 255 226 203
152.618 106.991 103.449 202 218 255
138.28 148.653 114.511 219 228 255
95.4153 55.5819 113.198 204 220 255
123.884 52.8392 108.914 255 254 251
169.592 190.788 111.233 196 214 255
66.0214 102.092 120.201 201 218 255
88.7886 161.247 108.916 193 212 255
77.0757 69.5029 108.807 217 227 255
28.0578 45.226 110.187 203 219 255
161.439 72.5794 112.747 228 234 255
179.624 46.6389 112.717 229 234 255
111.832 156.109 108.878 255 226 203
119.902 216.996 113.028 186 208 255
151.115 103.969 118.83 206 221 255
110.549 93.2444 111.744 255 250 255
124.682 91.3325 122.088 255 239 225
122.216 167.243 107.216 244 243 255
65.4592 139.058 107.513 228 233 255
140.55 127.306 123.044 239 240 255
92.4809 61.333 105.016 183 206 255
121.742 109.388 117.073 243 242 255
93.7832 175.02 110.847 225 232 255
159.584 205.051 115.532 178 203 255
105.85 116.707 132.036 223 230 255
131.446 135.375 121.545 255 240 227
111.362 160.14 117.841 228 234 255
135.813 85.0762 115.707 255 216 185
132.471 81.8863 109.001 200 217 255
113.636 126.648 109.665 255 237 222
87.7609 95.8195 99.8316 233 237 255
111.577 108.854 98.8093 255 253 249
74.7923 84.8699 116.078 211 223 255
93.577 174.415 111.314 231 235 255
73.6737 140.115 118.589 216 227 255
161.659 124.256 104.024 242 242 255
140.862 7.01439 112.192 197 215 255
122.436 104.497 118.682 255 232 214
151.138 74.5983 112.067 200 217 255
195.854 150.239 114.905 198 215 255
187.03 67.9399 109.903 188 210 255
53.752 64.4173 111.741 189 210 255
125.496 141.107 104.41 221 229 255
120.79 142.104 125.131 232 236 255
87.9921 112.712 107.348 255 254 251
137.955 112.475 105.413 255 252 246
114.858 25.65 110.511 195 213 255
67.9994 102.629 116.041 203 219 255
42.3486 86.4638 109.172 189 210 255
104.586 76.197 105.316 255 197 150
93.5431 116.024 124.573 247 245 255
118.336 103.914 98.1703 255 249 255
199.62 43.6324 113.224 193 212 255
80.8421 95.1325 114.812 235 238 255
126.391 99.9971 109.796 255 209 173
121.425 70.7977 113.479 219 228 255
172.249 121.004 117.038 255 243 233
157.893 97.095 104.412 255 235 218
52.9303 191.973 110.179 187 208 255
138.545 29.0367 115.897 186 208 255
146.251 110.072 117.358 255 226 203
139.074 153.46 109.306 205 220 255
149.452 138.66 109.371 243 242 255
58.1515 79.7955 113.631 255 251 246
4.38184 132.299 111.672 191 212 255
87.2309 108.263 109.718 255 217 187
93.5839 174.427 111.265 212 224 255
143.625 2.36424 108.188 177 203 255
55.9804 168.946 111.189 177 202 255
112.58 138.769 116.325 255 248 241
159.157 56.0486 111.314 203 219 255
182.102 151.085 116.455 192 212 255
179.752 49.7174 112.007 200 217 255
165.014 81.1018 107.442 204 219 255
159.071 75.5415 116.513 191 211 255
136.976 76.796 105.062 238 240 255
63.6811 118.034 116.841 253 248 255
125.655 121.064 102.436 255 251 245
185.44 90.7318 108.959 193 212 255
27.2813 89.2706 112.951 190 211 255
105.118 138.989 123.197 255 249 242
52.4524 112.946 111.372 197 215 255
70.743 146.484 118.93 216 226 255
80.6727 110.109 119.852 255 241 228
117.986 137.444 115.902 255 239 224
125.396 177.246 116.259 192 212 255
133.151 137.171 106.923 255 211 177
133.196 55.2251 118.456 207 221 255
60.5668 117.039 106.381 212 224 255
125.024 141.935 118.005 235 237 255
112.479 102.391 123.38 255 177 111
116.73 137.35 116.918 214 225 255
144.559 143.495 108.567 213 225 255
92.1915 78.9055 111.061 202 218 255
127.13 56.933 109.179 229 234 255
142.473 88.2349 104.46 211 224 255
71.233 83.6831 109.313 215 226 255
25.3767 71.0718 113.974 200 217 255
128.627 192.736 113.047 203 218 255
158.732 66.9156 113.061 196 214 255
34.7637 101.441 112.809 195 214 255
123.108 105.968 120.519 255 208 171
110.964 96.9734 111.726 228 234 255
114.084 96.4461 122.187 253 248 255
107.248 36.667 113.9 196 214 255
151.443 151.918 107.994 255 249 242
98.0384 106.893 105.255 255 238 223
91.6656 86.8802 121.055 197 215 255
174.264 148.434 111.94 217 227 255
99.1152 15.089 107.004 187 209 255
101.725 119.75 115.323 219 228 255
37.9975 46.4138 113.482 205 220 255
134.709 136.949 101.797 214 226 255
143.651 116.623 111.538 221 229 255
129.578 203.08 111.24 184 207 255
201.252 75.0847 112.045 213 224 255
82.6032 141.701 107.377 209 222 255
173.371 149.305 112.402 202 218 255
181.659 141.79 110.572 179 204 255
72.5795 124.342 108.9 219 228 255
76.099 99.0112 121.883 205 220 255
113.831 16.7628 111.972 234 237 255
127.69 94.3569 101.039 255 225 202
127.96 155.488 105.155 203 219 255
151.399 134.652 110.656 225 232 255
151.29 126.822 117.474 210 223 255
76.4919 193.693 111.864 195 214 255
77.3802 93.3651 121.648 223 231 255
63.0129 163.649 110.625 193 212 255
102.999 124.071 98.1611 255 168 91
117.647 123.588 107.176 206 220 255
83.7528 124.842 101.67 255 211 176
110.245 106.272 92.1986 255 254 250
152.294 187.392 111.267 200 217 255
41.6078 115.588 109.793 223 230 255
133.547 172.328 107.461 190 210 255
176.067 103.079 112.967 255 252 246
36.3843 91.1139 112.939 194 213 255
138.307 191.162 113.6 213 225 255
115.968 38.8933 110.832 205 220 255
160.095 113.813 106.454 203 219 255
175.836 106.943 117.422 198 216 255
80.3008 140.12 113.204 208 222 255
168.154 98.5729 110.975 255 250 244
114.677 84.6783 115.633 255 247 238
129.404 72.4531 112.134 255 254 250
102.491 103.094 110.922 255 249 242
77.8421 73.1038 115.41 207 221 255
77.0005 133.744 109.536 255 217 186
117.355 117.18 99.1456 255 232 213
215.615 86.8837 109.891 185 207 255
144.622 113.589 113.815 223 231 255
120.449 157.532 106.013 194 213 255
149.715 91.0515 105.414 206 220 255
61.7978 157.961 109.802 196 215 255
113.921 135.88 110.629 255 255 252
95.9393 164.926 109.216 205 220 255
96.0146 102.443 114.094 255 243 232
127.948 160.892 117.552 212 224 255
147.297 132.91 121.874 235 238 255
71.1631 158.716 113.179 204 219 255
125.41 204.902 112.284 188 210 255
82.1743 117.617 109.945 198 216 255
89.3204 123.873 112.2 255 248 241
175.873 119.16 110.193 208 222 255
81.3163 65.9955 108.417 236 238 255
66.769 103.597 121.75 197 215 255
102.764 45.8672 113.678 214 225 255
95.482 141.03 107.73 255 227 204
92.3762 173.892 112.295 220 229 255
47.1231 90.3422 112.657 203 219 255
151.014 155.071 108.196 215 226 255
10.1157 113.452 111.041 199 216 255
87.2215 66.0926 106.932 255 251 245
55.2133 24.7227 114.514 201 217 255
89.1581 60.518 107.35 255 253 249
91.5834 116.009 117.174 217 227 255
188.403 179.924 116.409 201 218 255
69.7642 199.656 110.114 187 208 255
49.6937 73.1327 112.509 201 217 255
44.404 136.85 110.745 199 216 255
177.281 111.766 110.757 207 221 255
57.3768 46.6258 110.428 218 228 255
104.771 116.022 102.499 251 247 255
148.714 198.766 111.215 214 225 255
86.6982 138.649 116.908 220 229 255
139.016 110.859 105.113 234 237 255
56.1011 70.4858 111.483 204 219 255
142.968 125.16 112.265 223 231 255
138.521 74.7465 105.886 216 226 255
37.1018 33.0304 112.046 190 211 255
96.0528 130.883 120.529 255 255 252
195.045 165.288 110.263 180 204 255
92.2655 147.069 110.576 255 237 221
94.7494 172.959 111.481 202 218 255
161.434 132.693 113.373 211 224 255
144.693 103.956 105.78 210 223 255
65.5866 41.9802 106.497 180 204 255
56.6989 66.4708 116.129 196 215 255
65.2492 114.283 111.499 193 213 255
159.229 114.193 112.89 197 215 255
159.884 148.408 112.724 254 248 255
109.898 103.807 104.373 255 220 193
93.9454 174.416 111.016 203 218 255
22.2043 174.892 112.408 189 210 255
45.8319 105.871 115.35 197 215 255
191.27 171.663 114.244 188 209 255
74.7223 87.06 109.909 255 252 247
186.661 125.344 111.636 204 219 255
112.909 128.267 124.599 255 188 132
79.0388 67.3675 112.97 212 224 255
93.83 175.442 110.973 255 247 239
140.689 185.716 115.011 198 215 255
99.865 85.7713 113.121 255 144 34
118.782 56.902 116.19 220 229 255
138.773 208.913 113.603 183 206 255
42.5697 129.308 115.073 255 224 199
188.149 138.68 109.419 192 212 255
96.6485 111.159 110 222 230 255
132.924 99.1769 105.833 216 226 255
45.7485 104.409 115.36 220 229 255
