ply
format ascii 1.0
element vertex 1341
property float x
property float y
property float z
property uchar red
property uchar green
property uchar blue
end_header
65.3055 199.91 110.268 184 207 255
175.125 82.1515 111.461 194 213 255
97.3263 84.9035 105.442 196 214 255
185.798 49.9015 110.321 210 223 255
189.846 180.638 111.12 192 212 255
160.333 184.232 110.789 210 223 255
92.6015 172.429 110.616 232 236 255
47.4019 180.422 112.249 188 209 255
132.15 162.373 111.381 212 224 255
149.583 190.063 109.973 190 211 255
94.0073 174.572 111.242 214 225 255
58.4605 95.0049 116.126 209 222 255
120.994 157.421 112.691 207 221 255
58.9311 124.469 112.942 212 224 255
130.848 58.6241 105.549 248 245 255
56.9238 89.921 109.778 242 242 255
54.9344 89.5723 113.706 207 221 255
115.679 128.255 125.983 255 218 188
145.988 190.272 109.911 182 205 255
133.072 131.909 113.241 208 222 255
157.206 119.065 115.987 209 222 255
4.74994 93.3547 113.925 191 211 255
31.4584 123.014 109.504 208 222 255
25.7735 152.527 111.63 187 209 255
90.6261 15.2659 112.665 180 204 255
96.0043 140.732 103.332 252 247 255
103.984 133.585 104.4 255 247 239
147.818 115.048 120.388 208 222 255
106.642 87.9914 107.108 229 234 255
108.845 154.863 111.017 198 216 255
123.115 126.05 122.998 255 219 190
128.044 94.7777 126.352 255 240 227
39.1669 48.9377 111.293 185 207 255
10.6019 90.3996 110.83 196 214 255
67.8259 167.278 111.536 195 214 255
51.5703 65.1109 112.526 202 218 255
96.8851 207.363 112.247 181 205 255
121.845 145.682 110.808 241 241 255
120.525 62.8511 106.255 208 222 255
104.668 29.1613 109.128 205 220 255
104.092 55.359 113.089 199 216 255
90.2389 44.3539 108.173 194 213 255
117.652 37.4838 111.918 203 218 255
172.514 112.357 116.697 255 248 241
81.0053 106.185 114.373 203 218 255
95.4385 61.6597 111.426 202 218 255
155.487 125.095 122.293 240 240 255
31.1981 109.197 114.114 216 227 255
89.2696 181.484 111.577 185 207 255
66.6934 82.7019 120.409 201 217 255
94.6166 158.164 111.77 224 231 255
114.538 136.609 119.695 208 222 255
85.4196 95.1893 114.216 255 255 252
135.952 110.974 118.215 212 224 255
121.04 94.6614 103.297 255 171 97
93.544 174.593 111.628 201 217 255
120.672 77.52 117.424 217 227 255
80.3055 65.8167 107.734 255 228 207
78.3111 99.4062 106.86 255 245 234
127.272 94.9663 99.4452 234 237 255
106.02 210.066 116.88 188 210 255
127.524 119.789 101.709 226 233 255
168.95 132.752 113.675 191 211 255
52.8234 101.943 113.093 228 234 255
119.982 160.546 109.579 227 233 255
148.549 175.909 111.726 205 220 255
131.831 131.453 112.576 198 216 255
159.701 111.703 116.417 202 218 255
145.57 120.182 123.08 255 236 220
186.515 168.784 111.252 196 215 255
107.712 143.82 123.104 255 250 244
47.8049 147.766 109.067 209 222 255
171.989 152.671 113.945 199 216 255
63.4123 130.214 111.299 205 220 255
94.3282 174.63 111.31 243 242 255
168.187 138.436 114.92 212 224 255
129.669 129.223 117.265 255 201 158
146.363 103.134 102.034 226 232 255
201.819 126.791 111.846 187 209 255
157.637 208.794 113.581 186 208 255
152.363 47.4019 112.008 189 210 255
139.802 65.0508 109.527 191 211 255
179.653 57.0979 114.268 185 207 255
101.849 158.531 112.171 255 246 237
91.2425 205.148 110.155 190 211 255
175.998 132.546 111.88 201 218 255
136.33 108.559 107.665 255 220 192
98.2471 62.9944 116.093 221 229 255
97.4712 139.252 100.401 209 222 255
8.81263 130.691 114.15 186 208 255
102.326 147.798 106.07 244 243 255
72.9402 68.611 116.916 188 209 255
97.81 175.039 110.028 204 219 255
73.5881 154.911 107.65 255 212 178
95.1472 141.55 120.861 255 243 232
79.5508 133.795 109.385 197 215 255
113.742 42.4002 111.729 255 209 173
146.332 48.745 115.115 215 226 255
91.9696 78.6686 112.426 194 213 255
158.738 112.615 103.234 240 241 255
160.9 169.407 112.097 243 242 255
124.642 105.415 110.829 224 231 255
59.9846 80.7371 108.426 191 211 255
92.4023 176.034 110.674 255 243 232
94.1748 174.68 111.534 203 219 255
155.687 107.71 112.69 231 235 255
193.148 170.34 112.778 201 218 255
53.5535 116.753 115.572 248 245 255
104.908 155.432 112.637 255 252 247
54.8703 55.0697 112.762 219 229 255
40.7721 52.1267 110.513 191 211 255
179.201 179.082 113.364 177 202 255
90.595 67.1074 106.028 208 221 255
160.63 135.858 117.814 221 230 255
115.801 51.0133 117.467 201 218 255
168.755 131.532 110.944 182 206 255
118.562 218.957 112.724 182 206 255
87.7585 144.307 121.873 204 219 255
150.807 54.108 115.951 196 214 255
118.766 33.7823 111.932 187 209 255
104.758 92.396 122.826 255 230 210
148.421 128.171 115.432 199 216 255
175.28 171.791 111.453 243 242 255
100.526 199.672 110.726 182 206 255
123.133 47.0081 111.877 188 209 255
152.324 159.012 109.549 208 222 255
72.3415 61.4125 112.627 211 223 255
142.28 129.976 105.09 241 241 255
94.509 158.884 111.347 255 243 232
90.5163 69.8837 110.784 251 247 255
93.5042 101.501 106.93 206 220 255
79.0244 144.173 114.11 216 227 255
168.477 43.7301 112.976 205 220 255
105.12 182.405 112.883 191 212 255
91.8345 95.1938 106.827 255 184 124
93.6443 153.151 111.435 255 253 248
211.713 71.9354 110.202 188 210 255
129.822 201.347 112.883 193 213 255
118.342 85.5304 103.005 255 230 210
169.376 104.603 115.412 193 213 255
109.609 170.466 112.661 207 221 255
90.9508 46.5152 117.726 199 216 255
60.482 210.774 112.369 195 214 255
162.943 68.4962 115.315 215 226 255
117.582 60.9342 109.175 210 223 255
91.9272 173.562 110.66 210 223 255
144.086 25.399 111.814 193 212 255
88.7521 158.598 116.694 255 234 217
95.2917 12.3588 112.626 192 212 255
65.5281 59.7732 114.573 194 213 255
94.0294 174.527 111.381 188 210 255
149.179 132.874 117.374 255 249 242
175.234 40.4974 113.448 188 209 255
114.237 106.665 121.706 244 242 255
197.354 180.653 112.624 197 215 255
109.686 79.993 112.829 255 109 0
77.1079 148.467 114.734 192 212 255
61.0405 138.278 111.674 209 222 255
80.1726 83.8446 113.059 255 250 243
48.3987 149.581 116.097 191 211 255
96.5888 131.811 109.35 231 235 255
114.057 119.824 107.303 255 247 238
94.0291 174.56 111.583 224 231 255
180.396 107.404 105.69 206 220 255
126.961 189.586 110.989 188 210 255
158.596 137.693 108.375 200 217 255
170.25 128.653 117.347 208 221 255
115.223 156.623 110.838 194 213 255
104.734 55.0113 114.415 204 219 255
71.9794 114.738 114.686 242 242 255
56.0469 138.076 107.607 237 239 255
71.0845 130.773 113.601 230 235 255
124.003 180.654 116.765 196 214 255
95.1588 70.1387 107.315 207 221 255
121.621 116.234 114.902 230 235 255
106.061 98.5969 100.371 255 221 193
103.455 80.6758 115.926 226 233 255
151.364 74.3988 107.464 228 234 255
90.2556 113.886 107.871 212 224 255
42.1192 126.578 109.79 193 212 255
113.734 75.7508 106.775 200 217 255
81.4422 175.185 115.739 204 219 255
75.4114 146.25 110.652 255 248 240
212.629 88.2809 114.479 193 212 255
63.8345 140.337 111.685 249 245 255
22.2441 99.3283 110.237 209 223 255
101.895 117.072 110.379 255 181 117
187.435 114.224 110.826 188 210 255
51.7779 111.061 112.463 255 251 245
89.4285 90.8199 121.331 255 205 166
116.688 148.764 114.23 230 235 255
98.4167 93.9667 105.714 255 229 207
201.731 120.377 114.256 203 219 255
106.928 70.811 114.384 199 216 255
129.65 74.6244 111.591 219 228 255
100.211 68.6082 110.371 201 217 255
77.6968 177.22 110.981 198 216 255
176.506 99.6086 113.624 189 210 255
29.8246 156.764 111.957 201 217 255
111.002 122.396 133.305 219 228 255
105.829 84.7714 112.77 205 220 255
25.7592 52.8923 114.259 191 211 255
92.2661 141.736 106.013 218 227 255
122.716 56.2599 115.673 200 217 255
146.771 114.692 114.252 255 248 240
114.51 127.645 128.559 255 254 251
119.999 181.779 109.893 206 221 255
145.638 106.929 110.708 218 227 255
16.3271 90.2959 110.297 206 221 255
93.8149 174.912 111.225 192 212 255
92.5177 197.709 109.686 191 211 255
140.213 126.588 116.875 213 224 255
83.0579 93.1927 105.11 217 227 255
132.828 81.8683 113.814 217 227 255
127.084 86.0846 114.852 229 234 255
130.55 27.145 111.505 188 209 255
112.474 115.542 123.364 219 228 255
180.772 174.034 111.965 198 216 255
16.3684 94.359 114.242 200 217 255
171.81 109.01 112.226 211 223 255
129.805 92.2174 99.5149 212 224 255
197.994 133.319 110.79 193 213 255
111.604 89.5671 100.969 212 224 255
142.404 124.494 119.661 255 241 228
137.016 92.4735 113.339 255 240 227
181.804 155.632 114.975 203 219 255
197.667 168.691 113.614 218 228 255
178.637 89.0259 114.907 191 211 255
120.306 103.1 115.474 240 240 255
63.9082 196.435 113.121 180 205 255
107.042 141.206 122.55 225 232 255
160.592 87.4294 110.852 227 233 255
97.8113 23.2459 109.998 183 206 255
163.564 56.8798 111.119 189 210 255
149.824 174.169 111.535 188 210 255
70.2835 119.734 118.193 255 247 239
82.9294 132.892 105.078 255 235 219
130.933 160.531 105.691 214 225 255
101.61 122.179 130.188 229 234 255
84.0117 123.489 124.363 218 227 255
152.139 77.6635 109.262 193 213 255
164.598 73.788 110.09 254 248 255
93.378 145.256 114.217 255 214 182
95.3293 136.527 122.848 196 215 255
127.637 127.122 114.342 226 232 255
31.467 139.329 111.869 226 233 255
107.52 125.831 106.507 238 239 255
118.773 169.596 114.225 203 218 255
109.36 216.976 112.519 191 212 255
133.922 134.744 119.265 218 228 255
53.8232 114.889 114.703 250 246 255
120.068 102.551 97.0444 255 248 240
155.39 140.098 109.152 234 237 255
79.3126 121.933 119.706 255 216 185
49.8156 178.049 111.434 194 213 255
105.562 107.168 104.673 232 236 255
47.5149 103.718 111.145 211 224 255
100.156 80.8131 112.362 217 227 255
122.757 91.6847 106.191 255 249 255
136.984 129.681 101.857 255 231 211
175.068 36.5672 113.344 190 210 255
149.89 131.294 110.28 255 251 245
144.528 204.258 111.058 190 211 255
172.598 118.533 116.553 216 226 255
107.542 48.5091 110.028 236 238 255
43.7283 102.765 113.228 216 226 255
86.5792 186.535 111.157 205 220 255
155.888 156.512 109.131 221 229 255
139.175 133.318 102.883 208 221 255
77.3017 109.373 108.395 207 221 255
144.694 112.276 123.628 186 208 255
90.0694 144.406 115.257 255 237 222
107.992 155.586 112.349 255 214 182
70.7948 117.308 107.616 218 228 255
93.8735 102.298 120.837 216 227 255
122.311 112.815 116.11 215 226 255
155.878 112.068 117.592 234 237 255
83.502 148.009 113.995 242 241 255
68.7214 128.109 118.724 201 218 255
103.378 170.408 112.097 208 222 255
58.2035 122.399 109.822 227 233 255
93.5001 136.209 115.281 255 247 239
174.066 123.923 108.678 214 225 255
77.4085 69.8287 112.122 205 220 255
162.482 115.795 110.234 221 229 255
96.4509 118.18 116.962 255 244 233
135.223 106.861 118.751 255 249 242
101.793 151.954 103.099 201 218 255
164.607 95.0312 112.254 208 222 255
79.3754 126.293 102.347 222 230 255
138.639 53.9914 113.03 204 219 255
79.1588 121.787 106.679 214 225 255
93.9897 180.084 112.347 189 210 255
23.4299 175.35 109.743 202 218 255
140.425 143.389 114.193 194 213 255
133.066 72.2502 111.813 255 255 252
94.0337 174.44 111.888 255 224 199
139.606 0.0340093 105.15 193 213 255
42.688 145.058 113.636 190 211 255
173.533 107.656 111.575 255 214 181
146.267 149.023 110.804 255 249 255
48.1958 86.343 110.518 184 207 255
52.8179 74.1831 113.262 210 223 255
80.2583 127.607 119.665 194 213 255
100.594 80.2227 111.524 210 223 255
54.0672 31.8632 112.245 206 220 255
112.287 122.459 100.975 220 229 255
163.016 98.9931 108.573 235 238 255
130.568 53.6523 112.354 226 232 255
94.4767 174.726 111.507 206 221 255
63.0894 70.3395 108.416 187 209 255
115.736 82.5162 118.676 245 244 255
103.855 82.5383 116.163 227 233 255
101.961 139.009 111.586 255 252 246
90.4595 88.5926 114.558 194 213 255
175.846 124.691 113.111 190 211 255
64.2936 125.631 115.509 215 226 255
141.479 34.8795 114.841 185 208 255
150.551 119.27 109.959 252 247 255
61.0715 18.8084 112.558 176 202 255
93.9797 174.598 111.158 213 225 255
130.036 121.877 116.032 255 225 200
67.1898 104.324 116.959 201 217 255
78.4565 146.897 115.628 206 220 255
94.0469 174.574 111.338 210 223 255
107.569 106.481 104.071 220 229 255
85.5051 14.8116 112.396 194 213 255
107.349 110.311 90.6992 225 232 255
109.625 218.217 110.566 191 211 255
54.3836 205.492 115.442 193 212 255
57.2272 182.257 110.883 183 206 255
72.6396 93.0285 104.086 255 222 195
120.434 209.229 109.574 205 220 255
112.455 120.31 123.985 236 238 255
127.322 142.077 112.323 255 246 237
92.0769 131.965 113.107 249 246 255
86.9577 117.883 110.367 224 231 255
96.3716 92.9528 102.705 255 241 229
129.072 181.742 116.563 186 208 255
148.059 54.6717 112.998 201 218 255
142.512 133.108 119.338 224 231 255
109.943 153.92 106.492 255 238 224
39.3865 174.826 113.608 186 208 255
97.1322 147.956 120.367 255 245 235
94.0167 174.621 111.309 195 214 255
132.273 134.255 113.095 255 237 222
109.631 102.182 100.303 255 254 251
14.6242 149.567 111.019 185 207 255
130.455 105.869 101.295 255 228 207
143.476 63.4404 112.06 200 217 255
98.0679 195.897 112.942 199 216 255
69.3587 139.756 114.026 242 242 255
152.115 65.1001 107.236 227 233 255
149.785 148.358 119.12 205 220 255
113.022 208.479 112.187 184 207 255
114.597 166.394 112.496 190 211 255
126.515 130.305 123.523 255 250 244
155.294 46.6968 110.07 212 224 255
100.238 12.9784 111.841 195 214 255
66.255 165.798 109.101 247 244 255
63.9127 51.4864 115.015 205 220 255
119.757 137.715 118.096 215 226 255
105.793 156.205 111.582 189 210 255
92.4687 43.1817 110.073 255 242 230
45.927 171.052 115.27 199 216 255
154.812 78.9497 113.753 230 235 255
88.3822 99.8583 109.599 215 226 255
93.7447 199.837 111.701 187 209 255
62.0265 128.313 116.731 205 220 255
153.899 96.4911 118.596 215 226 255
129.416 190.16 111.782 222 230 255
212.805 134.296 112.074 199 216 255
141.497 153.007 118.152 200 217 255
106.89 76.3912 114.669 209 223 255
103.621 76.1998 116.683 255 251 255
66.108 82.6195 119.405 255 215 183
51.181 65.3967 111.95 200 217 255
93.4525 85.6483 103.862 255 252 247
116.395 100.511 108.271 255 211 175
122.596 111.189 131.152 208 222 255
100.264 96.6119 113.481 239 240 255
120.785 47.7341 108.666 199 216 255
136.662 105.802 118.923 255 210 175
125.122 106.062 105.193 255 234 216
85.4081 95.3169 107.773 255 239 226
153.287 210.166 114.023 191 211 255
118.392 127.057 118.589 255 248 240
51.0824 89.1681 107.278 223 231 255
135.169 69.7183 114.719 205 220 255
91.061 80.1553 113.303 193 213 255
92.0002 111.742 121.253 222 230 255
145.081 116.508 118.976 255 227 205
110.517 113.592 123.14 255 239 225
27.4253 147.243 113.805 180 204 255
81.0096 146.148 107.337 192 212 255
34.3433 97.5962 111.099 197 215 255
96.7229 104.818 125.356 200 217 255
52.6137 64.6266 113.051 179 204 255
150.202 167.157 112.658 218 228 255
118.67 117.269 92.1562 255 226 204
119.769 111.343 118.666 215 226 255
209.748 78.2308 113.362 202 218 255
137.653 144.45 121.205 231 236 255
135.173 119.76 121.597 210 223 255
143.192 81.8101 122.381 239 240 255
128.406 93.9208 111.656 255 236 220
94.2753 174.334 111.46 209 222 255
98.5709 22.2582 112.127 211 223 255
49.9342 60.7786 111.276 191 211 255
85.8354 6.46129 111.556 197 215 255
135.341 201.598 110.871 182 206 255
88.9961 102.586 113.309 236 238 255
191.976 67.6414 112.793 196 214 255
69.7573 139.157 112.087 191 211 255
96.8834 90.05 109.306 229 234 255
11.3031 92.6105 108.741 179 203 255
157.958 68.2117 117.179 199 216 255
84.3802 76.1645 109.87 200 217 255
83.6499 120.138 111.425 207 221 255
125.151 56.8965 116.771 255 249 255
142.873 126.704 115.838 255 251 255
117.5 189.388 112.59 188 209 255
110.861 144.524 105.105 255 230 209
108.546 131.502 108.897 255 200 156
96.5424 71.7396 110.444 220 229 255
147.192 200.641 113.548 190 210 255
73.4305 167.761 110.096 255 255 252
119.996 126.692 108.915 210 223 255
130.368 111.65 116.898 255 209 172
90.4965 168.005 112.407 194 213 255
122.99 129.411 124.651 228 234 255
63.1178 139 115.173 221 229 255
122.196 111.371 113.437 255 231 212
152.718 75.6342 107.139 200 217 255
133.764 21.7947 112.647 188 210 255
85.0917 169.069 114.513 206 220 255
91.2562 175.537 112.087 204 219 255
215.331 125.78 112.485 201 217 255
142.466 68.0441 121.42 255 251 255
114.762 116.115 93.1474 225 232 255
96.9926 92.4707 117.102 215 226 255
67.8055 71.4909 111.903 216 226 255
160.374 134.534 106.284 237 238 255
162.36 202.896 112.96 183 206 255
91.5943 72.5747 117.999 211 224 255
122.83 109.3 96.1287 210 223 255
75.8035 142.706 110.57 236 238 255
103.448 36.5887 115.345 208 221 255
80.104 141.184 111.784 217 227 255
137.078 140.415 106.016 255 213 180
126.061 143.591 114.503 206 220 255
46.5376 102.358 109.343 219 228 255
100.955 72.3826 108.915 241 241 255
102.111 84.1982 120.391 255 253 249
165.713 154.212 123.347 197 215 255
59.1032 163.47 109.459 209 222 255
123.366 137.032 116.519 255 239 225
118.571 145.286 95.6861 255 251 246
9.3718 122.162 111.974 201 218 255
108.762 29.4477 116.628 192 212 255
112.289 83.8074 101.889 228 233 255
126.846 42.146 115.41 194 213 255
173.381 117.338 109.042 192 212 255
69.3011 188.537 110.701 201 217 255
57.0817 61.9948 113.231 211 224 255
61.8871 211.522 110.13 189 210 255
108.004 97.9598 99.1112 255 239 225
98.1406 45.1057 115.559 207 221 255
56.5746 168.712 113.668 195 213 255
138.545 52.2289 111.197 196 214 255
156.268 84.4252 115.32 227 233 255
212.819 93.1286 113.74 205 220 255
110.369 123.483 125.52 252 247 255
95.818 171.739 113.369 220 229 255
112.883 207.445 113.777 188 209 255
100.78 133.314 115.093 206 220 255
84.1861 106.002 105.578 255 229 207
194.36 71.6667 112.299 228 234 255
152.209 120.021 121.542 203 218 255
48.4817 106.503 111.798 230 235 255
97.8967 198.394 111.165 209 222 255
62.2338 156.911 111.358 197 215 255
117.952 147.986 104.088 221 230 255
90.2005 213.877 111.651 195 214 255
167.284 134.922 107.043 195 213 255
130.05 123.169 126.984 255 248 240
139.237 129.43 105.939 240 240 255
135.832 64.9642 116.454 210 223 255
129.511 123.383 102.788 255 204 163
95.3704 174.588 111.295 186 208 255
83.082 57.4589 110.775 195 214 255
168.172 96.2261 113.228 216 227 255
144.16 97.4104 115.394 255 251 255
194.363 147.967 114.45 195 214 255
28.7464 130.784 114.883 189 210 255
148.861 139.615 113.222 206 220 255
194.369 84.8845 113.597 202 218 255
158.076 65.7008 108.514 200 217 255
106.531 149.273 103.568 201 217 255
129.983 106.679 120.985 218 227 255
132.659 140.72 108.155 201 217 255
133.457 41.2749 113.221 229 234 255
67.6592 90.908 115.328 214 226 255
129.581 128.981 107.869 255 248 241
121.453 70.4579 109.355 255 222 196
173.927 81.0315 112.679 181 205 255
101.507 170.018 109.16 206 221 255
114.599 65.7022 119.651 251 246 255
126.214 167.576 108.259 193 212 255
111.583 127.114 99.2615 248 245 255
151.879 83.4561 109.927 220 229 255
84.5754 76.2046 117.125 255 249 242
106.398 63.747 104.658 223 231 255
177.387 62.7026 113.767 191 211 255
156.497 96.677 117.774 192 212 255
94.02 174.633 111.026 201 218 255
148.172 118.528 122.427 255 254 250
67.0109 129.315 112.489 209 222 255
171.137 101.029 110.576 229 234 255
105.469 126.144 124.866 255 205 164
132.002 126.939 108.549 205 220 255
105.924 122.212 96.9563 255 220 193
115.267 74.7764 119.417 227 233 255
97.0645 93.1604 103.693 255 253 248
89.1453 105.296 116.63 255 221 194
115.557 11.81 111.39 187 208 255
71.6167 90.0889 110.012 255 228 207
102.47 172.848 112.69 220 229 255
81.3758 94.7701 123.257 244 243 255
78.4389 205.159 115.445 200 217 255
153.592 8.74507 112.621 187 209 255
32.7882 97.3051 113.003 191 211 255
76.4903 108.328 109.933 240 241 255
72.0828 95.3609 111.25 211 223 255
53.7602 123.392 111.582 192 212 255
170.058 107.759 106.842 207 221 255
99.3047 82.4311 121.753 200 217 255
68.8984 40.7617 111.936 216 226 255
64.3568 124.014 105.482 193 212 255
119.948 115.459 129.806 239 240 255
89.4121 122.004 123.03 255 211 177
131.388 73.5543 114.344 255 249 241
151.897 151.059 108.914 197 215 255
180.352 27.8261 113.65 198 215 255
149.76 167.374 112.077 218 228 255
20.9296 61.4746 115.219 215 226 255
61.4764 159.364 114.994 201 217 255
119.256 138.134 124.376 218 227 255
37.3631 157.902 113 187 209 255
95.6179 116.131 99.191 255 236 220
63.2433 135.2 112.217 227 233 255
48.9318 172.502 115.231 201 217 255
152.338 140.701 112.102 209 223 255
141.277 113.885 112.661 255 253 248
120.663 163.514 107.586 226 233 255
93.7307 174.099 111.362 217 227 255
126.091 95.8806 122.442 212 224 255
18.9387 158.915 114.5 185 208 255
179.392 138.164 111.47 216 227 255
139.995 201.584 112.612 198 216 255
111.619 100.808 123.057 255 230 210
129.76 107.654 115.102 255 218 188
95.6283 117.595 121.195 255 235 219
107.758 126.557 112.707 236 238 255
174.967 159.721 114.508 195 214 255
80.1248 95.155 114.254 242 242 255
78.9718 32.7851 112.616 184 207 255
150.304 112.862 108.876 243 242 255
107.486 87.5771 107.509 255 230 209
82.3612 75.022 106.241 195 213 255
66.648 41.3063 112.513 209 222 255
126.799 99.8157 125.609 225 232 255
76.1634 111.674 101.947 216 226 255
131.855 7.86918 111.046 177 203 255
91.6036 119.221 120.678 255 224 200
11.2809 99.8068 112.023 195 214 255
90.8165 186.298 110.751 179 204 255
127.657 171.037 107.522 224 231 255
65.2058 36.9077 120.132 188 209 255
105.707 99.6822 109.34 255 251 246
144.801 161.822 116.312 229 234 255
134.816 50.3267 116.256 220 229 255
185.349 72.8529 114.187 202 218 255
194.815 162.745 110.585 184 207 255
86.9087 85.1989 110.948 206 220 255
117.847 167.867 106.324 207 221 255
52.9424 76.6307 112.605 211 223 255
112.438 151.04 106.474 228 233 255
134.368 90.8927 122.03 255 252 247
123.674 112.658 112.775 255 183 122
196.325 104.896 111.41 200 217 255
112.934 152.844 121.166 240 241 255
88.1446 92.3948 124.144 217 227 255
89.5845 108.689 112.512 255 252 247
141.243 168.892 116.632 190 211 255
146.643 113.223 116.664 255 212 177
164.517 94.8805 113.696 248 245 255
111.886 135.815 114.369 253 248 255
126.719 187.94 111.443 190 210 255
189.064 144.701 113.111 255 190 137
141.702 99.51 111.681 203 219 255
123.006 58.043 119.448 202 218 255
98.9189 42.166 116.881 206 220 255
55.4225 182.01 112.634 230 235 255
153.991 195.009 112.736 189 210 255
67.0403 107.691 118.243 209 223 255
204.321 60.9178 109.809 190 211 255
107.494 100.673 123.598 218 228 255
120.235 148.717 108.04 194 213 255
123.058 44.9443 110.241 255 230 210
72.0449 36.4824 109.69 193 212 255
157.112 120.007 115.479 241 241 255
86.479 153.163 112.84 220 229 255
176.023 120.58 112.228 200 217 255
54.9714 125.318 111.39 229 234 255
122.15 23.4402 114.214 186 208 255
180.228 71.5809 115.609 193 212 255
135.658 132.334 109.774 255 232 213
177.399 101.607 116.877 197 215 255
83.5529 106.046 112.939 211 224 255
197.223 63.7246 114.504 183 206 255
109.979 164.556 113.375 211 223 255
133.829 162.825 106.735 208 222 255
188.114 96.4365 115.49 200 217 255
101.418 158.897 110.687 245 243 255
131.978 139.245 112.866 255 245 235
109.74 92.2186 117.804 255 228 207
191.988 161.997 112.892 201 218 255
151.89 128.881 112.862 185 207 255
174.068 182.586 111.176 185 207 255
102.135 136.239 106.446 220 229 255
86.4169 147.442 113.04 255 217 188
149.216 97.5284 120.704 204 219 255
172.681 106.199 112.873 217 227 255
137.382 134.237 114.14 210 223 255
132.671 107.804 98.1549 255 232 214
102.174 124.394 114.939 255 225 201
148.662 65.5826 106.349 194 213 255
113.009 137.335 112.385 199 216 255
78.4165 162.204 114.194 255 252 247
89.3583 94.8178 101.119 255 254 250
89.3722 63.7942 113.819 215 226 255
27.7821 67.0436 109.227 188 210 255
160.31 174.636 110.071 201 218 255
143.561 161.08 115.547 218 228 255
89.486 129.607 118.886 222 230 255
172.261 128.032 110.363 220 229 255
106.956 44.5204 107.247 224 231 255
122.77 120.529 124.478 217 227 255
116.466 159.598 115.147 255 231 212
92.1768 124.779 99.867 206 220 255
146.869 102.264 101.274 255 241 229
131.416 151.581 119.19 232 236 255
127.944 152.008 116.065 199 216 255
154.767 127.18 111.662 216 227 255
147.933 178.164 114.47 203 219 255
116.968 86.4825 111.454 215 226 255
62.542 37.455 110.938 190 210 255
124.051 115.835 110.387 255 250 244
38.3164 82.3064 110.25 193 213 255
47.8671 103.63 112.026 224 231 255
107.255 146.711 114.257 223 231 255
36.4369 122.965 115.195 189 210 255
78.3347 84.4315 116.983 255 196 148
157.191 54.7431 111.763 195 214 255
61.5241 112.288 117.604 255 225 202
61.9658 39.2694 113.268 190 210 255
79.272 144.871 105.932 255 241 229
110.702 89.8209 125.609 228 233 255
125.471 70.0759 113.487 211 224 255
62.5904 55.197 109.34 186 208 255
116.5 130.676 106.301 205 220 255
109.446 121.542 107.345 255 241 228
158.473 194.02 111.775 201 218 255
67.9342 47.1117 114.453 185 207 255
55.4564 90.6451 107.513 198 215 255
126.232 122.861 103.44 255 235 218
174.788 125.459 112.834 216 227 255
52.6109 156.004 116.891 210 223 255
89.0372 93.1106 124.393 255 173 102
152.433 137.918 113.005 207 221 255
60.1665 104.6 105.824 222 230 255
202.944 125.14 109.896 221 230 255
192.912 174.025 112.622 185 207 255
76.1551 128.442 111.78 225 232 255
84.0808 147.251 111.96 255 219 190
91.8822 89.2436 111.28 255 255 251
120.414 123.072 99.6081 236 238 255
76.3907 143.251 107.889 255 227 205
44.5384 170.995 114.235 208 222 255
97.8437 128.643 115.776 234 237 255
146.725 148.38 117.852 255 237 221
87.4868 214.984 115.95 180 204 255
111.392 120.848 125.601 203 219 255
151.135 153.68 110.002 217 227 255
56.0482 128.703 111.489 216 226 255
75.3189 91.3651 111.725 218 228 255
100.824 113.837 127.299 255 232 213
79.7384 111.47 106.338 255 251 246
102.713 109.932 115.4 255 240 226
85.746 92.6496 109.774 255 244 234
130.52 9.24177 112.435 196 214 255
27.869 181.199 112.51 186 208 255
82.1892 124.07 113.804 244 243 255
159.544 107.545 106.712 210 223 255
102.883 77.2576 118.507 255 247 238
140.91 86.6374 120.319 255 251 245
159.865 154.022 116.666 241 241 255
151.919 158.688 111.504 197 215 255
133.776 93.8685 119.999 221 230 255
66.4054 108.372 116.035 203 219 255
153.177 195.022 111.313 202 218 255
120.013 109.774 98.056 255 228 206
27.4468 111.226 115.093 193 213 255
44.6908 187.831 108.267 184 207 255
150.649 143.166 119.368 208 222 255
92.0048 112.485 109.7 219 228 255
169.193 101.548 110.463 206 221 255
88.6895 14.1851 111.238 182 206 255
184.408 117.593 110.715 203 218 255
97.6635 110.724 120.713 255 250 244
49.3852 79.9615 111.834 199 216 255
128.224 209.176 112.197 203 219 255
106.629 24.4086 111.305 211 224 255
152.33 50.3748 115.358 191 211 255
136.722 35.012 109.952 226 233 255
83.9023 168.008 116.698 215 226 255
92.7832 114.257 125.652 255 227 205
33.9793 132.736 115.307 199 216 255
117.406 108.88 91.3572 255 207 168
135.338 105.318 116.275 255 141 27
67.9989 109.519 109.888 197 215 255
97.8166 180.289 111.247 190 211 255
107.987 173.496 109.581 189 210 255
114.639 133.159 115.006 255 167 88
99.7907 115.944 127.497 198 216 255
141.689 70.7311 112.266 255 247 239
110.45 140.473 110.955 255 200 155
53.5477 54.8671 112.019 201 217 255
96.4924 174.691 110.377 206 220 255
67.3931 68.0567 108.251 206 220 255
165.843 180.689 111.625 181 205 255
75.1171 210.755 110.882 195 214 255
30.9458 144.076 109.367 189 210 255
159.894 79.3902 111.404 222 230 255
153.365 214.085 113.768 191 211 255
128.494 110.628 114.95 255 240 227
68.4987 119.53 108.881 222 230 255
136.501 60.3589 107.797 188 210 255
109.809 108.462 95.4955 255 224 199
76.4188 100.701 104.308 216 227 255
92.2905 36.5654 109.138 203 219 255
46.1999 78.8745 114.123 188 209 255
186.35 124.434 115.837 195 214 255
73.43 39.4077 112.571 216 227 255
172.456 66.7741 113.446 195 214 255
83.567 86.3879 104.325 201 217 255
149.411 90.0121 115.373 222 230 255
95.2598 112.482 120.743 255 194 145
46.0792 157.232 110.338 208 222 255
82.4582 157.314 111.894 190 211 255
97.1591 84.0874 115.443 229 234 255
96.8355 159.308 117.028 203 219 255
158.176 44.44 114.893 176 202 255
57.179 131.457 116.251 255 250 255
122.178 115.652 100.632 255 205 166
91.2537 99.1035 122.639 228 233 255
148.923 174.214 115.266 213 224 255
49.117 108.576 110.708 187 209 255
111.878 177.031 113.194 192 212 255
94.052 174.584 111.268 206 220 255
132.236 111.946 99.9051 255 219 190
115.921 75.5649 114.769 255 229 207
112.272 65.2316 115.574 255 242 230
125.894 123.196 108.811 207 221 255
13.6296 95.2781 111.412 182 206 255
26.1322 173.409 114.57 177 203 255
43.4228 90.4158 112.334 184 207 255
71.6408 199.093 112.794 205 220 255
140.235 134.307 122.426 255 239 225
57.3987 106.104 111.225 199 216 255
78.5441 128.122 121.061 213 225 255
23.1538 58.681 111.099 182 206 255
102.555 134.696 100.913 255 231 211
177.096 125.949 112.543 189 210 255
104.15 12.4731 113.125 189 210 255
183.568 116.029 114.412 195 214 255
132.499 73.7085 119.876 218 228 255
55.3344 124.633 111.911 219 228 255
185.588 88.4226 113.449 199 216 255
121.29 98.7797 127.062 255 176 108
63.7751 134.391 110.241 224 231 255
54.3563 71.8758 114.108 187 209 255
132.147 75.699 107.654 223 230 255
99.7794 117.969 109.491 255 241 228
128.682 97.3244 106.458 198 216 255
169.661 147.355 114.437 217 227 255
190.314 83.2022 110.722 255 254 249
71.1088 148.179 111.694 193 213 255
103.3 139.924 121.805 255 187 131
113.489 147.597 116.102 233 237 255
147.788 125.953 121.93 241 241 255
141.962 156.045 113.741 198 216 255
135.485 169.494 113.648 198 215 255
75.9737 115.831 114.076 215 226 255
124.906 10.0704 111.778 186 208 255
122.946 72.0371 113.94 255 227 204
88.7117 21.1024 110.573 193 213 255
75.139 122.557 113.172 207 221 255
113.21 120.487 108.732 215 226 255
103.092 215.658 110.59 198 216 255
185.344 40.5081 111.919 196 214 255
97.8089 123.556 98.343 198 216 255
160.937 164.082 112.716 186 208 255
75.941 110.981 110.669 216 226 255
85.6092 141.152 121.63 203 219 255
74.5045 131.608 109.606 206 221 255
166.133 136.53 117.212 202 218 255
66.3132 73.5185 106.995 201 217 255
76.811 30.4876 111.644 191 211 255
78.7637 38.7046 113.847 255 208 171
155.244 122.064 116.03 232 236 255
132.714 39.3461 109.433 199 217 255
182.624 46.8546 110.766 187 208 255
78.6068 108.008 106.927 236 238 255
156.802 101.136 115.801 219 228 255
94.1898 85.71 110.597 199 216 255
148.746 67.9284 118.219 206 221 255
137.577 141.506 109.555 192 212 255
65.5688 66.2873 108.355 208 222 255
101.985 117.281 102.836 255 223 198
122.539 67.5305 113.022 255 247 239
140.811 76.7681 114.494 235 237 255
117.494 148.443 111.375 197 215 255
104.505 156.122 111.688 255 217 187
110.841 135.793 122.889 255 253 248
118.594 118.348 120.158 255 184 124
147.679 100.571 120.349 199 216 255
108.045 166.153 106.909 236 238 255
109.719 87.246 122.529 228 234 255
153.598 63.077 109.99 216 227 255
167.402 197.395 114.665 195 214 255
119.67 207.634 111.094 197 215 255
90.9956 176.353 109.767 212 224 255
54.4228 74.0435 112.378 191 211 255
93.4685 20.5571 112.261 213 224 255
148.179 129.121 111.358 211 224 255
80.2153 211.705 111.539 196 214 255
67.746 118.712 108.891 221 230 255
178.832 93.9378 115.482 199 216 255
116.867 128.54 128.958 217 227 255
101.533 137.162 104.179 246 244 255
135.447 180.087 113.13 199 216 255
130.006 172.133 108.32 190 211 255
138.467 181.405 113.86 192 212 255
128.207 186.364 108.962 200 217 255
88.4324 128.875 109.036 255 197 149
99.7218 127.273 106.207 255 253 248
133.482 99.6608 124.267 255 222 195
108.129 40.9578 112.978 186 208 255
96.701 116.569 113.872 234 237 255
82.7629 108.997 103.865 212 224 255
134.252 73.6573 116.704 202 218 255
193.458 91.684 115.934 185 208 255
98.2023 175.713 110.137 201 217 255
176.518 44.6571 113.257 177 202 255
89.4891 78.97 120.369 206 221 255
122.051 176.113 114.104 224 231 255
135.415 106.124 105.225 212 224 255
108.62 111.885 102.629 255 222 195
121.822 105.2 108.213 208 222 255
54.4903 97.5043 111.514 252 247 255
78.3052 93.8806 112.818 203 219 255
92.7087 109.548 101.946 218 228 255
62.9997 17.0608 111.036 201 217 255
137.66 31.9765 111.151 196 215 255
84.6805 64.5342 119.086 219 229 255
79.4186 109.424 106.148 246 244 255
42.5837 62.805 114.005 208 222 255
126.213 128.123 123.757 255 166 86
190.372 42.1854 114.509 192 212 255
142.105 69.2734 112.558 214 225 255
147.057 36.964 111.266 204 219 255
37.0181 120.523 113.847 224 231 255
165.749 200.011 109.425 178 203 255
128.158 87.9801 118.326 255 234 216
221.155 98.5843 114.479 189 210 255
121.508 20.8077 111.787 177 202 255
187.622 141.182 115.072 210 223 255
94.179 174.461 111.617 208 222 255
121.93 121.19 106.319 255 222 197
192.159 145.531 108.737 211 223 255
216.577 132.723 111.961 185 208 255
97.4286 150.408 106.171 221 229 255
124.179 146.241 112.564 255 253 248
58.7656 87.8023 118.303 207 221 255
196.69 97.0645 110.034 194 213 255
152.171 90.8651 117.923 233 237 255
156.18 102.03 115.871 210 223 255
39.5252 158.502 110.255 204 219 255
91.6862 94.198 106.384 255 227 204
109.748 24.5309 113.799 192 212 255
107.313 70.8965 107.532 218 228 255
103.212 122.679 94.6576 234 237 255
106.515 99.5452 129.233 228 233 255
120.559 57.3809 106.044 219 229 255
125.994 75.2604 106.168 255 227 205
107.595 95.5115 111.57 255 246 237
141.124 102.565 113.317 255 234 217
154.599 56.9916 108.764 194 213 255
108.955 127.903 127.316 220 229 255
35.9177 109.469 110.094 211 223 255
53.6462 64.6805 104.46 198 216 255
180.574 99.0592 112.505 195 214 255
20.3816 122.437 111.219 217 227 255
86.5311 111.996 117.613 217 227 255
101.26 16.4194 102.24 190 211 255
136.043 151.885 115.059 215 226 255
128.561 85.4126 105.547 198 216 255
114.844 147.449 109.896 230 235 255
107.663 73.4025 118.831 209 222 255
130.248 154.911 104.715 221 229 255
47.0396 92.5625 111.13 192 212 255
119.252 105.829 119.641 206 220 255
105.684 127.685 100.749 255 244 233
94.3807 96.8078 125.886 220 229 255
119.04 112.461 119.634 216 226 255
159.194 92.5676 116.52 189 210 255
63.5691 116.266 117.892 205 220 255
94.1389 174.423 111.392 195 214 255
101.879 81.1294 123.839 198 216 255
202.439 94.2872 111.154 198 216 255
131.318 107.697 114.935 226 233 255
21.3567 100.024 112.92 196 215 255
204.351 129.18 111.801 187 209 255
165.4 15.581 111.365 192 212 255
93.4006 143.594 114.66 255 190 136
137.42 65.5837 110.264 206 221 255
71.424 119.786 112.94 234 237 255
104.097 120.686 116.816 238 239 255
94.8267 101.827 116.07 255 241 229
184.784 159.845 117.127 202 218 255
154.833 81.2417 107.278 200 217 255
154.419 75.2631 118.593 197 215 255
140.746 71.432 123.526 210 223 255
171.83 84.5179 117.913 191 211 255
188.287 117.752 109.766 194 213 255
195.1 108.223 115.355 184 207 255
128.267 77.5892 123.466 215 226 255
37.6202 74.6673 108.185 179 204 255
127.563 51.0053 107.224 199 216 255
94.0747 174.608 111.262 210 223 255
78.3686 131.01 120.462 255 252 248
199.145 84.6574 112.207 209 222 255
177.663 158.904 112.268 185 207 255
104.568 53.3835 110.686 184 207 255
182.958 138.553 111.573 196 215 255
160.721 190.911 111.962 197 215 255
114.09 146.216 101.959 212 224 255
116.791 66.1888 112.013 215 226 255
167.011 121.039 115.892 204 219 255
91.9136 171.65 110.098 203 219 255
87.6902 205.947 113.775 195 214 255
171.63 154.088 112.731 237 239 255
90.5525 174.996 109.471 208 222 255
125.339 125.594 118.157 206 221 255
94.0322 174.635 111.107 202 218 255
58.9415 137.291 112.862 255 247 239
159.66 126.268 112.447 255 249 243
64.1604 122.02 106.547 204 219 255
51.1613 152.684 112.538 208 222 255
52.26 115.87 115.256 255 242 230
88.4585 93.3543 114.487 255 250 243
27.2899 78.8512 115.624 191 211 255
123.493 161.863 114.197 255 206 167
78.6417 90.2169 118.814 202 218 255
157.228 139.827 112.901 224 231 255
82.561 120.944 120.468 255 166 87
155.086 77.889 111.89 202 218 255
67.6311 78.7635 115.05 203 219 255
146.635 31.33 108.952 225 232 255
117.028 68.5035 115.043 204 219 255
119.217 126.72 118.831 255 231 212
148.072 154.369 118.05 215 226 255
12.8861 72.5603 113.404 181 205 255
157.332 88.6137 117.85 244 243 255
87.2694 94.462 106.375 212 224 255
93.9795 174.529 111.304 189 210 255
130.258 196.114 117.54 188 210 255
97.5058 93.9919 126.105 255 244 234
62.1228 134.408 119.106 188 209 255
130.616 95.1711 107.834 231 235 255
93.9336 103.289 105.485 255 207 168
93.9577 174.695 111.138 255 246 237
47.8693 38.9265 113.413 243 242 255
112.514 33.3991 114.574 252 247 255
97.2423 82.3055 121.017 255 243 232
123.713 83.4274 105.381 213 224 255
143.096 118.733 118.737 243 242 255
173.041 82.671 108.576 198 215 255
180.433 27.9465 110.888 179 203 255
108.92 118.785 100.515 255 238 224
73.8253 121.045 107.277 215 226 255
99.8091 79.4334 104.147 247 244 255
174.797 116.831 113.982 199 216 255
91.0816 90.7728 112.621 240 240 255
39.9789 46.0643 111.33 185 207 255
79.4085 68.4046 110.823 198 215 255
65.3411 84.8047 106.605 230 235 255
72.7955 106.162 114.407 255 243 233
94.8741 46.9908 116.246 217 227 255
129.801 163.123 111.558 185 207 255
136.086 103.966 102.736 213 225 255
85.3687 33.7194 111.588 180 204 255
140.948 90.9201 113.654 255 217 186
95.8356 64.8192 106.403 221 230 255
136.478 99.3389 104.14 201 217 255
118.854 57.217 110.145 255 236 219
132.867 19.9708 113.369 188 210 255
96.5477 173.396 110.656 196 215 255
111.346 60.2867 117.008 234 237 255
97.5471 84.0137 103.484 225 232 255
106.458 169.775 114.742 194 213 255
111.462 131.328 109.229 228 233 255
147.79 64.797 118.601 213 225 255
99.7202 127.52 107.709 236 238 255
125.381 95.1866 104.019 208 222 255
118.304 134.178 121.155 248 245 255
87.7571 77.3063 104.047 200 217 255
94.2741 174.664 111.169 190 210 255
46.0316 146.616 110.827 212 224 255
101.387 147.825 110.186 255 252 247
49.0629 95.5371 111.221 228 234 255
162.817 92.4518 115.732 248 245 255
210.005 146.618 113.066 187 209 255
170.533 138.344 115.404 249 246 255
103.349 167.1 109.418 233 236 255
86.6885 183.189 111.927 194 213 255
22.8319 91.5201 109.176 191 211 255
169.938 31.4232 115.44 194 213 255
144.205 78.4516 121.032 205 220 255
110.823 14.4383 112.518 191 211 255
131.612 63.6706 109.414 217 227 255
197.773 47.7973 112.747 184 207 255
117.552 121.284 116.132 255 229 208
125.156 123.099 106.103 255 250 244
128.997 79.0664 116.019 255 243 232
83.5987 100.355 106.716 235 238 255
81.3769 127.123 104.629 216 227 255
149.889 154.546 114.862 239 240 255
117.862 38.1092 110.686 185 208 255
108.946 137.807 116.613 226 232 255
58.1809 100.638 111.447 225 232 255
14.7977 114.947 110.724 213 225 255
181.959 62.8768 111.062 193 213 255
93.2433 141.799 101.022 228 233 255
127.353 112.554 113.759 255 222 196
83.9856 95.9052 118.411 235 237 255
116.125 131.634 123.256 255 238 223
117.537 59.1075 116.049 204 219 255
148.925 155.924 113.674 255 249 255
101.612 128.964 103.815 197 215 255
149.635 110.533 121.265 216 227 255
84.8601 130.198 101.587 195 214 255
47.9351 101.429 114.815 200 217 255
117.265 75.8588 124.005 209 222 255
152.734 111.19 111.031 232 236 255
147.216 120.462 106.454 221 230 255
103.612 159.248 114.049 219 228 255
49.9734 95.2384 115.175 221 230 255
87.7545 30.5439 113.751 187 209 255
123.801 83.139 117.044 255 253 248
74.6352 145.582 111.365 205 220 255
128.07 166.193 119.214 202 218 255
109.194 155.202 115.598 255 244 234
130.751 154.621 106.117 192 212 255
122.568 7.96456 109.267 195 214 255
119.589 91.1015 116.655 255 250 244
199.094 70.6518 111.854 218 227 255
90.4212 107.92 106.127 201 217 255
122.821 139.883 107.931 199 216 255
131.25 154.171 104.349 209 223 255
154.872 68.0904 110.02 221 229 255
136.468 68.9967 117.077 203 218 255
33.4348 149.316 113.312 191 211 255
73.6434 144.727 114.89 251 247 255
112.098 111.86 124.871 222 230 255
141.046 79.8231 104.571 255 205 166
101.746 81.505 105.381 240 240 255
104.183 143.814 101.001 205 220 255
172.558 119.681 104.933 255 242 231
136.163 80.5837 103.826 238 239 255
90.5584 163.785 115.008 194 213 255
205.513 168.344 110.402 183 206 255
134.143 140.068 106.615 255 231 211
174.34 130.405 114.805 205 220 255
56.3759 178.709 109.845 205 220 255
75.9411 113.61 103.213 248 245 255
28.1991 122.005 111.009 187 209 255
93.6531 174.715 111.231 189 210 255
122.785 96.0771 107.01 255 187 131
123.17 166.718 114.049 204 219 255
87.4452 94.951 103.281 255 253 248
134.688 102.039 112.054 227 233 255
93.7569 174.378 111.04 218 228 255
44.927 80.6855 114.412 195 214 255
91.3179 132.235 121.259 216 226 255
145.148 115.318 118.314 224 231 255
133.357 138.173 113.844 243 242 255
76.5614 34.6816 111.862 198 216 255
112.213 88.8167 115.807 224 231 255
85.2471 82.9118 116.015 255 220 192
104.129 90.9425 102.069 255 180 117
127.683 102.657 114.9 255 251 245
201.927 116.642 113.575 201 217 255
92.9058 175.52 110.041 197 215 255
102.999 114.483 115.684 255 226 203
143.5 53.1064 110.837 202 218 255
78.1954 69.5221 112.428 192 212 255
142.123 204.82 114.04 186 208 255
157.91 181.819 109.952 181 205 255
72.808 65.7297 113.849 188 209 255
150.151 183.779 113.018 200 217 255
8.61929 143.149 112.34 190 211 255
158.846 37.4493 112.076 196 214 255
86.6474 119.861 122.143 255 213 179
96.1612 72.4505 120.952 255 239 226
98.4218 80.321 114.478 255 217 186
121.329 59.8003 107.888 215 226 255
94.9453 189.798 114.086 186 208 255
108.532 97.3173 108.112 255 221 194
120.589 129.156 125.595 235 237 255
130.484 168.881 116.092 189 210 255
120.137 41.089 110.734 196 215 255
166.376 141.085 118.031 255 249 241
66.8421 94.8081 116.842 202 218 255
101.226 16.7027 112.106 212 224 255
67.3367 65.1907 113.851 247 244 255
124.441 19.3491 115.243 194 213 255
139.352 13.6485 111.923 187 208 255
89.2204 132.681 116.268 210 223 255
119.67 116.399 98.8296 255 208 170
162.248 87.8212 113.83 208 221 255
158.257 70.2803 106.708 198 216 255
68.0385 124.069 117.942 221 230 255
158.69 117.874 107.373 255 250 244
121.537 45.8313 116.068 242 241 255
96.0411 146.258 121.229 210 223 255
149.602 113.2 111.344 202 218 255
145.763 145.464 103.48 251 247 255
115.164 50.9512 115.672 196 214 255
121.331 118.32 97.7294 224 231 255
114.304 86.8928 110.59 247 244 255
103.778 81.1033 116.368 255 251 245
116.759 159.683 118.385 214 225 255
92.197 71.0638 113.267 205 220 255
173.974 56.386 115.681 188 210 255
26.3257 126.058 112.954 255 253 249
154.182 155.69 107.791 212 224 255
90.5064 114.461 101.86 219 228 255
44.8506 178.116 111.384 197 215 255
48.8171 100.64 108.372 198 215 255
207.051 68.4521 109.75 197 215 255
45.8505 139.093 109.864 195 214 255
48.5854 30.3959 113.668 192 212 255
131.031 197.223 110.176 198 216 255
150.245 80.7437 110.621 247 244 255
136.748 65.4144 109.27 203 218 255
166.864 163.362 114.931 192 212 255
144.104 178.031 115.097 194 213 255
87.1739 116.334 101.564 234 237 255
121.233 209.305 110.77 194 213 255
212.662 144.756 112.643 192 212 255
46.6514 128.27 113.164 255 251 246
120.603 95.4115 109.215 226 232 255
2.92441 111.268 114.021 190 211 255
120.309 72.5305 112.205 255 247 238
135.362 94.5814 110.959 255 250 255
30.2657 50.9177 112.263 202 218 255
100.044 79.093 101.066 255 246 236
108.754 28.3657 114.802 203 219 255
47.4292 90.165 111.962 223 231 255
30.6229 172.983 113.809 190 211 255
63.2942 66.6779 115.744 223 231 255
30.8669 183.766 112.482 185 207 255
125.356 115.925 125.542 220 229 255
111.902 115.921 99.397 225 232 255
113.46 102.072 94.4231 255 196 148
78.5964 158.386 107.418 255 250 244
58.957 127.388 113.583 255 251 245
135.326 101.262 119.524 255 244 234
79.988 95.9433 120.687 255 240 227
162.19 33.465 109.546 202 218 255
66.2108 58.7251 109.16 217 227 255
40.3271 106.751 113.168 200 217 255
123.025 179.659 113.857 194 213 255
56.5851 93.2447 116.445 207 221 255
70.5164 175.413 114.929 190 211 255
113.128 143.57 113.925 255 245 236
127.209 57.7303 107.488 255 242 230
138.85 114.874 115.906 203 219 255
118.173 106.511 130.272 220 229 255
101.232 87.5091 117.548 255 235 218
27.3083 106.102 109.042 190 211 255
90.9107 131.469 111.422 213 225 255
146.076 172.493 115.511 199 217 255
89.5749 174.649 113.125 194 213 255
121.593 126.918 106.417 255 252 247
124.699 71.0336 110.577 232 236 255
88.0528 93.5719 99.8758 210 223 255
16.4148 160.504 114.608 189 210 255
91.039 104.78 106.188 222 230 255
19.0718 96.7062 113.108 196 214 255
94.3638 53.2332 118.684 242 242 255
76.9174 126.604 115.071 199 216 255
131.436 124.041 115.563 255 212 178
77.7296 125.065 104.571 221 229 255
123.585 54.7986 117.527 224 231 255
127.156 26.7036 110.724 185 208 255
93.8896 174.584 111.256 197 215 255
88.8282 36.5906 108.305 217 227 255
90.4521 153.893 117.099 218 228 255
92.143 92.729 119.366 217 227 255
174.21 72.863 113.846 196 214 255
89.9955 137.358 121.8 220 229 255
145.833 74.2997 115.957 226 233 255
160.827 90.736 109.782 216 226 255
200.104 179.285 114.03 178 203 255
45.0613 161.238 111 255 249 241
135.079 129.911 111.161 255 199 153
39.592 142.037 107.39 191 211 255
48.1885 167.149 115.183 225 232 255
83.9309 99.3114 120.703 255 239 226
102.784 134.807 120.528 200 217 255
134.558 130.424 106.724 255 243 232
131.1 67.0524 105.429 207 221 255
119.897 103.101 102.138 216 227 255
55.3069 135.35 112.045 255 239 225
33.228 100.581 110.51 185 208 255
171.185 91.4369 112.905 206 221 255
31.6621 138.546 114.477 190 211 255
168.345 75.1894 111.338 214 225 255
78.8063 132.588 118.721 209 223 255
204.338 103.711 113.186 194 213 255
121.423 116.623 115.677 255 156 63
160.069 138.817 113.02 210 223 255
168.205 138.712 107.699 203 218 255
99.7519 126.689 119.927 255 249 255
124.403 49.9679 114.13 187 209 255
91.4778 101.444 123.824 216 226 255
149.198 65.5336 114.759 220 229 255
74.8067 140.933 111.063 255 240 227
90.341 87.9086 108.198 255 253 248
171.084 113.649 108.99 181 205 255
111.484 91.0391 123.493 255 226 204
186.079 26.8621 112.814 196 215 255
132.994 173.234 112.34 199 216 255
215.879 114.134 112.691 180 204 255
183.687 145.028 114.016 196 214 255
52.3592 121.942 111.397 207 221 255
99.918 90.4225 103.953 255 249 255
134.23 94.3649 120.199 255 243 231
115.069 90.6776 101.291 255 243 232
97.3099 173.301 110.442 228 233 255
46.6752 130.043 116.293 186 208 255
78.7698 161.875 117.832 197 215 255
118.455 66.386 119.656 222 230 255
164.628 34.4086 111.736 193 212 255
92.121 141.756 110.102 227 233 255
182.977 41.1709 111.423 195 214 255
128.07 122.409 111.649 255 197 150
110.523 113.073 95.3681 236 238 255
156.053 102.38 121.134 228 233 255
143.552 76.3247 118.922 230 235 255
144.196 86.2355 112.536 214 225 255
93.3659 174.624 111.224 201 218 255
94.9423 57.4225 108.704 209 223 255
115.777 127.115 112.448 255 172 99
117.463 162.072 117.342 255 243 231
126.627 78.6755 114.592 244 243 255
145.066 97.7228 108.084 255 163 79
119.004 98.7229 110.387 255 199 154
102.25 58.2285 115.882 204 219 255
133.552 58.415 112.339 199 216 255
154.669 157.164 114.286 197 215 255
123.61 167.945 109.171 255 242 229
54.3824 156.966 113.261 229 234 255
54.4898 106.669 116.933 199 216 255
106.037 147.029 120.903 223 231 255
127.762 88.8057 115.052 233 237 255
156.26 116.434 110.586 227 233 255
102.363 115.091 112.026 255 201 158
94.0023 174.609 111.186 201 218 255
121.648 47.0437 110.214 255 242 231
98.7885 168.079 110.37 203 218 255
77.2537 127.723 113.759 255 250 243
181.089 23.9419 111.243 195 214 255
110.62 195.574 113.451 190 210 255
104.53 113.293 94.6397 213 225 255
61.1566 61.7674 108.832 216 226 255
82.788 27.9469 109.831 188 209 255
103.477 150.376 114.301 198 216 255
56.4612 132.243 117.846 207 221 255
79.8763 144.119 107.549 202 218 255
130.029 86.7652 105.798 243 242 255
83.8043 82.6718 111.037 197 215 255
94.7045 62.7728 106.873 216 226 255
89.3282 79.0867 114.171 204 219 255
122.843 108.134 96.462 218 227 255
93.9622 174.753 111.018 211 224 255
88.0264 127.621 115.291 196 215 255
49.5318 84.3302 113.599 255 207 169
140.644 150.753 111.083 205 220 255
93.2595 37.2981 114.299 208 222 255
88.5309 87.8776 102.344 242 241 255
129.397 80.5506 101.625 201 218 255
94.7797 131.637 122.886 224 231 255
193.653 92.9772 111.356 190 211 255
203.098 118.773 112.412 207 221 255
79.9256 124.443 123.942 255 244 234
83.7345 126.237 122.217 250 246 255
34.0216 83.7377 111.408 194 213 255
80.9849 118.735 118.3 255 251 246
71.4371 85.43 114.561 242 241 255
78.6272 93.0392 116.228 233 237 255
124.996 165.701 105.604 220 229 255
144.068 141.557 118.771 225 232 255
86.2932 71.1246 119.427 255 252 246
82.5643 38.6895 114.062 191 211 255
80.2543 130.989 104.832 194 213 255
81.4339 31.285 110.189 232 236 255
33.8728 121.194 116.198 232 236 255
46.1679 95.9554 109.373 190 211 255
168.287 107.223 112.703 255 249 242
38.2507 123.527 115.003 206 221 255
79.8527 61.0033 110.68 219 228 255
76.2324 165.427 110.317 201 217 255
75.1331 139.308 117.345 230 234 255
103.54 131.62 109.679 202 218 255
201.228 123.524 112.21 196 214 255
81.8293 106.111 108.236 212 224 255
