ply
format ascii 1.0
element vertex 1342
property float x
property float y
property float z
property uchar red
property uchar green
property uchar blue
end_header
101.685 130.542 114.144 223 231 255
128.264 115.551 110.097 221 229 255
126.737 125.544 108.367 255 246 237
122.301 84.8676 108.582 255 242 230
110.182 130.642 111.493 205 220 255
111.092 131.823 105.774 222 230 255
93.7575 173.339 110.968 199 216 255
106.927 106.005 111.222 255 149 47
72.1718 73.2942 112.011 254 248 255
105.946 106.417 101.04 255 213 180
98.7731 38.461 106.595 194 213 255
111.989 123.808 131.443 255 233 214
72.8463 14.6241 96.3919 185 208 255
107.937 160.488 108.689 255 222 195
126.397 8.62608 119.518 193 212 255
96.0104 4.69519 118.609 199 216 255
83.9717 36.9912 103.038 195 214 255
7.99339 125.232 112.563 206 221 255
65.469 77.6904 110.808 212 224 255
125.952 77.6547 122.659 202 218 255
75.637 41.1511 98.5735 202 218 255
114.848 86.2969 126.818 253 248 255
129.699 171.575 105.88 231 235 255
63.7346 165.882 115.955 255 211 176
138.83 73.3236 141.342 213 225 255
39.0572 92.9807 112.205 209 222 255
105.256 115.767 120.835 255 240 227
172.578 219.334 133.622 183 206 255
93.7486 173.343 110.965 194 213 255
169.361 54.2956 116.075 191 211 255
128.277 113.56 108.274 210 223 255
124.635 116.825 106.36 255 242 230
93.7765 173.331 110.974 212 224 255
73.9946 51.7085 94.3888 255 217 187
74.7698 187.038 112.895 202 218 255
106.185 103.915 112.473 255 223 197
113.136 82.5061 110.841 221 229 255
89.648 141.923 114.666 192 212 255
109.259 112.65 118.952 255 127 0
102.77 95.3136 86.9593 197 215 255
100.574 28.544 112.111 204 219 255
159.203 123.073 118.969 200 217 255
14.4354 173.233 110.546 181 205 255
24.3314 123.3 112.962 189 210 255
118.506 118.293 112.08 255 238 223
115.35 92.7989 122.892 193 213 255
25.7068 156.133 109.7 188 209 255
33.6391 95.9855 68.3405 255 253 249
111.251 141.113 107.156 210 223 255
93.7465 173.344 110.964 189 210 255
113.59 74.001 114.28 203 219 255
142.445 96.1121 119.036 242 241 255
29.6028 80.8826 116.656 178 203 255
132.328 88.8263 104.919 217 227 255
120.871 152.974 103.106 188 210 255
110.262 135.185 99.7812 255 178 113
129.677 122.142 124.344 255 249 241
83.9065 23.9983 112.449 198 216 255
76.2176 185.315 92.7119 255 205 164
106.134 100.79 115.575 221 229 255
93.7492 173.342 110.965 197 215 255
91.0063 205.74 118.097 226 232 255
145.54 100.779 108.089 189 210 255
93.2189 141.761 102.731 207 221 255
60.167 188.243 111.689 206 221 255
188.42 105.874 134.975 255 220 193
95.1404 184.571 102.387 215 226 255
139.775 84.5088 118.238 255 253 249
99.5982 94.4542 109.535 210 223 255
128.625 123.506 121.963 255 244 233
80.2885 130.939 126.514 199 216 255
93.7653 173.336 110.97 255 238 224
131.73 172.889 113.926 188 209 255
220.884 14.0661 68.3439 255 254 251
55.4714 127.9 110.131 255 253 248
113.252 135.85 114.694 252 247 255
64.7265 126.486 162.132 206 220 255
101.702 72.7913 115.712 200 217 255
123.426 68.8397 111.628 200 217 255
116.133 53.9922 119.949 188 209 255
94.8581 172.868 111.149 207 221 255
93.745 173.344 110.964 255 247 239
169.86 6.35712 109.466 197 215 255
108.349 104.584 110.808 255 0 0
78.3964 83.6925 109.325 228 234 255
31.8807 212.39 109.105 188 209 255
12.2214 194.102 105.516 191 211 255
102.876 133.425 106.078 228 234 255
75.3339 85.2166 109.596 232 236 255
79.7702 94.4277 112.176 184 207 255
126.681 107.507 109.383 230 235 255
123.39 115.725 125.388 255 242 230
144.66 97.546 119.577 195 214 255
91.9067 223.311 123.203 197 215 255
108.471 107.591 115.217 227 233 255
92.7813 173.642 110.923 246 244 255
117.213 140.283 106.533 255 217 186
93.8684 173.295 111 255 249 242
118.646 128.856 120.324 255 196 147
114.085 82.1736 111.734 223 231 255
115.176 89.9093 127.248 211 224 255
160.49 142.404 109.392 255 249 241
21.5965 164.139 112.366 215 226 255
92.4694 173.981 110.714 203 218 255
69.345 81.5592 113.568 255 255 251
116.359 127.215 114.331 255 242 230
162.498 103.443 68.3845 215 226 255
93.7323 173.35 110.959 218 228 255
93.8183 173.315 110.983 209 222 255
3.71511 93.8514 109.567 210 223 255
113.546 158.254 113.615 190 210 255
86.1566 185.284 107.551 203 219 255
95.2586 63.0069 114.547 221 230 255
143.691 97.6217 116.698 199 216 255
114.881 113.193 98.2479 255 252 248
108.92 94.224 118.873 216 227 255
114.525 120.566 97.4973 255 209 172
99.5599 121.316 103.132 255 215 184
123.32 118.721 103.981 255 228 206
129.817 115.361 125.708 222 230 255
95.2355 166.515 106.706 212 224 255
108.518 96.7196 121.419 212 224 255
93.7413 173.346 110.962 208 222 255
155.922 119.821 107.47 255 211 177
109.581 101.373 118.046 255 219 190
93.6257 173.38 110.927 235 238 255
188.832 146.76 117.559 180 204 255
93.7455 173.344 110.964 208 222 255
133.465 93.7863 105.326 222 230 255
49.6475 40.7484 124.978 207 221 255
128.702 192.159 88.8256 182 205 255
118.39 129.246 115.225 229 234 255
55.2511 193.561 112.955 212 224 255
62.8522 76.4729 101.304 216 226 255
141.384 102.03 113.333 204 219 255
78.5436 145.935 113.222 219 228 255
125.384 153.932 106.046 206 220 255
87.6194 73.617 33.5654 194 213 255
137.268 122.845 111.064 213 225 255
104.447 104.54 111.232 225 232 255
142.257 93.3705 117.566 197 215 255
128.304 135.782 117.059 255 234 217
93.6965 173.368 110.945 210 223 255
7.48215 194.445 73.1346 206 221 255
87.6067 80.3207 111.801 224 231 255
71.0154 160.868 114.83 204 219 255
111.734 120.199 107.167 205 220 255
121.185 84.4144 107.716 222 230 255
92.8487 137.943 110.04 230 235 255
114.721 126.503 106.484 255 245 236
93.7687 173.334 110.971 222 230 255
116.232 102.259 103.171 255 246 236
93.7717 173.333 110.972 244 243 255
136.149 64.9814 113.749 202 218 255
111.654 143.52 105.945 255 220 193
138.295 202.658 117.428 191 211 255
149.635 104.732 111.985 241 241 255
116.137 70.7907 118.575 183 206 255
148.124 89.8121 136.907 197 215 255
95.4941 160.153 111.3 227 233 255
114.448 88.882 86.4311 255 221 194
119.018 132.334 99.2182 255 223 197
31.5546 43.9639 114.758 183 206 255
101.603 83.9351 114.246 205 220 255
116.706 157.463 121.013 239 240 255
126.93 120.778 117.445 255 254 250
119.419 90.1585 135.772 224 231 255
91.5809 174.379 109.065 216 226 255
110.015 147.156 116.04 189 210 255
122.999 155.921 109.396 196 215 255
111.201 112.923 121.606 223 231 255
116.769 88.9508 111.148 255 244 234
181.244 15.9273 106.129 229 234 255
114.45 98.4127 119.288 255 239 225
169.783 136.373 111.584 255 233 214
123.747 203.777 43.057 255 254 250
114.374 114.081 113.117 219 228 255
97.1796 99.3553 117.6 223 231 255
93.6942 173.362 110.945 255 246 238
93.7444 173.345 110.963 198 215 255
115.109 79.2468 126.667 207 221 255
101.395 86.0789 110.217 255 249 242
112.475 106.408 108.918 255 254 250
122.917 106.544 115.334 210 223 255
127.13 82.2324 111.722 201 217 255
178.759 93.2761 126.926 255 250 255
110.619 203.136 127.277 195 214 255
113.217 87.4162 120.839 203 219 255
62.2627 105.131 99.8923 186 208 255
138.475 161.859 114.26 182 206 255
93.7454 173.344 110.964 218 228 255
117.557 99.104 119.721 229 234 255
103.347 178.102 112.646 184 207 255
152.72 103.216 101.095 195 214 255
100.885 163.304 107.935 241 241 255
93.8127 173.317 110.984 255 242 230
93.745 173.344 110.964 194 213 255
59.819 116.915 115.232 221 230 255
43.4481 148.967 113.185 195 214 255
1.42253 109.603 116.938 179 203 255
58.5215 50.9651 94.7732 200 217 255
149.078 85.8745 107.097 207 221 255
93.7468 173.344 110.964 222 230 255
93.6951 173.375 110.94 202 218 255
121.129 107.04 120.915 255 251 246
134.407 108.157 115.505 210 223 255
130.966 124.264 114.453 223 231 255
118.739 151.15 99.1328 205 220 255
132.76 115.44 113.044 255 246 238
138.004 3.49891 109.927 209 222 255
90.4421 164.978 115.847 201 217 255
93.7359 173.349 110.96 216 226 255
150.843 145.188 103.086 190 211 255
15.1529 55.2626 107.872 185 207 255
118.928 105.4 118.443 255 170 96
94.5207 170.399 114.533 250 246 255
49.6547 67.8662 101.123 237 239 255
120.281 91.6724 115.372 255 250 255
101.661 134.271 102.815 237 239 255
93.7625 173.337 110.97 198 216 255
182.487 151.645 101.646 236 238 255
109.8 107.11 113.942 211 223 255
133.882 33.0747 111.845 211 223 255
80.4764 55.1619 111.293 200 217 255
113.857 154.745 110.49 217 227 255
104.671 168.816 113.06 201 217 255
89.5297 131.975 113.703 194 213 255
93.7289 173.405 110.719 213 225 255
137.633 90.2073 109.426 255 251 246
93.7414 173.346 110.962 201 218 255
93.7177 173.357 110.953 205 220 255
113.168 103.075 105.749 200 217 255
127.616 114.907 116.146 219 228 255
114.923 103.791 121.079 255 238 223
95.4523 132.594 115.823 214 225 255
190.098 72.0037 117.258 176 202 255
136.784 117.783 119.145 202 218 255
69.6905 123.243 111.076 222 230 255
52.0584 69.3282 135.484 197 215 255
51.67 71.1161 109.943 189 210 255
138.986 162.715 113.437 201 217 255
78.6412 164.052 109.326 255 243 232
192.05 86.7862 106.888 186 208 255
143.935 76.4017 85.5437 210 223 255
57.9045 100.455 129.215 202 218 255
71.3484 126.857 112.866 203 218 255
101.966 104.174 105.591 209 222 255
93.763 173.337 110.97 203 219 255
93.7929 173.324 110.979 196 215 255
93.7977 173.323 110.98 209 222 255
114.879 166.336 107.165 208 222 255
124.695 134.991 105.298 255 233 215
79.3768 146.848 114.236 245 243 255
79.0811 127.007 149.362 189 210 255
121.245 121.483 108.601 220 229 255
101.28 28.367 99.5122 192 212 255
92.9089 173.3 110.977 191 211 255
192.995 55.5717 113.739 197 215 255
94.0527 173.214 110.978 204 219 255
114.061 100.864 107.163 255 228 206
35.5059 52.2919 158.219 195 214 255
125.084 87.5126 107.655 222 230 255
107.045 84.8362 116.879 218 228 255
114.87 124.422 110.848 231 235 255
113.529 97.6529 115.005 255 253 249
74.7133 63.2216 110.588 188 210 255
146.214 98.6107 132.925 190 211 255
91.3568 56.4218 113.684 194 213 255
123.493 83.7076 103.129 255 246 237
118.377 112.647 90.7038 226 232 255
93.7479 173.343 110.965 255 247 238
110.478 93.1601 113.453 225 232 255
64.3405 188.637 111.682 199 216 255
98.5884 32.721 103.463 190 211 255
73.8775 162.781 111.323 194 213 255
103.49 133.3 103.57 204 219 255
112.074 88.5081 99.713 226 232 255
100.127 127.458 130.435 255 208 170
72.8742 160.145 94.9827 224 231 255
75.7115 140.52 101.862 217 227 255
73.6733 140.443 115.06 220 229 255
91.0153 70.4705 113.102 229 234 255
81.2898 166.388 117.517 216 227 255
141.117 92.8155 111.506 217 227 255
67.041 69.5813 102.036 187 209 255
110.52 140.583 106.858 255 192 141
93.8593 173.304 110.997 210 223 255
123.661 124.668 107.995 234 237 255
72.3527 150.123 116.537 200 217 255
147.658 118.654 108.834 229 234 255
108.915 104.806 97.7207 255 252 247
74.7558 66.5867 111.838 255 254 251
43.6932 168.007 111.236 209 222 255
177.226 50.6781 110.043 255 238 223
113.734 82.0445 112.242 201 217 255
100.695 113.438 104.118 219 228 255
126.566 77.677 110.354 215 226 255
115.722 126.695 117.314 207 221 255
93.7675 173.335 110.971 199 216 255
62.9432 91.1968 114.054 183 206 255
93.6638 173.447 110.937 203 218 255
93.9642 173.235 110.915 255 253 249
93.7144 173.355 110.943 255 249 255
98.4801 119.14 113.883 195 214 255
93.7311 173.351 110.959 197 215 255
132.229 127.965 112.56 255 245 235
108.47 143.868 105.604 212 224 255
124.567 151.176 131.007 213 225 255
40.5494 118.174 76.8633 213 225 255
88.2018 88.5691 117.405 197 215 255
70.7066 98.9007 109.397 203 219 255
120.187 118.191 109.433 255 233 215
93.7354 173.352 110.854 200 217 255
155.207 145.106 118.844 195 214 255
41.7698 92.7256 107.891 255 252 246
123.486 133.841 100.804 255 253 248
95.9941 100.487 111.092 233 236 255
51.8624 28.4523 140.341 192 212 255
62.348 104.648 112.433 189 210 255
160.318 145.228 110.987 255 126 0
194.909 82.9659 110.26 211 223 255
144.487 95.3995 109.554 193 212 255
141.994 97.6843 118.915 201 217 255
115.185 117.666 109.23 255 247 239
43.3164 115.872 114.462 185 207 255
171.196 99.1451 132.678 255 250 255
40.27 58.9743 114.21 180 204 255
132.796 171.307 111.167 214 226 255
69.8497 154.451 131.803 228 233 255
163.673 145.528 109.093 197 215 255
82.0849 125.105 109.086 248 245 255
109.068 37.7202 117.1 190 210 255
113.669 105.231 127.298 236 238 255
108.997 100.138 102.708 255 187 130
128.678 86.9248 112.131 194 213 255
108.751 141.815 114.752 255 225 201
86.243 174.177 105.789 217 227 255
84.8922 25.5261 88.0976 219 228 255
104.733 151.072 105.707 234 237 255
108.641 107.5 118.801 238 239 255
98.5291 175.16 126.417 198 215 255
106.31 206.212 125.163 197 215 255
109.508 120.41 118.126 209 223 255
137.242 89.4291 125.323 207 221 255
112.585 129.458 112.324 255 249 255
101.905 184.087 109.598 198 216 255
97.9084 171.102 109.623 203 218 255
164.406 29.6099 116.279 192 212 255
55.8795 104.023 114.509 215 226 255
93.7688 173.334 110.972 217 227 255
109.516 91.2635 123.359 212 224 255
137.931 119.537 111.231 222 230 255
112.445 136.389 102.717 255 221 194
54.951 204.992 111.268 181 205 255
117.915 166.463 106.536 204 219 255
92.2409 188.674 111.697 202 218 255
89.0673 128.761 112.557 204 219 255
121.983 122.994 115.337 209 222 255
55.6578 72.6734 112.874 195 214 255
114.771 126.054 113.214 189 210 255
93.7508 173.342 110.966 186 208 255
86.5854 166.365 109.869 255 249 255
208.625 90.26 109.381 180 204 255
119.03 103.864 102.531 230 235 255
93.782 173.329 110.975 189 210 255
73.5578 193.151 111.882 184 207 255
114.402 122.969 113.101 197 215 255
167.433 173.378 99.164 191 211 255
98.6955 108.011 110.953 214 225 255
110.663 76.9665 122.936 210 223 255
103.468 125.233 115.458 211 223 255
44.7369 86.8937 107.048 213 225 255
175.036 25.4405 109.559 205 220 255
132.289 24.053 111.964 191 211 255
90.9396 192.379 95.5963 200 217 255
63.9905 41.6249 102.691 200 217 255
93.8982 173.291 111.006 214 225 255
151.886 107.808 97.4899 206 220 255
116.722 127.405 124.229 246 244 255
107.284 119.194 102.745 199 216 255
75.3318 141.841 99.402 191 211 255
117.706 179.884 112.938 199 216 255
184.915 2.51541 116.983 192 212 255
116.249 139.314 108.452 207 221 255
90.6837 170.124 106.883 197 215 255
113.532 122.79 108.388 249 246 255
125.652 186.974 116.15 198 215 255
129.379 124.147 116.133 217 227 255
93.7388 173.347 110.961 191 211 255
59.2354 84.2582 113.577 192 212 255
103.992 180.283 108.968 219 228 255
126.895 143.534 122.411 255 247 239
94.291 173.696 110.908 196 215 255
61.7185 93.9191 124.989 197 215 255
93.7447 173.345 110.964 217 227 255
128.686 18.5423 109.433 211 223 255
101.22 136.225 112.151 204 219 255
0.783516 129.965 113.692 189 210 255
210.829 8.94074 113.583 191 211 255
93.7544 173.34 110.967 185 208 255
112.002 132.75 101.403 255 204 162
76.7354 163.696 131.877 255 250 255
92.055 173.947 109.737 183 206 255
93.7712 173.333 110.972 255 225 201
123.072 174.131 121.533 189 210 255
67.0141 51.1619 75.5607 231 235 255
93.7186 173.357 110.954 255 225 201
170.084 104.257 113.084 201 217 255
115.33 102.934 125.898 222 230 255
40.6675 191.396 108.401 200 217 255
109.229 141.928 121.51 242 241 255
76.3389 64.6365 101.609 206 220 255
94.4871 171.171 114.723 255 232 214
106.952 176.152 108.391 255 242 231
104.973 101.262 115.171 255 218 188
112.504 86.2485 112.944 224 231 255
118.911 106.067 106.059 234 237 255
90.8636 28.1759 112.683 194 213 255
120.308 115.726 119.201 255 243 232
93.7364 173.348 110.96 207 221 255
126.565 79.2338 106.574 213 224 255
98.2726 18.2483 92.6341 192 212 255
93.7788 173.33 110.975 221 230 255
109.689 178.435 138.495 181 205 255
57.0772 81.5518 100.897 233 236 255
113.859 69.0944 119.469 190 211 255
122.47 37.2027 117.454 223 231 255
157.332 129.794 99.1305 216 227 255
64.7915 26.8311 132.184 205 220 255
76.4909 142.142 98.1677 231 235 255
12.2869 91.346 115.158 184 207 255
93.757 173.339 110.968 205 220 255
122.116 152.318 137.865 188 209 255
78.5782 105.318 110.205 200 217 255
93.732 173.35 110.959 200 217 255
95.9565 149.416 106.709 188 209 255
93.6942 173.373 110.944 186 208 255
112.264 88.6983 110.519 255 245 234
115.718 116.975 113.679 255 124 0
46.3031 97.5661 107.732 200 217 255
93.7189 173.357 110.954 201 218 255
93.7847 173.328 110.976 213 225 255
106.108 81.3237 112.12 217 227 255
182.33 72.9258 127.366 181 205 255
103.196 48.4417 117.406 250 246 255
45.3306 30.8375 129.256 192 212 255
122.522 210.464 141.526 175 201 255
100.771 164.259 114.667 195 214 255
93.6561 173.37 110.918 255 234 216
178.563 52.8698 111.324 198 216 255
168.469 14.2964 104.411 210 223 255
108.662 144.977 114.49 212 224 255
89.1699 145.155 109.246 201 218 255
110.076 107.378 136.263 217 227 255
123.411 121.22 112.78 201 217 255
60.5759 48.1079 74.9713 191 211 255
111.573 136.406 118.392 241 241 255
49.4367 131.718 99.0386 213 225 255
57.4008 205.519 117.657 178 203 255
49.4786 98.2803 102.121 212 224 255
102.941 117.715 109.092 255 234 216
144.727 121.452 103.725 255 230 210
124.193 130.108 106.269 218 228 255
93.7678 173.335 110.971 186 208 255
93.7405 173.346 110.962 255 248 241
44.2763 41.5235 68.9203 192 212 255
93.9444 173.267 110.921 223 231 255
127.817 85.8728 112.335 200 217 255
125.952 71.1838 108.876 189 210 255
112.514 113.217 84.979 255 169 93
156.59 98.4807 106.435 192 212 255
113.132 99.0718 101.304 234 237 255
105.557 144.683 105.672 239 240 255
50.66 181.572 88.5624 229 234 255
190.798 31.2435 114.173 176 202 255
93.4678 173.303 110.811 208 221 255
103.161 115.337 93.5339 221 229 255
62.4132 130.891 149.91 255 244 234
159.305 34.7979 111.061 210 223 255
130.582 195.231 113.551 203 219 255
96.2915 145.84 110.53 232 236 255
126.783 187.787 110.919 205 220 255
55.7817 32.6113 106.068 194 213 255
128.73 122.449 118.985 255 227 205
99.1743 116.029 131.982 199 216 255
117.023 86.6522 111.038 247 245 255
101.516 157.878 104.418 255 211 176
216.476 102.184 114.953 186 208 255
63.6898 200.467 122.224 202 218 255
93.6767 173.381 110.943 255 251 255
167.008 155.101 119.182 186 208 255
100.444 149.524 104.211 195 214 255
61.3586 86.7312 111.199 208 222 255
86.1302 76.703 115.116 198 215 255
57.505 70.8098 122.94 203 219 255
149.732 123.495 109.351 205 220 255
69.6127 143.561 92.281 202 218 255
93.7461 173.344 110.964 220 229 255
149.008 72.653 172.471 206 220 255
93.7877 173.327 110.977 219 228 255
179.543 59.763 113.748 255 253 248
115.81 102.93 109.331 222 230 255
90.5247 149.605 121.358 204 219 255
93.7364 173.348 110.96 255 235 218
139.357 88.4784 115.678 196 214 255
112.912 120.747 107.773 200 217 255
222.994 107.5 120.57 186 208 255
137.79 109.168 96.3587 255 228 206
83.8428 191.698 149.271 186 208 255
78.2921 66.578 114.038 195 214 255
53.2334 66.2598 116.867 229 234 255
171.991 163.473 98.3852 186 208 255
100.684 103.837 107.38 249 246 255
98.1656 106.326 126.869 203 218 255
47.8996 49.6756 110.822 192 212 255
116.386 101.403 91.9152 207 221 255
8.16954 141.075 115.525 207 221 255
116.47 194.89 105.482 200 217 255
44.2475 35.1215 143.81 206 221 255
49.6956 73.2402 96.9423 219 229 255
81.6881 106.401 109.601 187 209 255
106.779 154.774 116.458 187 208 255
102.525 109.574 105.87 199 216 255
108.192 143.784 113.054 255 199 153
94.8347 195.339 110.128 208 221 255
68.4918 155.854 128.694 188 209 255
104.453 101.737 111.83 255 125 0
141.92 133.89 104.939 185 208 255
121.8 119.15 117.394 204 219 255
115.575 102.509 110.546 214 225 255
99.1777 101.322 112.513 255 227 204
112.2 109.465 112.396 208 222 255
118.243 129.99 98.61 255 103 0
118.909 74.6585 116.768 206 220 255
125.29 107.572 111.917 224 231 255
182.247 169.784 112.404 197 215 255
214.436 72.7787 109.405 191 211 255
128.283 108.416 109.154 195 213 255
56.3668 28.4316 150.45 191 211 255
65.654 40.4222 109.78 186 208 255
112.517 106.621 95.048 195 214 255
107.007 104.475 110.704 255 167 88
104.615 176.82 110.562 208 222 255
60.2157 42.2628 115.07 255 254 250
93.7698 173.334 110.972 206 220 255
104.876 100.819 114.857 255 221 195
93.7625 173.337 110.97 217 227 255
166.473 142.504 95.9504 255 244 234
77.4378 42.6845 107.377 196 214 255
100.009 215.481 111.184 195 214 255
53.7611 55.8385 129.948 218 228 255
73.5996 69.9152 114.065 255 253 249
47.386 131.1 120.017 255 109 0
111.457 86.6265 127.332 230 235 255
192.456 157.928 93.1153 205 220 255
91.126 113.224 110.054 199 216 255
76.4812 129.203 108.495 198 216 255
93.6605 173.504 110.928 225 232 255
120.876 182.525 110.946 216 227 255
77.1781 82.344 115.841 245 243 255
67.7943 132.509 113.777 216 226 255
129.667 122.798 108.376 255 206 167
113.341 122.099 111.45 255 244 233
196.918 22.0183 110.898 191 211 255
110.576 123.072 106.981 255 192 141
110.482 183.834 111.342 201 218 255
93.7599 173.338 110.969 255 239 226
178.577 164.721 96.8169 196 214 255
54.7178 198.146 116.396 204 219 255
75.3034 90.3867 113.235 200 217 255
126.55 80.7116 111.198 201 217 255
152.025 61.4993 116.852 192 212 255
93.7328 173.35 110.959 195 214 255
119.516 137.799 114.051 230 234 255
83.044 15.3134 63.8848 198 216 255
98.6935 138.632 109.317 195 214 255
90.7937 174.109 110.708 194 213 255
93.8416 173.306 110.993 198 215 255
93.7356 173.349 110.96 222 230 255
126.998 122.871 108.16 240 240 255
68.6628 212.058 112.855 188 210 255
203.725 133.499 116.498 184 207 255
149.977 114.35 112.412 230 235 255
111.784 172.776 114 204 219 255
105.853 94.6884 94.9437 199 216 255
98.5737 179.71 104.467 236 238 255
144.702 96.5236 110.568 199 216 255
70.0876 90.3805 111.489 201 218 255
50.3837 51.8597 93.0478 202 218 255
108.44 132.996 95.7793 241 241 255
93.0288 8.54368 124.555 198 215 255
72.155 154.476 114.448 201 217 255
117.617 81.2953 120.209 199 216 255
93.7452 173.345 110.964 214 225 255
110.849 84.226 123.032 224 231 255
109.829 106.114 132.668 255 161 76
94.2494 174.258 110.929 250 246 255
105.114 140.128 110.419 255 232 213
165.949 8.67752 125.537 180 204 255
124.316 92.3891 94.516 196 215 255
75.4656 103.452 113.263 204 219 255
123.903 123.633 115.376 203 219 255
151.186 102.837 107.213 238 239 255
145.428 98.2905 126.62 206 221 255
27.5036 160.975 111.501 191 212 255
184.776 61.8096 112.228 207 221 255
92.4667 107.111 107.513 217 227 255
85.5708 96.2091 108.227 221 230 255
28.3832 74.3671 113.796 187 208 255
7.18039 89.7438 78.7557 190 210 255
108.562 113.063 113.196 255 247 239
93.6803 173.377 110.925 228 233 255
99.6279 156.866 107.271 193 212 255
55.6046 99.7174 126.523 211 223 255
97.0704 199.828 113.392 192 212 255
96.9906 117.44 107.676 255 253 248
135.079 118.855 114.738 255 225 201
93.8553 173.881 110.967 202 218 255
115.249 83.8969 114.914 204 219 255
132.257 119.791 114.904 236 238 255
113.835 122.05 94.2739 199 216 255
93.7774 173.331 110.974 247 245 255
94.3909 21.1943 100.494 191 211 255
117.335 78.921 129.967 255 236 220
126.257 113.143 104.629 255 235 218
199.122 110.228 79.1914 206 220 255
109.523 127.126 111.704 255 229 208
93.7172 173.362 110.951 255 250 244
110.957 116.537 106.307 255 252 247
93.7237 173.925 110.82 212 224 255
48.8186 61.9704 123.136 200 217 255
93.748 173.343 110.965 213 225 255
51.025 100.615 107.418 196 214 255
93.86 173.136 110.925 214 225 255
140.24 125.12 108.055 254 248 255
96.4489 130.098 108.155 183 206 255
102.464 211.166 161.683 216 227 255
102.589 116.045 135.031 255 144 34
128.623 104.109 118.25 255 249 243
93.9636 173.303 111.144 255 236 221
134.695 123.469 106.601 255 239 224
135.861 95.6886 109.211 233 237 255
95.1664 160.339 123.007 212 224 255
93.7347 173.349 110.96 225 232 255
93.7497 173.342 110.966 193 212 255
99.0693 120.872 104.973 255 247 239
120.428 116.037 83.8094 255 224 199
221.231 43.1594 107.953 193 213 255
92.6252 179.581 107.068 255 249 255
96.0382 99.71 108.656 232 236 255
103.416 132.681 107.817 199 216 255
104.148 20.0861 105.93 204 219 255
183.671 135.868 117.482 181 205 255
151.709 84.7944 98.0649 196 214 255
93.7474 173.556 111.035 202 218 255
93.8693 173.304 111 255 233 215
70.2799 131.841 97.9737 200 217 255
47.8654 155.803 110.436 195 214 255
110.951 101.568 123.771 219 228 255
112.797 136.83 105.595 255 187 130
93.7964 173.323 110.98 215 226 255
164.594 20.5911 115.607 214 225 255
93.79 173.326 110.978 255 249 241
60.4777 93.6651 108.914 255 222 195
44.0796 182.988 111.364 211 223 255
117.823 137.126 100.242 205 220 255
93.9457 173.306 110.971 201 217 255
13.9233 157.56 111.602 187 209 255
118.757 116.416 114.338 207 221 255
87.0348 148.547 117.511 255 215 184
46.6106 104.561 45.852 226 233 255
96.9727 36.5198 102.426 204 219 255
93.6795 173.387 110.943 221 229 255
106.482 150.644 116.046 201 217 255
198.768 183.618 170.18 199 216 255
111.626 110.746 119.096 255 224 199
97.4642 204.508 91.9477 187 209 255
124.66 174.771 109.905 194 213 255
27.7699 151.817 116.607 192 212 255
85.5133 142.926 128.502 183 206 255
119.603 99.4502 112.328 255 241 229
82.345 208.39 111.817 199 216 255
110.582 121.101 112.462 199 216 255
124.962 89.8102 119.145 255 219 191
176.182 182.724 99.2295 194 213 255
116.717 126 101.336 196 214 255
93.8382 173.308 110.991 223 231 255
133.659 119.376 109.136 211 223 255
93.7542 173.34 110.967 187 209 255
105.417 50.0156 116.02 237 239 255
143.875 12.4965 106.689 206 220 255
170.149 131.494 98.6031 200 217 255
102.237 184.992 108.435 255 246 237
132.204 116.993 105.455 255 174 104
169.093 93.508 115.59 196 214 255
112.095 91.1076 107.357 255 230 210
148.083 128.8 129.38 195 214 255
159.094 181.566 97.6105 199 216 255
135.49 113.448 116.924 255 235 219
108.999 106.903 115.137 250 246 255
64.5878 72.3429 114.77 207 221 255
82.6507 87.2618 114.199 234 237 255
117.655 139.036 107.01 255 183 121
116.933 83.1677 155.628 196 215 255
108.519 107.851 107.921 255 251 245
93.7524 173.341 110.966 255 206 168
141.011 144.718 117.843 255 251 245
93.6738 173.366 110.936 241 241 255
95.4998 32.3506 123.119 199 216 255
174.667 72.3217 45.6166 205 220 255
93.7639 173.336 110.97 255 235 218
159.98 95.3532 122.333 235 237 255
29.9789 140.772 115.383 202 218 255
93.7615 173.337 110.969 210 223 255
60.813 201.411 121.986 226 233 255
91.4925 175.012 109.635 255 204 163
63.2146 57.0137 123.812 213 225 255
60.5807 213.752 105.419 186 208 255
96.9264 147.427 110.022 181 205 255
45.387 91.6353 117.559 187 209 255
91.8535 182.421 112.497 199 216 255
93.7423 173.346 110.963 185 207 255
129.527 136.547 105.881 230 235 255
126.933 84.7628 104.487 255 249 255
132.944 29.6039 112.184 194 213 255
93.7135 173.358 110.95 255 250 243
50.5878 213.464 122.524 183 206 255
179.087 154.811 150.769 251 246 255
108.807 99.9359 109.413 217 227 255
10.7608 203.449 135.111 186 208 255
68.6975 119.377 122.066 211 223 255
93.7574 173.339 110.968 207 221 255
113.428 115.513 108.101 255 242 230
27.8053 90.0736 116.763 218 228 255
158.41 68.0252 128.327 243 242 255
93.6105 173.394 111.277 255 249 242
129.599 130.136 98.8893 250 246 255
114.364 80.3084 110.755 197 215 255
94.5586 150.617 106.767 227 233 255
94.3761 173.199 111.099 255 241 229
53.8723 40.8918 101.675 193 212 255
93.9334 173.266 111.022 255 231 211
94.9172 179.395 111.41 209 223 255
93.6982 173.479 110.911 202 218 255
131.264 150.026 113.25 217 227 255
97.2318 153.527 138.873 255 242 231
93.8472 173.312 110.988 200 217 255
77.9194 104.849 113.912 255 237 222
93.8195 173.315 110.986 212 224 255
61.8249 81.2887 127.864 209 222 255
104.11 119.287 120.931 255 182 121
65.4854 51.5036 114.594 202 218 255
132.474 108.871 105.097 220 229 255
162.91 178.892 110.285 238 239 255
18.0725 204.89 103.66 180 204 255
106.01 136.165 96.6213 255 250 244
75.4143 198.476 117.427 208 221 255
132.868 127.569 108.973 248 245 255
13.5429 123.24 109.764 182 205 255
90.9001 179.779 112.572 255 154 58
130.758 126.525 97.0946 195 213 255
33.9731 197.719 105.609 183 206 255
115.452 13.9627 121.245 200 217 255
109.27 34.8545 110.335 199 216 255
163.276 136.047 109.678 218 228 255
140.213 25.9475 110.291 189 210 255
93.7672 173.335 110.971 200 217 255
93.7371 173.348 110.961 202 218 255
124.641 22.5263 107.666 189 210 255
112.209 165.758 128.534 255 242 231
58.8771 72.7033 136.388 211 224 255
99.353 76.6559 107.693 255 221 193
84.1885 114.452 112.206 189 210 255
113.814 111.87 111.356 255 248 240
139.25 74.3357 117.242 200 217 255
17.8248 175.417 111.528 195 214 255
126.083 148.894 120.973 194 213 255
172.336 27.9815 112.944 216 227 255
76.3423 138.092 94.1569 218 228 255
38.1588 136.774 99.5733 213 225 255
89.5044 95.9831 117.966 255 239 224
150.63 109.37 94.8676 200 217 255
122.292 124.871 92.9042 255 177 111
129.618 160.151 118.371 255 252 246
94.4907 146.942 112.488 255 242 230
112.058 119.868 95.7779 179 204 255
112.751 100.441 110.233 227 233 255
106.174 84.1983 114.337 208 222 255
140.145 36.0571 116.246 230 235 255
93.7269 173.354 110.955 228 234 255
125.901 129.396 102.917 209 222 255
164.245 111.991 107.539 255 241 228
101.96 102.254 103.558 255 233 215
38.8275 88.6306 116.9 219 228 255
119.108 135.234 102.491 255 0 0
104.027 21.4807 111.301 255 253 248
65.1292 75.019 110.645 189 210 255
93.7413 173.346 110.962 214 225 255
123.027 130.56 116.493 213 225 255
177.957 147.205 113.115 194 213 255
93.7243 173.353 110.955 184 207 255
83.4613 177.787 102.639 200 217 255
93.7802 173.33 110.975 211 224 255
82.6957 171.225 99.7546 222 230 255
93.7802 173.33 110.975 255 237 222
105.321 95.4508 127.308 206 220 255
114.286 120.132 117.78 215 226 255
129.396 113.591 94.5846 255 218 189
104.251 117.989 122.844 255 253 248
141.059 84.94 108.187 223 231 255
107.424 108.922 111.487 227 233 255
72.2505 91.3855 113.423 218 228 255
112.721 103.229 111.85 214 225 255
70.8706 143.006 110.117 188 209 255
111.132 135.463 113.514 248 245 255
110.454 98.9647 106.428 240 240 255
64.6245 141.039 90.1054 203 219 255
115.356 20.3818 106.698 210 223 255
144.536 105.39 107.357 214 225 255
117.392 101.508 109.922 227 233 255
93.7636 173.336 110.97 255 246 237
65.0699 105.211 117.013 193 213 255
105.29 164.411 124.605 255 205 165
118.388 104.287 113.322 255 244 234
224.726 99.2696 116.87 194 213 255
77.7124 89.3744 111.389 196 214 255
93.7388 173.347 110.961 193 212 255
135.902 90.7792 114.628 196 214 255
94.5911 166.634 113.077 205 220 255
156.602 16.7402 112.601 218 228 255
94.9905 147.387 110.522 255 253 248
57.6326 158.742 120.897 201 217 255
93.7555 173.166 110.908 190 211 255
169.776 90.2803 118.05 192 212 255
205.126 30.8401 98.3638 190 211 255
70.9423 71.4968 119.2 195 214 255
60.0784 150.116 98.8905 255 226 203
82.5331 139.182 100.527 202 218 255
192.998 169.59 107.07 189 210 255
68.0321 36.9934 113.982 197 215 255
109.805 145.7 116.29 182 205 255
93.9144 173.187 111.008 192 212 255
93.6102 173.275 110.978 204 219 255
209.663 123.385 111.524 186 208 255
128.951 75.2397 128.025 255 200 156
119.692 138.518 101.102 216 226 255
93.7741 173.333 110.973 255 238 224
109.835 110.497 127.356 255 225 202
184.287 134.205 108.007 208 222 255
93.7433 173.345 110.963 196 214 255
131.618 140.475 120.549 188 209 255
125.206 204.006 117.921 179 203 255
108.145 105.271 105.506 255 251 255
93.7533 173.341 110.966 219 228 255
98.1105 97.8879 121.687 200 217 255
117.866 21.2265 108.062 212 224 255
112.999 98.0793 127.359 255 237 222
111.996 129.168 91.2511 187 209 255
195.945 46.4307 112.08 236 238 255
136.566 90.0293 107.154 194 213 255
105.396 152.42 105.297 198 216 255
31.2906 59.9444 114.507 185 207 255
122.926 80.4127 109.46 255 250 255
88.9881 157.166 111.067 255 220 192
168.535 129.924 102.548 204 219 255
98.7387 205.106 113.244 201 218 255
11.9399 174.671 118.306 202 218 255
120.805 155.678 112.053 219 228 255
120.434 187.772 107.246 206 221 255
102.458 142.923 117.765 244 243 255
127.96 96.0399 74.9966 209 222 255
149.885 105.504 111.383 220 229 255
93.7835 173.328 110.976 203 219 255
58.7026 59.1968 119.368 204 220 255
36.7709 221.477 141.062 194 213 255
82.5104 171.338 95.8073 208 222 255
104.568 108.144 110.086 255 243 232
194.135 138.202 118.323 198 216 255
101.828 4.19353 77.2203 197 215 255
220.83 125.551 116.263 189 210 255
132.039 109.087 118.539 255 244 233
128.681 83.8738 110.919 207 221 255
118.932 99.8353 111.013 216 226 255
164.493 32.6075 112.785 210 223 255
107.83 37.9226 112.847 198 216 255
137.493 136.258 106.488 194 213 255
174.457 85.0604 157.253 195 214 255
73.2791 45.8274 107.434 255 246 237
93.7472 173.343 110.964 196 214 255
112.815 121.66 109.443 255 217 187
123.473 99.7601 111.86 255 250 243
107.738 108.397 114.46 206 221 255
109.589 96.2124 123.348 255 248 240
120.648 132.224 102.02 255 249 242
93.7491 173.342 110.965 194 213 255
94.5117 107.261 102.18 204 219 255
93.7287 173.35 110.956 203 219 255
83.7839 124.884 116.666 255 218 188
131.938 130.66 110.696 255 234 217
194.623 54.5475 113.099 200 217 255
130.556 91.5805 116.813 229 234 255
187.669 82.921 109.083 187 209 255
219.575 12.3731 117.119 215 226 255
112.73 104.871 103.503 255 214 182
61.9492 172.252 113.178 191 212 255
119.372 105.683 112.326 255 225 200
115.136 111.136 116.17 212 224 255
117.733 151.038 111.798 255 246 237
150.776 148.519 153.684 188 209 255
93.8037 173.321 110.982 206 221 255
163.303 92.2662 83.5587 253 248 255
79.7451 135.174 113.087 198 216 255
115.816 138.037 102.65 222 230 255
119.156 81.8584 122.265 214 225 255
116.822 124.071 132.311 208 222 255
93.6791 173.376 110.941 201 217 255
97.6428 95.3722 111.637 215 226 255
84.244 25.088 74.7199 194 213 255
117.286 102.032 115.649 255 249 255
115.957 71.1952 124.575 196 214 255
156.299 71.959 111.845 190 211 255
120.301 131.348 89.4448 255 231 211
84.5652 151.574 117.622 243 242 255
100.751 130.584 112.396 214 225 255
131.991 141.101 114.731 226 233 255
74.8847 109.473 99.1061 203 219 255
80.8258 182.095 124.024 211 224 255
123.861 113.735 118.164 255 222 196
113.269 128.171 136.874 255 236 219
93.7401 173.347 110.962 195 214 255
124.249 82.8277 116.662 212 224 255
93.7753 173.332 110.974 184 207 255
80.2947 108.246 116.684 195 213 255
103.292 127.479 114.409 206 220 255
93.7881 173.326 110.977 209 222 255
102.483 43.9732 106.784 209 222 255
206.467 102.773 88.1165 234 237 255
223.448 112.947 108.778 179 204 255
83.0407 110.64 117.611 209 222 255
121.178 62.1973 118.228 191 211 255
100.977 97.5456 109.671 255 201 157
93.7171 173.357 110.953 252 247 255
66.2853 135.843 123.85 219 229 255
111.354 119.55 104.923 255 248 239
93.7595 173.338 110.969 247 244 255
90.7823 127.159 110.696 255 187 130
66.2513 150.694 113.544 208 222 255
113.149 106.861 112.586 255 231 211
136.638 14.4602 144.01 200 217 255
112.541 148.17 116.655 219 228 255
86.6439 158.329 105.961 203 219 255
106.52 6.79056 103.762 196 214 255
84.5432 149.142 71.5399 200 217 255
221.18 46.3899 108.481 191 211 255
162.376 172.763 129.871 197 215 255
117.136 117.777 105.87 255 165 84
96.8548 125.862 120.996 226 233 255
175.301 137.636 108.85 204 219 255
93.7027 173.365 110.947 200 217 255
21.8871 171.39 115.292 211 224 255
103.837 175.847 103.883 255 238 224
110.445 15.2183 93.8869 207 221 255
120.425 108.924 108.324 255 235 218
117.095 105.989 113.485 255 241 228
117.014 105.39 121.933 255 226 203
131.761 76.7751 147.475 204 220 255
60.3982 160.828 114.047 217 227 255
93.8337 173.31 110.99 197 215 255
72.354 77.2608 112.594 255 255 252
101.831 145.371 115.3 251 246 255
84.2635 105.77 109.288 255 191 138
64.218 24.2137 94.5505 220 229 255
154.731 11.7814 108.072 198 216 255
84.0652 19.141 113.406 185 207 255
76.0968 100.5 108.79 255 250 255
77.392 197.071 113.118 204 219 255
125.408 110.914 136.434 217 227 255
106.643 100.312 129.126 255 230 209
122.555 118.142 121.366 255 253 248
73.2047 115.978 115.661 217 227 255
118.935 104.689 120.074 203 219 255
78.4171 136.762 130.454 206 221 255
30.7575 223.56 125.662 186 208 255
140.707 86.7345 94.6005 189 210 255
52.8453 60.8892 120.963 202 218 255
127.835 132.03 107.993 213 225 255
48.3466 45.4467 102.148 222 230 255
75.1353 176.112 100.043 255 251 255
129.594 84.1515 109.064 211 223 255
50.8945 106.559 107.789 255 254 250
122.076 97.6151 113.693 217 227 255
128.938 31.8346 109.743 201 218 255
114.667 110.362 112.054 239 240 255
84.7052 200.674 107.531 207 221 255
91.1789 135.769 110.783 217 227 255
83.8162 61.8181 115.857 191 211 255
119.67 95.2326 117.157 255 219 190
99.6203 65.0428 121.413 255 235 218
93.7399 173.347 110.962 202 218 255
103.596 175.568 121.813 185 208 255
141.291 92.0531 115.239 200 217 255
111.378 122.231 107.867 214 225 255
62.6903 88.9034 118.623 204 219 255
93.1052 166.873 110.126 245 243 255
30.6536 115.301 114.598 217 227 255
123.23 192.339 110.055 212 224 255
128.425 118.901 109.587 234 237 255
93.7706 173.333 110.972 227 233 255
117.203 78.4497 127.369 213 225 255
58.9308 141.223 95.3182 216 227 255
82.2014 164.594 112.041 197 215 255
196.508 96.4711 150.292 196 214 255
69.3039 166.029 116.585 192 212 255
123.64 117.11 105.503 255 241 228
108.869 166.79 114.66 196 214 255
51.679 137.604 70.5684 255 212 178
99.352 214.265 97.0951 188 210 255
161.365 199.97 129.979 205 220 255
137.275 89.761 114.966 190 211 255
93.6855 173.373 110.934 196 214 255
202.983 55.1623 113.088 192 212 255
80.3652 139.155 122.409 219 228 255
83.187 165.075 124.254 199 216 255
93.737 173.348 110.961 199 216 255
93.7256 173.373 110.831 207 221 255
210.347 51.5751 108.037 193 213 255
139.901 94.7211 115.294 245 243 255
40.0632 77.8344 128.19 255 246 237
129.828 125.382 108.99 216 226 255
112.367 120.113 95.7178 195 214 255
125.669 72.1711 99.9401 255 231 212
119.732 145.578 129.5 255 183 123
189.313 41.7635 107.711 205 220 255
112.929 215.041 102.638 196 214 255
118.187 107.105 120.871 238 239 255
57.5511 90.5764 111.327 203 219 255
62.9915 134.68 97.0737 187 209 255
100.425 158.138 113.777 224 231 255
93.7832 173.329 110.976 252 247 255
142.013 94.7606 111.634 229 234 255
224.896 57.4938 110.064 179 204 255
93.7563 173.339 110.968 201 217 255
145.385 103.148 118.26 206 220 255
112.633 114.808 110.736 215 226 255
152.073 106.274 105.864 206 220 255
135.254 76.7574 102.494 219 228 255
74.3326 56.3254 104.829 198 216 255
93.7547 173.34 110.967 187 208 255
103.411 77.1591 119.616 193 212 255
40.8792 119.655 111.241 193 212 255
109.634 114.989 102.627 206 220 255
97.0808 124.402 117.819 222 230 255
190.711 19.7159 117.98 192 212 255
106.312 73.8355 120.019 251 246 255
117.877 180.214 110.518 187 209 255
65.1123 103.337 110.238 255 239 226
67.5147 112.113 109.586 200 217 255
93.901 173.284 110.994 222 230 255
32.9007 78.3992 108.716 218 228 255
219.667 36.0355 111.623 184 207 255
129.822 24.5894 114.75 196 214 255
104.841 131.105 108.588 255 239 225
189.594 1.85596 76.9376 191 212 255
106.255 114.972 128.484 255 229 209
156.123 41.5922 114.056 189 210 255
125.32 142.369 118.905 255 197 151
142.383 120.351 117.554 255 245 235
104.249 112.579 108.311 255 253 249
71.1335 152.32 118.256 185 207 255
106.66 116.838 128.999 255 206 168
139.927 112.266 151.351 255 246 237
93.5603 173.237 110.818 210 223 255
97.6262 140.253 118.911 215 226 255
118.37 131.047 95.7092 255 169 94
135.071 33.9242 112.687 204 219 255
18.9958 190.896 113.352 193 212 255
93.7421 173.346 110.963 241 241 255
93.7461 173.344 110.964 229 234 255
21.376 26.2465 158.644 192 212 255
29.0334 66.6197 121.682 183 206 255
95.9884 125.222 122.046 230 235 255
93.8125 173.32 110.983 200 217 255
88.1644 213.504 131.667 183 206 255
72.0875 171.404 111.595 206 220 255
146.174 173.691 117.081 196 214 255
118.586 24.9445 121.96 209 222 255
93.711 173.36 110.951 255 163 80
88.7707 68.1669 121.455 255 196 149
93.7322 173.35 110.959 219 228 255
93.7447 173.344 110.964 191 211 255
93.7702 173.334 110.972 254 248 255
33.2716 179.4 113.111 181 205 255
104.756 141.868 109.81 240 240 255
129.755 179.927 105.715 197 215 255
75.567 127.071 109.707 255 197 149
98.163 101.044 112.917 255 251 255
23.3303 191.062 109.442 184 207 255
97.8685 73.3395 119.336 222 230 255
141.041 89.0412 102.231 249 246 255
107.52 183.92 111.708 203 219 255
63.8777 96.3352 110.767 205 220 255
93.7757 173.331 110.974 214 225 255
97.3764 133.452 116.171 255 207 169
107.601 18.4679 106.154 202 218 255
126.876 130.273 118.691 255 221 193
89.711 93.4239 113.742 216 227 255
27.4998 73.9758 118.872 210 223 255
93.7431 173.345 110.963 198 216 255
60.3181 148.285 75.2465 240 240 255
149.987 53.9895 111.64 200 217 255
53.0986 150.433 127.468 201 217 255
153.252 136.367 112.663 224 231 255
109.79 172.385 106.708 255 253 248
157.164 144.099 111.192 209 222 255
34.2326 162.25 114.73 193 212 255
61.0075 72.9345 100.206 205 220 255
207.76 44.4861 111.134 197 215 255
107.949 188.418 57.1786 192 212 255
157.313 151.888 109.527 213 225 255
124.495 111.522 101.244 239 240 255
82.0387 147.87 110.097 255 232 214
107.265 56.1335 117.821 240 241 255
121.658 137.953 108.512 255 241 228
52.2153 191.143 112.098 201 217 255
59.2458 72.3532 107.914 194 213 255
126.463 84.7327 110.568 242 242 255
93.7493 173.343 110.965 200 217 255
99.5948 121.787 112.606 234 237 255
90.1966 163.115 117.081 255 244 233
123.493 148.476 111.639 198 215 255
111.316 94.8485 108.996 216 226 255
42.0334 66.0402 124.378 219 228 255
91.9825 111.846 83.1374 255 230 210
119.836 158.308 112.213 242 241 255
160.487 129.831 103.341 217 227 255
105.039 111.245 118.501 228 233 255
99.6907 219.822 106.856 177 202 255
104.672 90.7681 115.509 255 237 222
118.099 83.405 112.821 219 228 255
168.839 32.388 111.489 188 209 255
156.977 103.665 110.322 213 225 255
105.931 109.214 112.615 214 225 255
173.984 90.6911 109.595 202 218 255
116.686 84.5411 110.628 206 221 255
65.4094 119.477 113.107 204 220 255
73.7172 136.53 94.9656 200 217 255
123.078 102.887 118.965 221 229 255
93.7373 173.348 110.961 185 208 255
131.355 100.905 107.794 196 214 255
118.315 13.5561 112.907 182 206 255
17.7662 172.408 112.685 194 213 255
113.298 81.7367 121.818 219 228 255
104.1 107.58 122.191 255 253 249
87.4422 51.2636 114.439 206 220 255
167.783 160.881 113.528 200 217 255
109.563 121.762 104.668 255 217 186
93.6959 173.402 110.929 255 252 247
110.748 29.5359 106.9 205 220 255
120.533 99.1755 113.751 210 223 255
84.7818 139.907 106.16 200 217 255
93.7773 173.331 110.974 248 245 255
65.4233 38.8288 116.858 199 216 255
67.5226 72.5588 120.588 221 230 255
100.95 187.317 97.2256 195 214 255
122.631 77.3696 107.988 203 218 255
119.308 119.688 116.246 242 242 255
129.022 82.6609 95.3859 231 236 255
106.252 139.876 108.105 205 220 255
88.0326 174.457 111.338 196 214 255
138.205 86.461 108.606 190 211 255
113.261 59.2059 117.387 208 222 255
84.4704 4.20978 113.858 192 212 255
108.608 98.7769 103.865 215 226 255
139.38 80.8722 124.384 195 214 255
123.149 117.415 119.491 226 233 255
128.822 25.4924 106.553 203 219 255
123.324 124.901 106.127 214 226 255
102.814 97.9802 114.035 255 210 175
117.497 131.994 117.979 212 224 255
148.161 121.78 117.586 199 216 255
112.694 123.448 102.964 255 248 240
145.585 83.8841 106.649 192 212 255
75.0885 129.744 121.44 208 221 255
98.9281 86.4649 115.608 212 224 255
110.345 205.976 104.391 200 217 255
98.8996 108.243 132.066 205 220 255
128.69 148.14 85.9614 195 214 255
135.597 70.7808 120.211 233 237 255
82.6327 37.2069 99.4213 245 243 255
94.1476 173.41 111.309 186 208 255
99.5684 170.912 108.062 191 211 255
85.7654 27.5112 106.183 177 202 255
93.7383 173.347 110.961 201 218 255
1.43127 121.275 110.204 184 207 255
95.0065 114.35 121.884 213 225 255
70.3429 165.212 118.48 202 218 255
111.357 105.295 118.51 212 224 255
114.303 44.3975 111.152 215 226 255
64.168 65.6727 112.152 255 165 84
93.7518 173.341 110.966 229 234 255
92.3685 173.935 110.539 255 250 243
51.0424 95.504 128.382 199 216 255
173.349 110.388 89.1407 218 228 255
112.202 108.034 110.495 224 231 255
202.331 117.268 109.937 199 216 255
114.962 81.7305 127.181 255 251 255
220.457 96.8928 59.861 255 170 95
99.2826 183.62 101.569 238 240 255
85.3402 142.813 87.1131 210 223 255
117.233 71.4801 114.212 231 235 255
126.36 71.1249 123.58 211 224 255
96.3615 123.828 106.046 255 205 165
93.7204 173.356 110.954 201 218 255
118.464 176.173 112.614 224 231 255
93.7591 173.338 110.968 213 225 255
75.8488 77.3365 135.888 230 235 255
93.678 173.444 110.862 201 217 255
105.722 98.3871 109.512 195 214 255
154.942 82.345 136.519 255 228 206
70.0141 48.1385 108.213 190 211 255
105.501 36.9591 107.177 204 219 255
109.727 128.799 115.839 200 217 255
124.657 114.067 97.8303 255 252 247
145.454 195.845 107.888 186 208 255
87.6119 179.279 105.129 195 214 255
144.302 93.119 141.359 203 219 255
93.7662 173.335 110.971 189 210 255
60.6179 48.1543 129.201 210 223 255
185.858 82.2599 112.403 204 219 255
143.848 98.6199 115.377 184 207 255
93.8176 173.313 110.985 255 221 193
104.806 105.064 96.6106 255 243 232
57.9724 107.779 104.782 192 212 255
6.90758 184.789 110.761 189 210 255
152.704 121.178 113.202 240 240 255
194.283 67.0256 94.0131 226 232 255
107.802 107.151 118.275 212 224 255
120.747 103.257 100.694 184 207 255
93.753 173.341 110.966 212 224 255
102.758 126.234 95.9015 201 218 255
89.8699 94.7086 102.322 255 237 222
100.165 18.8329 101.663 194 213 255
59.4658 51.3286 113.288 194 213 255
97.1429 126.592 105.146 255 230 210
118.806 89.1745 112.046 217 227 255
93.7291 173.352 110.958 255 242 231
136.406 196.869 111.992 196 215 255
137.32 84.7381 128.164 218 227 255
92.4512 173.918 110.892 255 247 238
93.7515 173.342 110.966 229 234 255
107.295 110.889 87.6561 255 255 251
93.6365 173.46 110.968 219 228 255
113.2 117.077 114.49 255 250 244
126.824 83.8847 115.063 202 218 255
112.912 120.018 107.48 232 236 255
60.3315 37.0975 105.889 198 215 255
109.794 100.705 121.743 255 251 255
114.558 142.387 94.6074 255 233 215
145.194 70.4575 130.487 255 239 226
118.856 135.582 110.097 206 220 255
135.902 89.3402 111.627 252 247 255
116.173 132.256 103.003 255 187 130
101.805 133.041 111.076 209 222 255
160.189 148.959 102.87 198 215 255
94.8167 173.283 111.713 194 213 255
79.2552 139.449 113.942 204 219 255
143.739 51.1241 115.258 190 211 255
61.9552 76.713 108.928 207 221 255
179.664 31.448 25.5843 247 244 255
62.4407 91.746 102.165 212 224 255
128.135 120.096 113.092 203 219 255
162.419 148.476 106.12 213 225 255
105.65 111.401 118.105 255 242 230
157.016 58.6085 114.602 192 212 255
102.892 111.245 130.725 208 222 255
3.4401 156.876 111.579 186 208 255
123.195 128.535 108.437 255 233 215
71.3956 61.1092 112.731 242 242 255
119.954 191.114 41.6082 194 213 255
90.753 173.748 110.498 193 212 255
75.6372 103.852 112.966 219 228 255
40.8682 213.522 85.9439 184 207 255
93.7592 173.689 111.238 218 228 255
93.7642 173.336 110.97 210 223 255
147.619 33.3347 111.523 255 246 236
133.258 16.8343 104.893 190 211 255
105.099 146.079 111.304 215 226 255
140.546 91.1586 109.079 247 244 255
111.14 148.249 116.532 217 227 255
131.056 120.664 116.859 204 219 255
93.594 173.32 111.225 184 207 255
121.742 174.567 115.925 184 207 255
106.318 176.737 112.08 232 236 255
156.525 107.102 122.675 240 241 255
124.549 139.136 102.427 245 243 255
76.6089 126.643 116.255 186 208 255
111.382 105.916 109.494 255 197 150
66.9362 26.6513 124.443 199 216 255
93.8204 173.315 110.986 210 223 255
44.6784 91.7927 98.5023 203 218 255
91.4015 158.316 117.368 210 223 255
153.404 61.5876 101.505 255 242 230
146.551 83.4916 112.09 214 226 255
102.226 138.874 102.812 218 228 255
8.76462 60.9555 114.667 190 211 255
113.014 121.801 106.535 206 220 255
134.935 168.067 116.33 208 222 255
166.013 102.241 116.888 209 222 255
109.164 175.855 104.627 255 240 227
112.266 102.499 119.531 255 220 192
110.355 123.445 119.876 255 218 189
75.1924 97.2529 116.654 225 232 255
114.232 136.853 110.754 190 211 255
93.6925 173.37 110.944 195 214 255
93.7509 173.342 110.966 187 209 255
121.43 14.8909 108.533 192 212 255
93.7161 173.358 110.952 201 217 255
106.826 25.0134 93.5454 181 205 255
57.0131 162.592 110.376 203 219 255
80.662 132.02 112.28 202 218 255
124.862 114.245 93.0349 237 239 255
62.395 107.855 116.822 189 210 255
133.24 122.824 104.933 255 235 219
128.462 83.0535 110.892 199 216 255
79.2758 145.188 106.83 227 233 255
93.4286 173.301 111.091 211 223 255
108.693 155.283 114.141 207 221 255
122.088 84.771 103.894 224 231 255
140.813 144.382 120.917 191 211 255
135.005 89.0824 114.472 211 223 255
153.077 110.024 109.304 234 237 255
6.85598 218.574 117.786 212 224 255
69.5595 129.475 127.118 255 247 239
112.146 100.316 88.5831 230 235 255
25.6072 157.04 112.107 190 211 255
117.902 138.24 100.659 215 226 255
93.2562 173.541 110.671 255 205 164
4.02153 187.8 106.938 191 211 255
71.5881 124.264 107.567 188 210 255
156.538 149.179 111.252 197 215 255
33.7526 70.5806 123.564 198 216 255
86.4844 180.529 114.863 255 229 207
