ply
format ascii 1.0
element vertex 1342
property float x
property float y
property float z
property uchar red
property uchar green
property uchar blue
end_header
122.296 107.481 127.059 255 225 201
156.736 54.1289 111.639 191 212 255
49.6191 87.3939 108.814 197 215 255
18.6123 113.529 115.109 194 213 255
124.975 9.17449 112.407 188 209 255
147.842 56.203 113.246 245 243 255
51.1382 157.495 109.489 255 251 246
103.073 89.6632 119.193 255 247 238
83.8747 77.1274 107.053 218 228 255
111.053 131.424 116.01 255 246 237
81.6211 117.92 124.285 204 219 255
102.668 89.5111 126.842 255 222 195
166.803 112.744 118.547 216 227 255
135.333 70.8816 117.518 255 243 232
86.3844 137.172 115.112 198 216 255
105.582 130.444 118.974 247 244 255
101.589 188.119 112.852 188 209 255
173.666 111.81 111.265 208 222 255
110.747 151.173 122.695 209 222 255
116.215 189.461 109.127 189 210 255
84.2154 102.659 114.377 220 229 255
52.5707 112.168 109.029 196 214 255
122.787 103.127 122.486 255 241 229
143.528 58.0857 116.419 192 212 255
126.057 105.271 109.862 255 242 229
155.402 145.196 120.152 255 247 239
84.7774 180.288 113.251 176 202 255
92.7029 176.613 111.609 188 209 255
16.1246 150.239 110.81 186 208 255
149.279 141.91 115.389 217 227 255
101.12 126.423 124.088 210 223 255
173.876 154.36 114.839 214 225 255
108.667 121.894 120.187 255 241 228
116.655 117.92 102.699 255 205 165
157.434 83.4703 114.412 220 229 255
125.394 108.299 123.034 214 225 255
116.116 169.596 114.949 199 216 255
124.495 87.4077 109.07 255 192 141
123.573 179.857 109.055 180 204 255
112.014 113.356 128.978 255 254 250
131.039 106.911 101.3 255 248 241
104.951 22.9293 113.564 221 230 255
148.147 140.478 105.165 206 221 255
107.858 125.7 121.907 234 237 255
39.6992 134.371 111.743 191 211 255
60.259 138.503 113.99 214 225 255
120.217 157.528 102.859 205 220 255
125.408 195.204 110.854 185 207 255
116.546 193.25 110.647 197 215 255
57.6492 156.37 116.609 207 221 255
207.062 104.61 111.211 193 213 255
22.123 62.6664 111.104 189 210 255
98.2885 93.3354 109.108 223 230 255
49.4292 118.671 114.259 199 216 255
148.732 161.214 116.033 202 218 255
145.613 76.4435 116.838 249 245 255
58.7463 101.483 113.409 191 211 255
116.247 132.051 105.612 221 230 255
94.9092 155.6 119.739 214 225 255
52.8236 178.099 110.478 197 215 255
76.9107 23.5175 111.195 187 208 255
117.483 83.3805 114.363 255 243 232
177.289 120.827 112.743 238 239 255
63.8716 99.0631 119.91 255 176 108
107.705 85.8197 120.087 255 248 240
97.8007 158.084 116.38 255 246 237
171.342 152.938 115.025 235 238 255
93.7762 115.902 119.139 209 222 255
92.8718 71.3247 111.491 240 240 255
161.029 192.554 110.238 195 214 255
51.6441 45.7464 112.902 202 218 255
151.193 127.673 121.059 217 227 255
111.191 91.9934 102.117 211 223 255
118.501 129.483 104.859 237 239 255
49.5046 122.069 110.87 236 238 255
93.674 129.907 122.005 217 227 255
14.914 139.364 115.305 180 204 255
102.222 110.731 90.7248 248 245 255
141.375 122.24 113.634 255 253 249
122.924 106.575 92.1622 243 242 255
158.935 114.622 117.507 210 223 255
106.38 117.379 98.9031 255 169 92
131.352 118.605 109.172 255 225 201
137.549 102.763 125.83 222 230 255
47.4358 123.875 112.48 208 222 255
135.088 96.4849 121.058 255 247 238
132.31 115.764 100.308 255 240 226
120.712 126.152 124.487 238 239 255
138.689 135.724 116.673 255 222 196
138.213 40.4524 112.561 218 228 255
114.731 59.1074 112.57 242 242 255
218.322 98.9666 114.53 218 228 255
160.623 106.14 103.794 191 211 255
169.424 154.224 111.018 255 163 80
48.6142 88.8641 115.845 203 219 255
184.037 162.562 110.434 194 213 255
112.856 102.83 119.514 255 253 249
55.9047 100.236 111.726 191 211 255
77.2144 130.563 102.494 202 218 255
170.607 168.487 110.746 197 215 255
128.827 112.465 99.6296 238 239 255
55.4875 115.158 114.646 255 235 218
88.5133 178.271 111.608 196 214 255
98.3378 114.921 109.331 204 219 255
118.033 117.55 96.3071 255 244 233
117.608 94.1382 125.413 255 230 210
44.6866 33.8381 110.934 188 209 255
110.754 96.5071 128.628 228 233 255
118.045 43.3784 117.687 255 236 220
48.5899 149.138 109.957 201 218 255
142.05 97.9223 119.179 218 228 255
90.5796 116.206 121.896 255 228 205
124.133 107.304 104.504 255 172 100
118.814 107.508 134.259 208 222 255
90.5375 161.987 110.408 255 228 206
140.285 118.65 119.798 221 230 255
57.0575 181.557 111.867 194 213 255
42.1423 177.204 111.79 195 214 255
99.0413 96.7424 125.129 214 225 255
97.4251 37.6952 110.236 221 230 255
118.469 213.381 113.552 180 204 255
125.358 150.221 111.231 222 230 255
158.012 64.3997 108.063 208 222 255
142.875 89.1195 112.189 255 251 245
147.321 150.206 114.873 213 225 255
159.351 112.23 105.341 210 223 255
103.323 88.7488 102.592 199 216 255
121.754 85.3752 113.558 199 216 255
123.666 52.235 110.918 248 245 255
213.938 139.134 111.505 194 213 255
33.7758 38.3082 111.666 210 223 255
70.0394 127.111 119.489 204 219 255
101.586 121.427 122.012 255 239 224
102.258 120.002 100.868 255 244 234
40.4387 146.09 112.286 194 213 255
94.4458 44.9044 115.057 184 207 255
82.2703 103.393 116.544 199 216 255
115.182 71.1033 121.305 218 228 255
104.981 157.332 117.461 215 226 255
62.9867 125.634 110.895 245 243 255
42.9588 163.403 109.436 192 212 255
139.136 18.7856 111.865 189 210 255
130.622 141.982 104.338 246 244 255
79.1627 207.294 109.755 183 206 255
117.405 95.2226 98.2001 214 226 255
177.521 168.51 115.101 188 209 255
70.3571 23.1938 112.121 201 217 255
140.912 133.75 122.852 207 221 255
156.877 65.67 111.306 195 213 255
147.163 126.264 109.436 194 213 255
124.906 102.311 116.797 255 170 95
128.904 117.751 114.021 255 251 245
48.8552 181.647 110.229 207 221 255
157.825 12.4312 111.065 194 213 255
87.2844 132.771 113.233 213 225 255
163.316 94.9827 108.329 197 215 255
189.372 134.88 113.808 196 214 255
100.538 149.136 115.791 238 239 255
75.2806 50.0011 113.736 190 211 255
104.58 132.644 112.224 255 212 178
130.667 127.729 109.078 239 240 255
120.411 129.745 113.118 255 208 170
143.87 154.3 107.764 203 219 255
110.728 125.281 129.269 255 252 247
137.092 128.738 113.211 255 230 209
51.0461 158.158 110.76 224 231 255
83.4149 93.7848 105.504 228 234 255
51.4098 65.2127 115.567 192 212 255
148.913 29.9679 114.378 202 218 255
98.3143 183.707 109.16 220 229 255
88.808 108.912 108.134 221 230 255
173.689 92.1401 109.033 200 217 255
29.0461 136.264 114.161 189 210 255
72.4583 57.1905 110.838 215 226 255
161.403 147.478 113.655 186 208 255
161.559 180.694 112.118 189 210 255
72.5158 139.038 105.785 205 220 255
118.698 105.488 93.0271 255 248 240
212.16 157.946 114.134 184 207 255
41.8485 150.036 116.143 191 211 255
142.028 123.054 107.035 190 211 255
107.113 111.242 128.561 255 189 134
197.308 153.072 112.304 193 212 255
131.783 61.182 109.243 255 198 151
44.1281 132.254 109.929 224 231 255
155.1 112.434 121.392 217 227 255
116.715 112.752 90.1992 255 178 113
216.229 77.6334 113.852 183 206 255
21.2751 64.4665 113.889 182 206 255
57.1741 125.437 106.941 209 223 255
99.8258 176.036 110.461 255 250 244
98.889 141.581 113.117 211 224 255
155.693 22.1448 113.086 232 236 255
56.1878 102.189 116.977 217 227 255
82.1244 82.8785 105.473 227 233 255
203.248 70.6786 112.72 182 206 255
29.4787 103.871 112.461 216 227 255
106.007 62.2997 115.669 216 227 255
112.689 96.6336 115.879 247 244 255
33.8494 116.519 113.203 225 232 255
119.795 74.0663 102.487 199 216 255
151.068 130.733 111.541 219 228 255
184.891 145.93 109.976 190 211 255
76.2616 117.889 114.469 255 254 251
106.612 41.6958 114.272 192 212 255
132.987 155.856 110.521 199 216 255
58.2502 143.09 106.675 210 223 255
143.045 47.5646 108.668 214 225 255
131.88 128.068 113.336 255 245 235
71.5604 57.7881 114.679 207 221 255
125.692 152.712 106.03 197 215 255
97.6364 177.48 112.038 193 213 255
172.123 121.688 109.328 193 213 255
189.466 75.2343 115.661 188 210 255
71.0031 60.7907 108.009 188 209 255
100.784 150.194 103.066 206 220 255
147.639 38.7877 114.917 221 230 255
139.039 94.7813 118.866 255 249 255
90.409 103.17 110.788 255 240 227
155.367 133.017 121.195 198 215 255
64.558 42.0503 110.695 196 215 255
52.321 80.3292 113.225 206 221 255
120.89 98.8508 115.499 255 208 170
116.98 143.43 119.559 250 246 255
144.619 143.4 109.465 195 214 255
147.649 124.875 109.248 255 237 222
101.653 185.828 111.138 189 210 255
98.2413 154.313 107.477 191 212 255
122.666 110.31 110.645 255 188 133
107.644 85.9382 99.0827 232 236 255
46.0101 89.7706 114.381 190 210 255
29.2062 123.063 115.599 187 209 255
66.4503 127.605 115.508 246 244 255
171.288 79.0309 108.857 207 221 255
174.104 176.465 111.682 208 222 255
76.4195 126.891 118.808 255 250 255
125.632 121.141 119.109 255 231 212
48.8458 159.199 112.544 189 210 255
153.036 78.842 119.677 223 230 255
105.513 86.6859 111.126 219 228 255
159.676 51.6082 114.051 202 218 255
117.413 113.245 96.6115 255 242 230
164.661 110.825 120.716 216 227 255
169.28 104.996 112.7 205 220 255
154.062 176.018 116.798 217 227 255
156.53 61.9108 114.489 199 216 255
119.866 101.267 132.606 225 232 255
39.4805 121.926 112.073 189 210 255
99.4586 131.138 115.438 255 252 247
156.557 95.9004 112.818 219 228 255
57.6462 141.373 106.98 190 211 255
45.4225 89.2249 112.679 196 214 255
209.576 63.6836 112.098 187 209 255
161.201 129.306 104.856 190 210 255
90.7405 113.17 121.597 229 234 255
192.858 70.4286 112.757 195 214 255
108.847 166.023 112.218 255 237 222
205.433 91.3988 112.28 191 211 255
26.1378 68.8923 110.971 200 217 255
170.118 138.416 108.234 193 213 255
142.26 49.7755 113.446 195 214 255
127.246 162.03 104.435 208 222 255
92.0497 36.9674 116.044 198 215 255
76.8044 163.572 117.95 233 236 255
130.282 141.087 116.388 223 230 255
106.88 138.703 99.5685 252 247 255
37.098 114.377 114.225 203 218 255
129.458 108.863 103.352 199 216 255
115.048 122.231 131.858 230 235 255
162.533 85.5758 107.166 208 222 255
96.9257 41.5305 109.562 196 214 255
105.44 143.309 104.247 198 216 255
162.564 133.243 114.003 189 210 255
91.8795 139.862 116.342 255 164 83
92.8868 174.958 114.418 203 219 255
86.7575 71.7272 119.649 208 222 255
69.018 176.886 109.046 184 207 255
185.837 88.5622 111.992 203 218 255
121.854 108.938 96.6707 249 245 255
127.658 104.95 120.159 255 102 0
167.137 134.27 109.147 195 213 255
51.1139 176.783 109.804 188 210 255
71.0003 81.8588 116.821 255 231 212
79.1259 90.0202 119.519 200 217 255
47.0817 36.3932 112.267 247 244 255
156.422 140.4 118.376 255 238 224
119.851 131.905 127.816 213 225 255
95.7047 96.5075 120.885 255 204 163
109.256 97.1994 129.461 255 199 153
63.2809 134.432 107.394 208 222 255
95.0252 147.655 109.646 198 216 255
210.348 153.191 112.268 184 207 255
52.1914 117.043 112.878 239 240 255
151.685 181.929 111.41 197 215 255
92.7691 175.592 111.437 217 227 255
125.85 103.866 111.417 239 240 255
91.437 154.324 114.081 255 254 250
126.637 160.628 106.417 192 212 255
120.73 204.299 112.338 197 215 255
99.1957 75.593 119.75 201 217 255
164.232 179.978 114.682 196 215 255
213.692 112.726 110.847 190 210 255
63.5678 80.0671 109.741 218 227 255
144.658 201.519 113.231 188 209 255
139.971 43.7932 113.553 197 215 255
103.721 188.089 108.438 199 216 255
136.661 98.0934 116.881 214 225 255
56.9798 175.115 115.966 243 242 255
85.1914 8.55512 113.506 193 213 255
105.965 142.615 105.432 222 230 255
196.487 116.39 112.178 228 234 255
22.9839 129.57 114.885 212 224 255
120.544 101.907 124.376 216 226 255
146.137 18.9371 111.859 190 211 255
123.623 71.8467 119.517 235 238 255
101.881 18.6131 113.384 192 212 255
167.615 17.6831 115.082 190 211 255
119.755 114.479 122.475 255 226 203
132.078 113.071 108.606 255 198 151
144.741 112.704 115.954 190 211 255
111.983 121.814 117.504 232 236 255
32.1779 125.998 111.879 193 212 255
34.5664 105.804 109.252 191 212 255
90.5403 112.475 127.427 255 213 179
144.955 67.2317 114.76 204 219 255
87.5857 83.9816 105.986 214 225 255
115.462 92.454 103.839 255 222 196
138.057 98.948 98.2738 254 248 255
123.469 80.5475 113.028 193 213 255
169.018 62.5378 112.659 188 210 255
132.81 163.307 106.417 237 239 255
174.845 41.6856 113.422 183 206 255
153.53 118.31 109.574 222 230 255
52.1939 106.674 109.521 255 244 234
103.644 103.632 121.933 255 195 146
158.066 169.63 116.151 206 220 255
182.9 104.181 118.028 222 230 255
75.3777 98.8605 118.151 222 230 255
85.0296 72.4776 106.178 255 250 243
113.807 80.5178 109.22 255 194 144
113.577 54.6131 112.121 255 226 202
72.3387 91.5488 113.157 197 215 255
91.2602 129.651 111.917 230 235 255
116.351 101.462 133.455 255 214 182
159.51 114.204 108.6 207 221 255
47.4107 175.82 113.196 226 233 255
88.1398 135.949 110.699 255 224 199
106.007 128.159 106.28 255 228 207
141.049 98.3688 116.286 224 231 255
102.539 101.172 99.8181 255 203 162
66.4596 160.315 107.937 201 218 255
123.27 150.269 115.775 221 230 255
134.108 119.236 111.789 255 240 227
155.57 117.967 108.41 255 221 194
121.577 144.866 119.252 255 249 241
98.9048 140.331 102.217 208 221 255
129.659 116.363 110.392 255 251 245
100.278 96.922 125.388 217 227 255
135.612 13.5851 110.347 187 209 255
153.322 98.3161 114.665 255 245 235
119.37 71.6398 109.866 201 217 255
115.352 185.649 110.768 195 214 255
105.919 91.5553 107.728 255 236 219
94.2941 97.5155 120.697 255 246 237
114.573 101.768 95.6282 255 187 131
156.149 173.413 111.332 204 220 255
39.2089 83.099 113.337 183 206 255
124.955 136.258 118.067 255 234 217
136.039 134.177 124.057 255 234 216
123.906 99.2175 124.076 220 229 255
106.577 80.7832 113.205 255 237 222
58.9993 24.6037 112.311 189 210 255
163.884 113.003 111.073 208 222 255
85.4912 93.9154 120.404 190 211 255
105.254 111.031 101.807 255 237 221
142.758 85.7149 123.784 255 244 234
132.951 125.004 121.954 255 211 175
91.8643 69.5557 116.008 197 215 255
111.363 93.9483 102.897 255 241 229
65.4199 142.872 118.457 255 240 227
175.108 89.6716 112.674 189 210 255
36.8391 110.878 112.399 252 247 255
73.9129 25.012 112.747 181 205 255
79.0793 145.232 116.977 231 235 255
67.3929 116.39 112.556 255 247 238
140.037 90.2651 105.087 255 242 231
67.4175 191.239 112.757 191 211 255
134.649 62.7972 116.233 194 213 255
22.6823 79.2849 111.927 190 211 255
138.629 104.144 116.125 208 222 255
27.1286 54.2962 114.178 196 214 255
3.99372 130.651 115.425 182 206 255
22.8933 63.02 111.498 196 214 255
123.197 94.2365 103.673 255 190 137
162.267 112.548 108.715 255 252 248
78.1434 150.595 114.026 219 228 255
162.044 136.657 118.899 255 252 247
134.85 112.417 121.472 255 221 195
178.081 84.466 116.712 209 222 255
165.54 32.1584 113.025 196 214 255
113.666 84.3618 120.538 228 234 255
97.7879 10.5184 114.347 184 207 255
155.538 94.9654 119.56 229 234 255
92.5348 106.944 117.906 255 212 179
39.2786 111.093 110.765 205 220 255
115.026 51.9162 117.133 244 242 255
63.7505 93.7428 117.933 194 213 255
136.404 9.3919 113.67 192 212 255
100.55 106.825 94.8144 255 239 225
137.61 61.5234 107.312 255 244 233
137.3 148.13 122.638 216 227 255
202.031 117.957 113.215 190 211 255
153.493 123.176 120.117 255 242 230
189.315 121.649 108.526 229 234 255
50.2942 124.81 108.66 202 218 255
27.4953 120.361 113.102 186 208 255
184.353 152.387 113.688 186 208 255
147.48 128.398 114.543 219 228 255
136.123 6.66378 113.008 187 208 255
165.211 138.509 115.47 203 219 255
54.0255 101.559 106.279 216 226 255
39.1378 37.6427 110.587 179 204 255
67.6175 25.6936 110.385 203 219 255
119.519 122.744 93.5074 216 227 255
116.689 71.5824 123.51 224 231 255
190.699 186.064 112.252 185 207 255
109.658 154.217 103.249 255 237 221
169.388 101.878 108.431 255 247 239
109.756 115.276 127.266 255 166 87
85.0115 11.0977 111.531 181 205 255
56.0484 177.928 114.687 188 209 255
85.2299 87.7515 107.955 255 234 217
107.592 130.061 96.014 217 227 255
75.4878 22.6641 115.341 206 221 255
104.094 135.868 104.746 255 249 255
187.719 136.879 116.029 202 218 255
79.4356 135.413 119.506 199 216 255
62.714 56.1068 110.806 222 230 255
99.0274 120.523 107.862 212 224 255
62.6823 81.9337 115.759 198 216 255
132.084 101.323 113.1 255 205 165
128.368 142.753 124.417 254 248 255
95.1885 132.757 117.473 221 230 255
83.6601 112.091 102.022 206 220 255
111.432 110.471 130.667 235 237 255
94.2186 38.491 113.943 229 234 255
161.853 68.8799 113.964 215 226 255
55.398 70.8067 115.044 197 215 255
50.034 35.2092 110.634 202 218 255
151.584 76.8615 104.738 196 214 255
117.651 93.0981 102.324 255 207 169
118.767 191.253 113.694 195 214 255
93.4155 73.681 111.282 197 215 255
54.5191 124.734 115.749 208 222 255
92.9323 159.354 110.884 255 216 186
92.8683 175.9 111.339 235 238 255
128.301 184.805 111.246 195 214 255
46.5165 142.34 113.158 255 212 178
132.273 103.351 110.11 255 250 243
92.5066 31.4321 111.865 207 221 255
132.773 68.2561 106.336 206 221 255
112.125 3.43336 113.908 183 206 255
129.789 151.806 102.85 221 230 255
108.02 156.93 117.048 204 219 255
102.736 48.0857 114.845 209 222 255
157.653 183.817 110.642 190 210 255
161.154 189.411 114.249 192 212 255
103.961 67.2955 105.135 230 235 255
120.29 108.264 128.074 255 233 214
142.062 190.137 115.544 199 216 255
73.7104 139.028 114.739 255 241 228
148.599 16.9807 113.194 183 206 255
127.1 134.866 110.542 207 221 255
181.243 49.406 111.366 184 207 255
128.971 216.16 111.958 219 228 255
183.775 106.867 108.318 205 220 255
44.8023 117.645 116.735 195 214 255
90.3795 94.3806 107.861 219 228 255
108.861 156.381 110.716 197 215 255
159.558 102.862 107.739 201 218 255
21.6459 161.449 112.279 189 210 255
170.223 157.799 113.802 209 222 255
84.1729 74.1452 119.203 217 227 255
189.99 183.581 110.953 201 217 255
72.6408 42.442 113.005 184 207 255
93.9032 117.122 119.587 201 218 255
111.062 95.1805 128.038 255 170 95
79.0507 122.952 102.63 255 221 195
63.9728 125.998 116.855 241 241 255
42.2344 151.751 114.884 206 221 255
152.178 91.8051 120.522 226 232 255
75.0564 63.7617 117.24 245 244 255
135.113 121.539 126.702 255 231 212
152.146 152.888 116.44 215 226 255
143.964 172.828 113.423 199 216 255
72.6593 157.495 113.71 224 231 255
38.3629 73.1515 110.988 199 216 255
108.903 78.3916 109.414 255 200 156
114.541 71.7618 115.32 206 221 255
129.33 80.1937 117.864 235 238 255
179.757 90.2906 109.407 198 216 255
73.31 91.7891 117.698 224 231 255
166.926 105.507 104.709 199 216 255
152.022 96.9431 121.401 195 214 255
146.135 91.2432 104.792 255 242 230
100.094 148.296 118.224 202 218 255
144.74 37.4431 113.186 234 237 255
204.379 159.533 113.15 193 212 255
64.5822 92.7599 106.106 218 228 255
81.7103 39.8722 114.537 184 207 255
126.712 96.8526 108.386 202 218 255
118.492 130.935 98.3365 255 234 216
127.709 208.901 113.182 205 220 255
86.6217 104.335 113.39 225 232 255
154.599 48.0737 112.679 200 217 255
57.5731 188.115 113.698 192 212 255
143.829 89.6007 113.735 212 224 255
78.1878 97.0508 100.401 197 215 255
57.4183 110.69 110.503 233 237 255
153.222 181.798 113.497 214 226 255
176.673 85.6768 113.954 239 240 255
121.71 101.555 98.551 255 210 174
98.6611 171.083 108.542 189 210 255
69.7597 119.808 111.681 228 234 255
115.805 106.666 104.848 255 169 94
151.004 123.545 114.797 255 211 177
64.2168 75.5608 118.661 255 244 234
112.847 57.3516 113.851 193 213 255
92.69 175.54 111.87 223 231 255
95.4789 56.8317 107.171 255 248 240
202.302 103.064 112.731 190 211 255
90.3044 92.2459 123.757 255 228 206
193.016 43.6402 115.041 193 213 255
65.6184 210.348 110.484 194 213 255
168.151 109.555 113.528 255 243 231
99.718 67.0059 114.144 255 248 241
140.958 165.513 115.166 198 215 255
73.9352 61.5442 109.709 201 218 255
59.27 135.629 105.505 255 249 255
106.481 207.82 111.564 189 210 255
117.384 79.0281 119.376 230 234 255
97.7196 192.112 111.848 207 221 255
42.1001 111.267 109.846 242 242 255
109.855 91.4492 101.242 188 209 255
181.983 37.865 113.212 184 207 255
105.281 56.9239 110.363 194 213 255
98.2898 82.5421 112.868 221 229 255
179.557 155.949 115.109 229 234 255
117.262 39.2688 114.852 200 217 255
56.3369 124.399 115.44 224 231 255
167.179 39.6991 114.8 205 220 255
65.7424 100.696 107.94 212 224 255
105.259 166.774 111.698 212 224 255
60.221 173.318 110.197 185 208 255
104.548 47.2753 114.225 238 239 255
127.927 170.614 106.448 200 217 255
126.56 73.5842 111.784 255 243 231
85.9828 12.0869 115.121 189 210 255
126.596 159.418 117.332 216 227 255
98.3886 104.395 119.53 215 226 255
206.69 89.1813 110.387 196 214 255
210.703 121.564 112.455 187 209 255
78.9928 108.56 100.054 255 251 255
27.8748 67.1018 111.068 194 213 255
74.0587 85.0971 119.942 210 223 255
164.802 93.5285 120.492 202 218 255
94.2245 120.128 121.112 255 206 167
161.428 79.9391 107.727 209 222 255
31.3283 143.367 113.707 204 219 255
139.231 166.695 119.498 212 224 255
110.357 98.0379 119.892 255 135 8
138.33 114.938 126.925 255 247 238
109.626 93.0644 120.738 226 232 255
102.396 176.911 111.625 235 238 255
60.5163 149.541 108.438 203 218 255
155.373 103.605 110.294 194 213 255
92.93 104.055 121.376 255 245 235
125.826 28.2164 113.26 199 217 255
34.0616 35.3121 114.415 193 212 255
106.211 152.766 108.791 255 248 240
130.61 217.002 113.323 188 209 255
124.505 118.178 117.628 214 225 255
35.5987 143.588 116.204 187 209 255
87.046 211.153 110.535 192 212 255
66.8013 129.86 117.56 200 217 255
191.534 152.723 114.527 185 208 255
79.5378 125.075 105.09 197 215 255
97.964 161.515 118.171 212 224 255
74.9439 113.048 110.522 219 228 255
125.698 111.232 112.882 231 236 255
52.0856 45.0263 114.016 196 214 255
177.372 136.764 112.122 204 219 255
116.332 120.346 93.4788 214 225 255
167.51 128.716 107.409 227 233 255
125.433 137.552 109.897 197 215 255
73.0065 81.1534 109.456 201 217 255
109.745 40.6666 114.008 198 216 255
149.55 146.55 114.601 255 242 231
61.1621 138.658 112.128 204 220 255
169.027 86.2592 107.507 209 222 255
132.168 55.5667 108.209 198 216 255
22.399 62.4784 113.729 181 205 255
117.284 175.409 108.062 202 218 255
147.117 119.871 104.29 213 225 255
129.375 44.0353 107.097 200 217 255
159.564 153.293 107.88 209 222 255
105.755 65.7053 114.326 213 225 255
60.7419 88.5314 114.304 192 212 255
10.3695 136.344 114.418 196 215 255
125.431 173.985 110.645 209 222 255
25.9342 126.903 115.306 193 213 255
111.955 169.128 115.892 233 236 255
41.3087 77.8729 115.689 198 216 255
96.898 138.501 117.602 229 234 255
71.7604 163.209 110.722 200 217 255
79.699 119.111 112.066 225 232 255
150.258 109.787 101.228 231 235 255
116.169 91.3786 119.359 255 234 216
86.7369 135.138 119.703 225 232 255
88.2912 141.294 115.174 212 224 255
184.964 95.4024 108.534 185 208 255
94.9164 87.4149 102.95 255 238 223
144.697 99.8827 122.254 255 217 187
148.306 209.15 111.121 193 212 255
142.781 152.026 119.895 201 217 255
194.184 85.2244 111.159 200 217 255
117.444 81.6112 121.347 222 230 255
124.431 63.0075 108.391 255 237 222
146.184 120.615 108.296 222 230 255
96.3099 24.3984 112.342 193 213 255
63.6491 99.6539 120.263 244 243 255
137.213 178.076 115.591 220 229 255
67.2322 145.33 105.648 201 217 255
145.131 133.993 108.153 235 238 255
144.938 96.7749 109.011 210 223 255
70.0412 78.3952 105.531 255 249 255
179.659 60.174 113.1 196 215 255
200.578 117.527 111.495 190 211 255
71.4219 114.109 117.205 255 243 232
91.6969 167.473 106.219 227 233 255
178.939 193.059 113.199 181 205 255
85.788 77.2213 111.453 193 213 255
166.792 68.1914 107.982 182 206 255
155.944 140.44 116.378 214 225 255
80.353 106.799 102.699 199 216 255
147.079 109.079 121.411 255 173 101
46.6602 86.1592 111.838 192 212 255
139.565 122.741 117.087 227 233 255
28.1379 73.2969 112.394 198 215 255
68.737 156.069 117.286 229 234 255
85.4775 109.564 104.324 255 254 251
97.7766 82.8267 104.121 255 241 228
86.0661 115.251 119.643 255 195 145
129.639 207.15 112.239 185 207 255
206.154 126.753 113.183 190 211 255
137.84 68.1852 121.101 224 231 255
49.2451 99.3473 106.76 223 231 255
134.453 138.91 111.628 255 240 227
128.832 115.058 129.057 201 217 255
154.758 77.3451 119.5 192 212 255
121.907 71.6284 115.023 212 224 255
105.08 113.752 100.41 254 248 255
80.9502 164.304 110.421 201 218 255
145.747 112.288 108.041 228 234 255
70.0796 210.986 113.215 178 203 255
174.11 188.5 112.483 199 216 255
105.715 150.142 120.831 208 222 255
116.111 93.7271 115.473 203 219 255
97.4343 155.979 117.475 218 228 255
13.8196 160.236 112.79 216 226 255
90.7368 156.982 109.141 203 219 255
53.2205 27.1462 111.699 195 214 255
156.388 168.252 115.819 200 217 255
60.95 106.454 111.161 187 209 255
107.695 89.4213 110.623 216 227 255
94.3601 87.5697 117.961 255 251 245
105.081 107.147 121.191 255 206 167
126.527 153.298 122.731 214 225 255
72.6445 215.328 112.099 217 227 255
99.2887 135.519 113.698 255 216 186
125.541 126.995 102.083 255 249 241
97.5396 17.7046 111.718 183 206 255
130.871 138.583 115.87 207 221 255
102.885 157.59 111.076 205 220 255
100.22 52.007 109.863 219 228 255
94.6592 128.738 101.907 254 249 255
156.208 158.675 112.475 217 227 255
49.2198 148.014 111.934 198 216 255
98.482 79.3632 117.213 238 239 255
51.7811 140.883 110.288 224 231 255
59.0838 116.268 116.186 221 230 255
112.428 94.1022 121.508 255 241 229
109.369 198.976 112.634 178 203 255
79.757 177.693 116.411 207 221 255
201.539 145.084 111.437 178 203 255
62.3843 67.1703 113.415 196 214 255
114.891 112.972 130.401 255 254 250
160.915 182.091 112.039 217 227 255
92.2914 78.5506 109.103 249 245 255
13.5627 79.0971 114.951 188 209 255
179.987 123.798 112.163 213 225 255
150.092 141.432 108.033 194 213 255
126.33 131.119 117.747 255 249 242
141.551 116.804 108.442 255 248 240
21.9727 107.203 111.962 201 218 255
196.187 106.576 112.738 199 216 255
168.971 190.077 114.28 192 212 255
105.575 106.354 102.373 255 222 196
111.347 108.748 91.9114 223 231 255
147.556 95.1143 106.15 231 235 255
130.453 94.6468 111.944 236 238 255
86.1726 77.2322 117.5 197 215 255
156.238 67.7823 107.509 197 215 255
68.2948 107.86 109.917 254 249 255
185.378 193.03 111.967 182 205 255
131.933 131.118 115.714 255 214 182
58.4268 135.15 111.182 187 209 255
63.8149 121.724 113.728 202 218 255
36.9714 100.34 111.686 195 214 255
162.259 120.703 104.532 239 240 255
141.705 89.4428 121.308 248 245 255
120.535 168.07 115.377 199 216 255
133.767 96.5031 111.648 215 226 255
67.5086 167.733 114.041 199 216 255
143.96 106.639 124.116 208 222 255
133.763 57.395 111.469 248 245 255
130.279 132.89 121.497 202 218 255
182.1 115.094 111.981 195 213 255
67.1632 130.615 104.179 200 217 255
71.8454 212.19 112.254 186 208 255
113.446 146.165 115.898 227 233 255
57.9562 157.78 113.221 194 213 255
104.753 78.1915 112.6 200 217 255
91.0816 135.079 119.454 202 218 255
132.437 132.664 101.559 201 218 255
207.123 93.1889 112.798 191 211 255
90.8449 51.1991 109.336 203 219 255
113.274 159.324 120.066 202 218 255
135.95 83.6261 102.404 207 221 255
55.263 45.9037 112.389 188 210 255
191.518 79.1222 112.639 175 201 255
85.1945 104.068 120.262 216 227 255
48.5393 69.02 114.606 215 226 255
69.5134 132.098 109.99 191 211 255
107.411 30.5812 111.788 202 218 255
91.4245 109.221 105.739 228 233 255
89.4336 130.254 110.339 255 252 246
116.301 132.126 102.656 255 243 232
117.94 106.096 122.009 255 200 156
124.018 117.478 124.512 196 214 255
121.207 154.298 105.887 189 210 255
83.3494 100.976 110.341 255 221 194
133.771 136.139 121.936 232 236 255
93.265 175.736 111.844 255 236 220
90.4052 64.2166 104.897 202 218 255
47.3454 86.7518 116.806 194 213 255
173.027 168.212 115.041 184 207 255
116.91 69.0066 103.514 193 212 255
158.981 174.697 109.37 204 219 255
50.2881 100.076 108.607 196 214 255
128.609 110.652 99.1523 255 244 234
67.0927 92.5652 107.278 235 237 255
90.3682 154.918 119.66 248 245 255
118.248 111.237 121.15 255 205 165
159.41 150.396 106.034 237 239 255
73.0787 85.9833 110.255 234 237 255
92.7536 57.6397 112.477 215 226 255
89.7428 129.303 126.554 238 239 255
150.873 65.8715 117.321 208 222 255
56.9334 105.723 111.134 233 236 255
140.857 107.678 107.824 255 237 222
69.0202 125.426 121.269 223 230 255
95.1114 118.81 112.602 255 254 250
157.793 104.526 114.246 212 224 255
106.341 65.7221 108.938 199 216 255
45.4599 104.445 113.59 212 224 255
151.383 111.188 101.537 255 236 220
69.2074 84.0015 106.458 204 220 255
39.3151 155.346 113.908 186 208 255
52.2237 54.1934 114.347 199 216 255
134.467 167.913 105.803 187 209 255
195.073 137.43 114.034 183 206 255
113.353 112.956 128.697 254 248 255
105.278 90.4875 97.7651 255 241 228
67.6264 60.9855 111.782 206 221 255
58.2103 102.47 109.507 196 214 255
116.603 96.7711 98.839 255 251 245
131.271 155.222 117.858 202 218 255
132.082 191.892 112.659 255 251 246
142.823 92.1488 102.453 221 229 255
52.1298 53.9216 109.91 187 208 255
121.685 75.4476 116.47 232 236 255
114.434 136.192 101.685 242 241 255
199.78 45.513 110.493 187 209 255
94.4781 154.03 121.223 200 217 255
195.541 42.2419 112.146 193 212 255
180.965 158.37 114.005 208 222 255
106.864 127.441 102.998 226 232 255
145.146 92.8242 121.219 204 219 255
83.1188 145.664 113.729 215 226 255
140.343 122.79 123.211 255 229 209
157.431 53.634 107.898 203 218 255
158.606 79.8685 109.533 206 221 255
155.17 102.195 104.945 233 237 255
109.102 121.731 108.855 255 236 221
69.8407 165.838 114.029 195 214 255
171.95 114.953 112.06 213 225 255
135.034 46.5868 113.82 195 214 255
101.325 94.3617 110.955 232 236 255
141.476 126.963 100.403 226 233 255
120.125 111.662 100.582 236 238 255
70.3136 31.447 112.87 197 215 255
110.773 96.9453 114.959 255 183 123
143.747 97.8787 125.528 255 232 214
99.2552 144.2 107.922 255 252 247
151.947 129.193 116.834 188 209 255
75.2673 114.91 119.964 195 214 255
128.964 44.06 112.286 212 224 255
60.8189 177.286 110.686 184 207 255
119.266 114.115 130.659 255 251 245
90.3589 84.9038 121.945 208 222 255
96.0493 26.0021 112.281 196 215 255
118.356 173.138 117.531 215 226 255
127.722 140.781 120.184 222 230 255
83.0516 105.274 109.513 255 255 252
46.6883 151.713 113.54 219 228 255
77.9247 209.624 112.418 188 210 255
159.892 67.1014 114.186 195 214 255
173.359 156.889 110.162 201 218 255
161.779 29.8411 110.638 206 220 255
89.1143 102.05 100.777 241 241 255
144.501 108.56 108.967 217 227 255
120.824 142.751 125.575 238 239 255
105.987 70.849 104.944 230 235 255
61.2192 146.714 109.827 195 214 255
95.292 130.81 125.954 219 228 255
112.564 125.047 96.0419 210 223 255
56.3101 84.7657 116.463 204 219 255
95.926 92.8247 122.481 240 241 255
59.0928 176.191 115.359 189 210 255
123.41 165.223 114.635 203 218 255
140.065 45.8183 115.156 208 222 255
214.248 78.3001 113.826 189 210 255
103.034 38.8262 112.026 193 213 255
37.6687 184.149 112.467 182 205 255
136.642 61.746 110.636 209 222 255
160.122 180.775 111.197 186 208 255
124.13 45.1824 108.091 212 224 255
166.883 32.0372 114.02 186 208 255
115.406 103.077 120.712 209 222 255
129.502 152.377 118.279 203 219 255
120.729 153.606 106.629 255 230 210
97.395 40.7527 109.081 199 216 255
122.651 103.275 102.144 255 231 212
70.6969 91.7247 110.206 194 213 255
150.872 52.4895 114.411 196 215 255
129.011 73.7305 117.206 201 218 255
120.106 117.245 132.369 255 178 112
124.474 27.1491 109.305 179 203 255
156.59 67.4026 110.962 204 219 255
159.311 152.864 118.216 210 223 255
205.284 132.483 113.153 207 221 255
88.1915 81.4574 105.246 200 217 255
172.222 68.065 110.25 222 230 255
132.872 135.733 122.938 215 226 255
71.9957 103.423 113.195 197 215 255
138.266 105.701 112.565 255 184 125
56.6348 41.3127 110.538 195 214 255
82.3865 139.804 108.699 218 228 255
72.8395 87.6478 105.31 202 218 255
135.904 73.0143 112.099 233 237 255
113.489 97.4642 108.098 255 217 188
108.617 53.1799 113.394 211 223 255
100.138 106.945 124.698 255 236 219
148.864 141.412 120.361 195 214 255
96.2861 124.759 117.99 234 237 255
89.3247 188.924 113.851 203 219 255
183.164 149.402 113.652 212 224 255
39.1403 135.428 115.468 191 211 255
135.678 131.778 123.73 255 253 248
86.8849 213.094 113.559 192 212 255
93.2667 44.72 116.027 208 222 255
109.356 97.8693 93.5803 255 40 0
117.384 110.436 121.061 255 174 103
66.1935 94.353 109.233 255 219 191
104.135 38.5587 112.143 190 211 255
130.127 105.238 116.567 255 242 231
66.506 50.5142 111.188 194 213 255
162.896 88.5942 117.231 198 215 255
149.007 157.223 105.818 193 212 255
140.227 170.325 114.856 223 230 255
101.846 111.583 97.9326 255 224 200
37.0422 105.698 116.332 211 223 255
68.7224 74.1622 111.556 213 225 255
194.797 139.561 112.297 194 213 255
79.4281 99.4058 104.047 213 225 255
132.941 113.867 118.394 255 244 234
142.434 101.891 122.947 233 236 255
52.7691 68.2671 110.876 240 241 255
71.4042 90.1745 113.503 200 217 255
78.3752 132.297 122.677 255 254 250
163.897 125.252 114.493 248 245 255
95.0617 57.3519 111.378 206 221 255
72.2662 103.043 102.388 208 222 255
119.077 124.053 131.522 236 238 255
105.619 104.884 96.9925 241 241 255
104.567 121.884 114.882 211 223 255
51.83 67.3101 112.944 208 221 255
133.154 154.381 103.552 193 212 255
143.896 109.386 104.892 255 224 200
138.873 140.265 115.306 200 217 255
131.771 17.6008 110.215 191 211 255
89.8584 24.698 111.189 177 202 255
172.79 56.0072 111.603 191 211 255
108.731 66.4757 106.665 202 218 255
119.865 120.127 94.8791 255 204 163
61.2483 82.6573 116.454 231 235 255
78.774 137.87 118.642 255 250 243
149.833 149.099 107.634 211 224 255
67.7917 96.5243 113.136 198 216 255
143.642 146.342 103.922 210 223 255
75.295 30.2997 110.553 189 210 255
122.614 114.176 129.815 245 243 255
47.5046 94.4988 116.433 235 238 255
201.451 97.7931 112.815 189 210 255
114.265 98.773 123.148 238 239 255
79.7842 92.0252 103.632 255 236 219
81.3897 152.65 118.437 193 212 255
192.275 99.9418 114.934 197 215 255
81.7987 80.068 107.638 205 220 255
65.921 123.071 119.252 191 211 255
57.8427 166.288 109.354 189 210 255
76.3945 84.5439 109.459 255 225 201
68.4548 148.229 110.661 189 210 255
89.5995 43.6839 107.816 213 224 255
149.369 146.96 116.081 255 246 237
135.658 129.669 109.3 255 234 217
131.255 72.8266 107.829 232 236 255
92.3489 80.8195 118.862 255 250 243
106.121 150.363 110.323 234 237 255
136.018 76.4482 120.707 209 222 255
97.5816 6.29438 114.224 186 208 255
89.4836 39.3258 116.341 194 213 255
122.978 130.452 125.287 206 220 255
60.2637 117.707 114.146 255 153 57
100.639 122.589 97.9436 255 236 221
125.899 99.548 120.114 255 250 244
181.487 52.2029 109.568 186 208 255
80.76 64.4912 115.456 205 220 255
119.057 79.3504 125.254 242 242 255
121.435 175.514 112.63 249 245 255
63.5656 124.08 108.931 255 250 243
178.686 148.35 112.585 200 217 255
216.59 98.1119 112.917 174 201 255
107.481 173.864 106.868 205 220 255
176.679 38.4592 111.761 189 210 255
144.904 94.849 100.349 231 235 255
91.5422 94.2937 125.54 225 232 255
71.8411 97.1115 107.396 255 238 224
40.5812 183.242 112.587 207 221 255
109.189 49.801 110.483 207 221 255
72.3222 120.452 115.266 201 218 255
221.79 120.179 112.618 186 208 255
80.9118 102.94 125.31 221 229 255
147.694 164.671 110.158 203 218 255
72.7426 114.46 111.426 234 237 255
213.042 103.902 111.87 181 205 255
124.633 107.981 123.699 255 227 205
30.0441 86.5235 109.594 180 204 255
206.307 145.618 111.299 191 211 255
22.117 121.871 112.199 194 213 255
145.363 80.7326 108.458 255 223 197
76.6143 102.465 105.992 212 224 255
171.546 90.2534 111.266 192 212 255
125.292 159.542 110.294 223 231 255
83.9046 96.5813 105.993 245 243 255
109.101 100.587 117.008 255 237 222
118.245 134.941 122.886 255 236 219
106.104 106.114 98.0579 255 249 242
56.6337 66.1105 111.076 254 248 255
90.8976 156.651 111.158 227 233 255
144.103 18.1559 110.194 194 213 255
36.2055 120.929 116.605 198 215 255
193.215 99.7051 109.813 196 214 255
129.459 68.9744 120.256 192 212 255
63.2813 69.714 115.898 196 215 255
56.0418 90.9593 111.149 203 219 255
68.3269 136.627 105.774 255 241 228
108.86 166.046 112.627 255 235 218
172.222 107.572 111.976 205 220 255
143.06 98.1264 100.925 255 240 226
105.191 48.607 110.073 205 220 255
132.801 107.673 113.965 212 224 255
197.78 75.7564 113.709 196 214 255
142.596 99.0642 121.668 255 192 141
142.961 68.9834 111.675 215 226 255
84.8906 132.669 110.75 255 249 242
201.656 48.8602 114.551 194 213 255
120.232 68.3273 104.78 214 225 255
137.956 70.7605 115.652 195 214 255
112.186 90.7288 105.773 196 214 255
96.7669 89.4853 120.122 255 246 237
80.311 216.66 112.347 188 210 255
105.739 164.198 109.739 197 215 255
130.305 190.536 110.667 183 206 255
46.0944 174.146 111.857 200 217 255
119.238 106.117 119.329 255 161 76
109.862 78.2707 116.761 255 224 200
154.557 202.845 113.157 184 207 255
85.6343 204.214 114.83 186 208 255
35.7024 139.999 112.537 197 215 255
101.669 88.1823 107.018 255 223 198
107.848 151.975 109.616 215 226 255
61.6318 69.3032 112.88 226 232 255
146.89 39.2324 113.902 196 214 255
153.5 124.09 118.702 199 216 255
127.05 151.827 107.239 233 237 255
147.729 204.44 113.299 225 232 255
96.6342 12.8221 112.899 184 207 255
80.7873 36.8441 113.9 189 210 255
135.855 54.4967 110.733 188 209 255
122.162 118.65 103.226 220 229 255
133.658 128.25 116.262 214 225 255
103.961 123.924 111.628 255 253 249
122.469 116.504 102.552 208 222 255
79.9197 33.6008 109.858 218 228 255
149.261 9.95187 113.477 180 204 255
164.617 105.734 110.934 193 213 255
127.4 103.674 103.631 232 236 255
105.057 160.416 117.224 221 230 255
137.066 82.8106 115.4 255 245 235
112.892 125.164 105.161 255 201 158
129.351 165.164 105.231 194 213 255
22.9188 66.7294 113.508 179 204 255
135.846 108.163 104.341 255 186 127
149.739 86.6158 117.334 215 226 255
93.4235 103.947 100.037 255 203 161
59.701 124.85 107.829 191 211 255
87.037 68.4124 120.161 255 199 155
125.272 138.823 107.224 206 221 255
43.8397 179.636 112.735 193 212 255
214.348 77.4439 113.168 195 214 255
152.352 168.422 108.093 186 208 255
166.654 76.4457 107.792 229 234 255
159.318 158.93 114.78 197 215 255
130.899 94.4127 126.879 213 225 255
72.8963 125.694 117.231 222 230 255
69.3795 38.358 111.687 190 210 255
102.587 140.011 98.4078 248 245 255
22.3588 83.9933 110.082 188 209 255
143.922 109.048 124.651 213 225 255
178.822 75.6897 108.524 211 224 255
47.8237 107.082 112.947 196 214 255
92.0126 66.9411 106.732 201 218 255
114.676 175.714 114.872 190 211 255
65.8443 91.7135 111.241 240 240 255
66.7167 73.1306 114.716 233 237 255
122.3 141.854 120.082 236 238 255
63.8501 17.8698 112.364 182 205 255
92.0997 82.954 111.851 253 248 255
190.456 134.693 115.597 194 213 255
96.6733 89.7383 119.787 229 234 255
44.6046 76.2066 111.31 186 208 255
91.9001 73.3461 119.702 220 229 255
115.912 178.36 113.151 221 229 255
127.004 66.7949 115.622 255 248 240
98.0073 57.5397 111.574 218 228 255
165.24 139.481 109.94 214 225 255
106.507 36.6452 113.108 209 223 255
126.153 115.448 119.761 213 225 255
72.5894 149.465 112.738 225 232 255
189.755 115.781 108.949 201 217 255
130.622 156.861 110.935 223 231 255
4.59192 116.971 110.846 186 208 255
80.9745 129.861 118.427 210 223 255
97.0884 71.1814 104.114 255 195 146
25.4301 45.993 110.596 194 213 255
60.1294 107.06 105.926 199 216 255
162.404 127.806 108.293 216 226 255
143.446 136.088 111.214 203 219 255
65.0945 50.1862 113.69 188 209 255
86.4264 159.551 109.931 248 245 255
162.245 173.992 111.559 222 230 255
82.8083 115.873 101.997 224 231 255
54.2557 41.2668 114.736 197 215 255
126.131 120.062 111.972 255 253 249
195.32 52.0068 113.457 201 217 255
29.873 107.389 111.267 200 217 255
124.062 188.357 114.302 193 213 255
144.416 93.569 118.266 203 219 255
72.4914 42.0136 114.915 202 218 255
145.523 60.0292 106.671 205 220 255
30.2591 176.002 111.724 186 208 255
182.788 160.383 113.718 212 224 255
58.6507 118.983 110.394 202 218 255
92.1758 121.491 105.123 244 243 255
144.508 189.364 114.786 199 216 255
161.447 148.937 112.021 221 230 255
64.6635 107.123 109.376 212 224 255
105.491 119.707 108.172 255 215 184
122.95 24.4267 113.447 187 209 255
96.0293 42.6201 110.015 204 219 255
129.827 88.745 111.081 225 232 255
121.914 137.317 122.557 226 232 255
165.536 152.72 113.007 210 223 255
154.715 147.969 108.367 193 213 255
141.721 74.0497 114.278 218 228 255
108.359 88.2089 116.484 255 212 178
152.948 121.265 110.286 199 216 255
148.156 47.7223 111.693 212 224 255
113.525 84.5245 113.424 216 227 255
98.6251 64.3986 112.59 194 213 255
122.149 183.997 115.715 190 211 255
217.61 84.4618 112.442 184 207 255
107.305 92.2576 119.686 255 252 248
88.4754 54.3936 107.336 204 219 255
106.512 203.176 114.131 190 210 255
118.259 103.161 114.33 255 217 187
59.3923 83.4313 111.398 191 211 255
105.23 138.607 121.044 255 241 229
134.849 100.062 107.462 255 214 181
127.502 110.885 105.574 255 249 242
93.9496 163.693 111.888 238 239 255
160.931 107.762 110.641 204 219 255
79.1235 125.722 111.16 255 244 234
28.1077 108.043 109.88 234 237 255
58.3262 103.778 118.771 186 208 255
177.09 142.404 114.124 242 242 255
109.565 188.487 109.029 206 221 255
10.9846 118.995 112.02 199 216 255
38.138 173.828 113.303 191 211 255
117.884 183.066 108.853 180 204 255
165.667 118.992 118.03 199 216 255
125.574 45.846 113.378 202 218 255
85.8874 155.938 110.583 203 219 255
92.0306 166.271 117.375 217 227 255
168.823 108.384 112.909 206 221 255
63.9154 191.875 111.932 187 209 255
110.44 15.1868 114.017 189 210 255
113.265 134.346 105.815 217 227 255
136.951 141.915 108.309 202 218 255
116.192 185.999 112.005 217 227 255
181.268 172.994 112.44 207 221 255
165.431 136.86 111.356 194 213 255
88.2276 112.116 125.365 222 230 255
127.55 194.133 114.394 189 210 255
200.478 132.734 110.065 194 213 255
84.8395 120.167 124.463 211 223 255
166.046 162.031 113.298 212 224 255
58.5751 81.6381 106.852 198 215 255
68.2095 49.3985 115.199 196 214 255
117.84 98.2282 113.4 255 233 216
18.6347 124.947 114.554 227 233 255
112.603 96.6756 116.413 255 250 243
121.026 131.338 121.054 255 254 251
94.3678 98.1366 116.267 243 242 255
63.9557 167.478 116.22 198 215 255
96.066 126.644 122.489 255 233 215
107.617 142.69 116.95 255 255 251
108.089 106.55 97.9535 255 254 249
43.3617 195.589 114.181 184 207 255
73.3127 33.5255 110.526 189 210 255
81.7166 62.2512 116.485 255 242 231
53.0732 81.75 108.835 220 229 255
112.533 77.0498 122.059 247 245 255
115.59 104.189 90.8923 216 226 255
124.897 182.572 113.697 186 208 255
120.583 96.047 108.417 253 248 255
84.8704 93.0633 121.551 218 228 255
125.966 70.5276 122.748 209 222 255
168.465 88.3343 109.587 223 231 255
38.889 51.2122 112.737 218 227 255
128.049 98.1815 109.476 255 178 112
50.1144 68.8004 110.199 192 212 255
126.802 139.568 109.632 228 233 255
66.3481 68.071 118.394 212 224 255
112.692 113.143 122.538 255 249 255
144.806 103.529 101.484 255 248 240
89.8376 66.5156 121.423 216 226 255
144.651 39.282 109.207 202 218 255
133.191 123.584 119.456 254 248 255
217.343 87.9272 111.173 199 216 255
166.576 17.5065 111.86 188 210 255
81.8564 61.7859 109.773 223 231 255
128.377 109.188 103.887 207 221 255
124.772 176.409 114.041 191 211 255
177.351 78.1827 111.224 192 212 255
48.7586 163.86 109.106 195 213 255
19.7082 127.135 110.019 199 216 255
133.699 207.612 112.299 201 217 255
113.276 103.156 134.526 255 214 181
137.502 219.234 113.243 185 207 255
130.996 61.4228 108.43 201 217 255
118.714 168.996 114.203 198 216 255
32.297 183.18 114.01 188 210 255
45.9078 69.8387 110.218 185 207 255
136.242 219.447 109.676 190 211 255
142.018 99.9196 124.698 255 235 218
136.563 165.753 114.945 218 228 255
124.758 207.208 113.838 198 215 255
116.772 116.479 96.0099 255 222 195
137.624 104.077 108.631 220 229 255
87.7219 178.623 115.063 198 216 255
86.7757 112.955 98.6326 255 197 150
158.382 138.086 112.85 205 220 255
211.389 113.716 111.445 179 204 255
61.1647 181.097 112.576 198 215 255
148.507 124.214 111.859 255 254 251
47.4726 114.48 110.288 250 246 255
83.3451 56.0922 115.646 202 218 255
121.707 174.658 111.511 196 214 255
117.631 85.8705 101.858 221 229 255
122.173 91.7331 111.154 235 238 255
36.5535 138.049 109.199 203 219 255
206.915 62.6121 114.803 196 214 255
115.96 134.668 108.624 226 232 255
121.249 124.54 104.337 255 230 210
109.008 145.21 105.325 210 223 255
72.9854 109.835 107.583 255 240 226
109.381 156.104 111.765 205 220 255
57.199 157.266 112.638 234 237 255
125.264 60.2351 114.853 204 219 255
94.4619 136.913 106.444 229 234 255
191.924 80.6188 113.8 194 213 255
156.429 145.321 110.941 203 219 255
110.818 79.0606 108.148 206 221 255
103.618 145.951 99.208 225 232 255
128.241 92.4993 99.6084 204 220 255
79.3293 132.766 115.484 255 241 228
89.1474 92.8052 107.541 249 246 255
145.601 105.698 107.759 206 220 255
51.572 31.3892 112.101 226 232 255
155.682 101.931 110.424 217 227 255
31.714 87.6176 114.186 199 216 255
116.275 140.1 117.328 231 235 255
105.051 96.6853 106.885 255 242 230
61.2989 113.313 120.598 251 247 255
91.9162 108.073 103.152 227 233 255
216.128 132.78 110.146 192 212 255
58.7802 110.962 116.93 255 251 246
102.456 78.5457 112.606 203 219 255
125.993 112.177 112.64 255 237 221
183.012 51.9739 109.986 183 206 255
133.047 76.7704 114.514 223 231 255
57.9014 59.2626 111.642 185 207 255
154.628 125.983 121.772 255 238 223
90.0115 145.872 119.173 219 228 255
25.8138 130.936 111.194 205 220 255
219.604 132.198 115.174 191 211 255
149.983 114.043 121.594 188 209 255
91.5874 114.879 103.272 217 227 255
112.083 130.766 113.746 219 228 255
60.2317 43.1216 112.187 182 206 255
109.05 122.52 130.457 201 217 255
217.113 88.3537 110.957 183 206 255
53.4809 170.002 109.364 218 228 255
168.11 127.306 117.875 203 219 255
198.859 97.4686 115.111 199 216 255
79.2891 130.621 115.97 255 245 235
123.843 110.109 114.727 247 244 255
161.238 85.7826 105.275 213 225 255
134.983 135.003 113.474 196 214 255
116.718 211.615 112.185 207 221 255
133.088 111.765 112.637 255 251 246
211.657 160.563 113.299 181 205 255
71.2923 191.22 111.83 210 223 255
149.501 68.118 116.331 209 223 255
67.4728 184.76 114.227 195 214 255
174.043 106.549 109.163 203 219 255
109.768 70.6424 102.771 209 222 255
83.5607 70.1367 118.699 243 242 255
184.823 182.224 113.547 202 218 255
84.2449 72.2237 117.269 192 212 255
103.224 103.135 124.325 255 199 154
24.9627 92.3086 111.653 193 213 255
78.3136 135.364 113.162 199 216 255
136.625 136.428 105.897 255 250 255
118.711 164.51 114.193 192 212 255
77.8084 87.2294 120.574 197 215 255
112.521 94.6761 112.233 255 248 240
73.7807 83.968 118.279 255 243 232
78.8919 54.3687 107.806 206 221 255
129.723 145.754 117.081 239 240 255
102.497 154.803 107.048 207 221 255
96.4426 161.938 107.166 207 221 255
59.6579 78.9367 117.592 212 224 255
73.6534 89.3302 115.814 209 222 255
67.6927 146.758 108.169 195 214 255
109.844 87.4675 114.315 216 227 255
106.501 90.8967 118.591 255 249 241
54.7294 69.2245 109 255 252 247
95.9745 150.286 116.028 207 221 255
120.463 98.5621 117.821 255 195 146
119.391 149.646 111.011 206 220 255
76.3089 183.442 113.361 190 211 255
107.115 128.084 110.074 255 251 255
167.901 16.8088 113.351 186 208 255
148.609 89.0345 117.309 219 229 255
101.625 163.015 108.611 202 218 255
91.7707 105.37 96.7697 255 239 226
80.7577 112.608 119.656 209 222 255
121.625 162.731 111.352 192 212 255
103.214 111.549 101.134 255 241 228
135.169 47.5535 107.841 202 218 255
91.8984 94.5972 102.833 255 244 233
163.504 98.8451 104.449 206 221 255
196.045 65.3185 112.25 202 218 255
189.254 134.856 113.594 248 245 255
105.115 77.1665 104.295 255 221 194
150.179 115.374 122.864 222 230 255
79.9675 79.386 107.768 211 224 255
119.939 132.573 108.748 255 224 200
15.5701 111.647 114.618 200 217 255
205.538 146.273 114.298 209 222 255
162.723 23.7081 111.704 195 214 255
100.544 112.382 101.481 194 213 255
167.933 57.0565 108.401 196 215 255
132.487 80.7657 121.419 206 221 255
169.559 130.192 112.458 193 213 255
80.8454 138.068 102.079 223 231 255
213.832 114.721 114.252 189 210 255
101.983 115.581 125.823 220 229 255
105.629 71.8687 112.616 210 223 255
107.162 96.4371 115.781 238 239 255
76.3371 75.4843 107.053 218 228 255
191.048 108.801 109.403 195 214 255
108.166 125.47 113.213 255 249 242
142.399 144.203 120.77 207 221 255
112.93 69.9738 111.617 241 241 255
178.778 121.378 109.685 255 244 233
113.898 154.582 109.156 209 222 255
127.849 164.936 109.559 211 223 255
149.835 59.6794 111.007 227 233 255
190.826 78.6516 111.487 225 232 255
109.14 161.382 119.886 191 211 255
113.667 105.409 127.397 255 223 197
82.9253 156.123 116.448 215 226 255
83.0487 80.4687 112.523 230 235 255
126.528 110.267 116.379 215 226 255
86.9021 101.063 100.103 222 230 255
84.4173 146.668 111.951 225 232 255
192.145 152.529 113.167 197 215 255
