ply
format ascii 1.0
element vertex 1341
property float x
property float y
property float z
property uchar red
property uchar green
property uchar blue
end_header
94.0496 173.596 110.768 188 209 255
219.582 50.3143 110.088 255 230 209
111.921 127.737 115.552 205 220 255
66.0271 215.347 110.854 187 209 255
106.641 0.997738 117.553 187 209 255
75.9924 147.105 102.174 221 229 255
118.274 163.286 113.504 192 212 255
133.616 71.1504 109.622 209 222 255
101.274 141.538 117.717 213 225 255
123.475 122.181 111.818 255 225 202
116.096 145.59 112.561 255 250 243
93.9939 173.658 110.805 229 234 255
113.105 104.543 95.9771 255 208 171
118.718 110.804 107.757 226 233 255
98.4807 176.69 102.283 255 248 240
15.9906 64.7486 117.282 183 206 255
118.638 128.732 104.175 216 227 255
166.035 153.543 114.104 210 223 255
117.473 113.511 107.77 248 245 255
51.2876 210.694 123.222 201 217 255
159.975 139.749 112.405 210 223 255
114.027 122.406 103.229 223 231 255
98.9701 145.292 114.563 255 185 126
68.9987 44.4664 95.2645 201 217 255
62.1685 80.8329 93.1849 200 217 255
3.29251 164.16 111.974 190 211 255
174.605 22.9257 105.43 185 208 255
113.715 141.239 109.332 255 239 225
14.7072 53.5236 117.735 202 218 255
102.956 129.352 110.786 255 221 194
103.934 160.869 121.34 213 225 255
94.0809 173.547 110.744 191 211 255
106.448 118.485 115.374 242 241 255
174.632 84.9377 112.173 206 221 255
93.9824 173.674 110.816 242 241 255
121.567 185.684 100.584 187 208 255
122.36 115.267 108.274 251 246 255
100.133 154.056 109.994 215 226 255
102.295 137.752 107.364 208 222 255
93.5828 56.388 113.235 199 216 255
181.411 109.677 106.851 201 217 255
176.321 122.669 95.4937 205 220 255
45.504 101.789 106.642 199 217 255
41.0495 219.494 102.125 184 207 255
87.6405 213.918 112.479 192 212 255
93.9829 173.673 110.816 255 230 209
160.627 125.777 115.01 226 232 255
178.746 94.2211 115.519 201 217 255
93.7639 173.616 110.448 213 225 255
93.9842 173.672 110.814 199 216 255
78.278 183.57 113.562 211 223 255
154.247 110.067 117.882 198 216 255
104.174 91.032 116.872 255 245 236
100.505 216.678 117.039 199 216 255
32.3436 138.33 113.466 209 223 255
64.137 134.153 106.309 197 215 255
100.839 105.779 118.94 216 226 255
139.475 61.7874 118.571 202 218 255
181.062 95.2235 114.941 193 213 255
65.1605 147.741 109.926 192 212 255
72.4866 139.335 122.961 255 211 176
83.1834 173.975 112.022 214 225 255
121.241 128.94 117.415 215 226 255
155.331 96.8795 93.0496 255 253 248
115.163 97.2959 114.278 255 240 227
115.78 20.5761 111.76 198 215 255
86.0781 106.227 109.521 238 239 255
111.162 102.315 125.775 255 208 171
171.091 129.633 113.41 195 214 255
222.029 103.75 108.675 191 211 255
171.673 128.34 109.834 202 218 255
97.9575 141.759 131.086 201 217 255
124.419 116.57 114.212 226 232 255
210.018 159.323 115.462 195 214 255
108.909 107.074 106.494 235 238 255
100.349 96.9336 115.886 212 224 255
85.9769 147.055 106.599 229 234 255
112.216 131.48 102.023 255 242 229
69.0567 144.273 96.6766 199 216 255
200.422 124.408 120.009 194 213 255
53.9852 74.0162 104.592 193 212 255
177.139 137.828 126.476 192 212 255
113.696 109.024 124.097 255 251 246
103.683 106.07 105.645 255 123 0
122.527 170.354 110.576 195 214 255
94.0316 173.872 110.592 255 245 236
102.273 97.1314 115.663 237 239 255
54.1192 117.976 122.395 197 215 255
101.401 68.1563 115.045 199 216 255
94.0088 173.64 110.793 219 228 255
160.658 81.4114 128.132 223 231 255
179.085 80.9455 109.599 200 217 255
65.8085 88.6449 110.487 203 219 255
59.919 66.0542 106.593 210 223 255
69.4 142.669 117.945 255 254 250
39.5726 78.1543 112.621 186 208 255
122.878 121.04 109.839 255 241 229
47.6026 68.5184 126.424 192 212 255
103.784 161.067 99.6737 255 251 255
130.814 141.7 115.675 186 208 255
33.6197 120.826 108.841 187 208 255
107.911 112.227 112.623 248 245 255
61.2797 147.91 95.6906 218 228 255
67.3878 99.6703 109.988 216 227 255
82.2002 180.77 101.384 255 209 172
107.564 120.004 106.522 245 243 255
108.408 111.485 116.971 255 201 158
59.0913 89.7026 112.326 255 246 237
59.8115 141.982 122.777 233 236 255
119.395 127.275 105.671 255 251 246
111.417 135.269 103.28 222 230 255
55.8622 105.664 111.202 196 215 255
99.9284 113.679 108.637 217 227 255
138.614 6.27447 105.324 192 212 255
137.241 83.2428 104.651 252 247 255
44.9218 147.505 114.843 198 216 255
209.134 150.973 113.524 214 225 255
140.839 179.166 112.72 224 231 255
114.556 129.1 124.991 217 227 255
122.44 156.04 112.825 216 226 255
77.8696 148.241 102.403 255 235 218
224.821 107.17 112.807 181 205 255
104.892 105.199 114.08 255 225 202
87.2254 127.63 111.935 234 237 255
85.9344 180.277 111.404 255 199 154
62.7453 98.9379 110.552 186 208 255
4.11026 155.411 111.36 195 213 255
94.0109 173.636 110.79 196 214 255
86.3773 144.494 102.23 198 216 255
140.502 85.4023 109.688 222 230 255
149.742 142.969 113.469 211 224 255
113.034 124.128 113.748 227 233 255
93.7513 215.713 137.286 183 206 255
74.7108 44.5587 111.032 190 210 255
17.3282 176.358 114.395 198 216 255
139.493 58.3 108.323 255 252 247
67.6475 131.255 100.922 203 219 255
117.257 93.8889 122.685 255 242 230
165.262 78.9403 114.917 200 217 255
94.012 173.541 110.806 199 216 255
131.854 77.5099 108.009 231 236 255
108.902 160.147 107.546 196 214 255
61.4468 50.1679 114.959 191 211 255
102.258 80.8644 116.494 197 215 255
158.711 138.111 107.356 198 215 255
144.908 87.6582 115.617 233 236 255
126.529 84.8052 111.881 228 234 255
160.071 213.777 29.4397 193 213 255
93.9771 173.68 110.834 255 250 244
82.4861 59.0398 114.651 255 235 218
115.891 127.18 105.624 255 212 179
108.817 132.063 110.263 190 211 255
168.422 149.316 116.805 188 210 255
105.046 121.911 110.013 226 232 255
109.72 100.304 110.532 255 235 218
123.812 124.079 103.445 255 240 227
162.9 104.943 102.227 206 220 255
100.984 132.904 115.841 249 245 255
93.4028 175.051 111.411 238 239 255
173.929 13.3177 120.059 199 216 255
196.494 23.9944 122.109 195 214 255
119.705 70.1398 112.082 255 255 251
215.048 70.2084 113.083 187 209 255
57.1404 121.617 112.5 214 225 255
62.1551 205.515 155.93 250 246 255
136.948 72.2345 115.872 253 248 255
80.4736 129.842 105.854 189 210 255
216.221 148.037 109.66 191 211 255
2.65042 150.022 164.348 223 231 255
111.375 140.614 116.991 255 245 235
137.643 166.907 110.357 198 216 255
123.917 180.881 120.066 203 219 255
118.439 104.081 103.705 255 236 219
163.36 22.3087 112.87 192 212 255
101.988 170.029 99.7603 215 226 255
11.0657 181.627 112.401 189 210 255
93.9778 173.681 110.821 255 254 250
104.731 110.653 125.797 255 246 237
93.3302 174.488 110.634 248 245 255
110.044 126.238 108.545 255 254 251
87.1968 79.5717 113.654 232 236 255
70.4617 117.702 128.231 225 232 255
109.428 103.458 114.75 255 250 255
161.279 101.075 132.119 211 223 255
105.005 106.959 109.962 255 250 243
98.4742 30.2036 98.9005 203 219 255
114.787 130.391 100.963 224 231 255
105.785 163.613 113.61 198 216 255
104.983 167.22 104.673 214 225 255
212.702 153.956 112.034 190 211 255
98.1655 16.6926 113.512 191 211 255
163.147 123.219 94.0837 209 223 255
93.95 173.733 110.86 212 224 255
119.384 10.7642 120.159 184 207 255
73.0805 146.393 108.562 182 205 255
154.281 92.1127 104.987 255 242 229
113.48 111.126 115.392 221 229 255
155.43 168.133 112.315 190 211 255
45.0109 146.97 111.849 192 212 255
141.696 73.1798 129.394 205 220 255
100.414 130.524 109.739 255 255 251
122.034 123.354 55.1515 199 216 255
181.844 133.782 95.0748 213 224 255
93.983 173.673 110.815 234 237 255
114.493 129.116 100.704 196 214 255
93.7552 173.29 110.385 250 246 255
43.4947 105.971 101.69 221 230 255
126.598 115.092 107.951 255 218 189
120.501 97.0324 116.859 199 216 255
167.565 96.052 116.445 214 225 255
13.482 120.559 127.032 193 212 255
101.663 104.46 106.393 255 233 215
103.004 101.926 108.233 255 252 248
205.959 37.3434 107.169 189 210 255
105.224 100.758 111.014 255 212 178
102.9 128.5 116.79 255 225 202
103.819 114.854 111.545 219 228 255
72.5873 114.642 111.891 200 217 255
28.9604 209.077 107.314 192 212 255
71.3524 102.154 112.964 255 236 221
109.139 163.351 118.129 251 246 255
60.8294 94.4459 93.7013 217 227 255
109.643 208.012 132.707 199 216 255
58.2883 130.705 109.408 187 209 255
18.4541 208.919 102.195 187 209 255
57.1143 158.652 111.201 182 205 255
188.208 104.497 110.843 189 210 255
87.7943 173.934 113.752 247 244 255
95.3297 172.696 110.557 255 229 207
131.262 117.537 117.346 196 214 255
112.346 99.7983 115.671 224 231 255
145.842 185.66 129.452 211 223 255
123.987 3.66697 86.8692 180 204 255
100.439 182.774 109.155 191 211 255
76.4297 137.839 96.8689 254 248 255
103.056 124.214 124.554 204 220 255
101.757 118.395 118.07 230 234 255
93.9928 37.0827 108.987 198 215 255
169.652 113.514 110.189 201 217 255
57.1119 95.197 102.56 196 214 255
108.531 106.412 111.413 222 230 255
124.519 7.44684 111.435 189 210 255
108.549 160.318 110.067 255 227 205
109.198 94.1768 117.603 222 230 255
58.8133 111.591 109.427 214 225 255
121.911 119.887 104.442 202 218 255
51.4118 85.6508 101.083 190 210 255
93.9886 173.667 110.81 235 238 255
207.724 151.837 114.3 204 219 255
127.626 77.1988 123.542 255 220 193
106.992 176.6 114.308 198 216 255
153.092 103.973 112.327 219 228 255
100.819 168.122 107.5 255 240 227
21.8688 161.055 116.975 208 222 255
79.5987 134.125 112.365 196 214 255
99.2582 166.929 101.389 235 238 255
80.2722 136.559 122.214 208 222 255
106.518 39.2081 114.591 195 214 255
93.9604 163.136 107.21 254 248 255
133.713 87.3447 109.93 201 217 255
127.431 106.536 116.867 253 247 255
104.777 102.033 123.764 255 250 244
131.066 103.004 114.542 209 222 255
113.279 143.976 105.934 216 227 255
150.688 99.2421 97.2019 255 228 206
99.146 108.165 122.584 255 231 211
83.9976 42.4316 112.599 194 213 255
110.483 40.9048 134.043 255 200 156
161.181 80.6937 114.6 199 216 255
170.854 118.324 114.444 187 208 255
117.332 107.152 98.4196 255 204 164
101.113 117.669 115.105 235 237 255
128.511 61.4638 115.687 205 220 255
167.483 114.536 110.775 255 253 249
92.7101 175.548 112.217 247 244 255
93.998 173.626 110.862 224 231 255
127.916 90.9937 115.691 205 220 255
169.838 14.5361 113.848 190 211 255
42.0719 149.368 110.612 193 212 255
108.333 96.7392 92.3403 201 217 255
93.9788 173.679 110.82 197 215 255
129.6 94.0496 115.49 241 241 255
57.4889 125.086 124.128 205 220 255
93.9965 173.655 110.802 191 211 255
121.649 79.2803 123.542 203 219 255
103.519 102.23 111.375 251 247 255
117.534 135.552 122.861 255 202 160
93.9662 173.717 110.868 192 212 255
93.9701 173.692 110.83 255 252 247
137.828 95.9403 112.212 201 218 255
62.4075 123.078 116.372 200 217 255
68.085 37.7925 109.519 197 215 255
66.8346 146.526 147.049 206 220 255
86.0326 50.1277 115.909 190 211 255
94.0028 173.646 110.797 247 245 255
118.893 146.435 108.788 255 195 146
107.901 138.877 122.487 210 223 255
93.9845 173.671 110.814 211 223 255
93.9763 173.683 110.823 190 211 255
106.848 97.7836 107.175 227 233 255
76.3055 32.0428 103.236 182 205 255
96.9845 91.8953 115.453 255 254 250
93.4394 100.686 122.274 255 187 131
151.802 147.403 99.9708 201 217 255
112.642 132.301 107.06 205 220 255
93.9368 173.657 110.826 255 231 211
93.8802 46.4073 114.314 186 208 255
139.47 110.797 111.738 255 247 239
147.378 24.4659 114.008 199 216 255
138.771 90.1578 115.709 211 223 255
98.9854 170.601 110.231 210 223 255
111.187 29.5633 106.687 203 219 255
101.023 75.1646 131.594 196 214 255
215.744 128.275 117.47 196 214 255
94.9522 138.299 110.446 255 243 232
71.0061 124.409 115.445 201 217 255
102.887 46.4836 112.64 211 224 255
133.338 77.8525 113.717 209 222 255
142.118 91.9638 110.887 214 225 255
125.026 71.0667 121.217 185 207 255
114.511 127.384 106.479 255 216 184
58.3658 109.477 106.107 188 210 255
183.266 163.305 101.976 193 212 255
82.0576 91.6994 112.077 205 220 255
111.635 128.361 110.636 204 219 255
145.595 104.505 114.245 255 215 183
99.5612 110.871 101.175 235 238 255
93.9935 173.659 110.805 219 228 255
152.886 38.009 92.2292 183 206 255
86.3405 116.69 110.286 255 253 248
101.191 130.013 110.431 255 238 224
60.1963 121.824 110.32 255 252 247
83.7261 18.8462 80.5699 184 207 255
60.6371 67.963 97.5146 197 215 255
137.645 104.044 111.877 200 217 255
115.924 75.5718 100.302 216 226 255
158.802 100.488 113.246 203 219 255
99.754 120.01 107.507 211 224 255
134.945 21.4643 114.303 193 213 255
120.961 113.046 113.364 255 216 184
106.494 125.064 112.908 236 238 255
116.106 100.073 108.673 207 221 255
102.138 106.895 116.459 255 213 179
173.966 18.8565 109.673 192 212 255
115.74 83.0437 116.03 212 224 255
110.893 110.126 120.555 232 236 255
122.238 126.3 120.865 255 217 186
129.012 44.6496 111.356 218 228 255
125.22 119.247 108.643 255 225 201
156.573 88.3117 114.459 203 218 255
105.913 83.2259 111.605 255 245 235
113.585 124.081 109.287 212 224 255
96.8979 103.055 108.877 196 214 255
66.7296 146.229 99.8321 255 248 240
212.858 164.066 116.821 186 208 255
74.1543 126.604 132.607 201 217 255
112.208 134.433 103.588 255 249 242
113.039 144.937 106.348 237 239 255
93.9817 173.675 110.817 209 222 255
121.733 77.375 121.674 210 223 255
125.475 82.8965 109.906 203 219 255
23.5828 111.656 112.155 180 205 255
93.6845 173.396 110.644 217 227 255
144.661 100.782 115.321 239 240 255
102.567 126.926 107.052 255 239 224
101.759 116.263 120.326 255 162 78
172.13 133.289 102.191 206 220 255
122.478 126.59 110.527 255 227 205
142.506 79.8383 117.069 188 210 255
89.2253 147.809 107.158 211 223 255
154.907 179.147 148.68 217 227 255
217.431 49.2908 109.683 195 214 255
8.44144 135.42 111.198 185 208 255
111.171 101.041 114.588 255 202 160
80.1001 143.135 126.416 206 220 255
178.455 147.833 113.085 255 249 243
96.0771 109.676 109.012 228 234 255
173.027 146.791 111.102 200 217 255
27.7247 41.8064 105.268 190 211 255
104.951 68.5841 111.467 204 219 255
66.6564 63.2506 116.079 203 219 255
106.793 138.429 121.541 255 251 245
141.227 162.71 110.716 189 210 255
164.702 111.137 109.721 214 225 255
115.549 134.802 103.016 255 237 222
43.0074 125.535 102.605 199 216 255
33.4588 220.691 105.901 194 213 255
93.9716 173.69 110.828 255 249 255
94.3017 172.624 110.463 255 228 206
81.1865 66.9601 112.294 199 216 255
153.674 113.349 111.883 198 215 255
101.548 109.045 109.592 255 253 249
139.982 10.0832 97.668 207 221 255
60.6989 198.464 112.802 184 207 255
111.306 134.111 116.614 255 238 224
203.738 72.3378 106.919 177 202 255
114.679 98.3737 109.653 201 217 255
122.26 83.3074 111.635 242 242 255
117.482 174.497 111.069 195 214 255
110.383 103.809 101.89 211 224 255
158.907 134.702 112.147 216 226 255
26.3147 189.36 117.441 182 205 255
122.615 119.614 107.332 242 242 255
83.695 150.657 104.833 210 223 255
114.453 96.1458 109.707 255 241 229
127.156 113.231 107.563 255 242 231
167.497 160.725 115.517 183 206 255
94.0242 173.619 110.781 218 228 255
103.753 100.962 105.516 254 248 255
93.1446 175.19 111.934 239 240 255
87.1492 180.962 107.619 214 226 255
92.5881 102.83 117.477 219 228 255
85.0913 181.124 91.732 222 230 255
97.8555 115.356 110.21 255 196 148
51.5832 78.74 116.174 188 209 255
101.995 108.681 123.249 255 238 224
93.9806 173.677 110.818 255 213 181
133.849 82.1274 121.873 203 218 255
93.7953 146.089 110.942 187 209 255
93.9825 173.674 110.816 223 231 255
93.957 173.706 110.844 224 231 255
109.149 126.68 108.113 215 226 255
113.123 128.626 99.3692 210 223 255
92.4368 119.606 112.173 212 224 255
123.929 2.78474 87.0097 221 229 255
91.6594 101.898 105.479 255 246 236
103.853 120.441 108.859 209 223 255
114.057 134.435 110.279 209 223 255
151.325 141.274 107.548 255 253 249
129.09 60.6618 114.693 205 220 255
131.346 102.16 113.371 213 225 255
85.4251 108.03 105.253 255 246 237
103.516 105.961 109.223 255 223 198
170.904 1.79111 141.304 190 210 255
93.969 173.693 110.83 255 250 244
118.423 118.469 113.597 255 244 234
143.687 23.5896 111.029 193 212 255
9.5512 93.8612 113.742 209 222 255
193.051 21.1782 107.9 187 209 255
127.382 81.6671 133.911 195 214 255
105.428 100.756 121.008 228 233 255
113.006 135.276 110.133 187 209 255
93.9724 173.688 110.827 237 239 255
110.658 117.241 111.163 255 225 201
116.255 145.687 112.134 255 251 246
158.636 118.355 137.437 201 217 255
100.425 83.4437 116.918 240 241 255
92.7548 174.058 111.317 202 218 255
42.5753 72.9329 106.522 208 222 255
94.0775 175.124 110.873 252 247 255
94.0326 173.513 110.728 243 242 255
0.326437 85.8266 107.909 175 201 255
209.79 69.1868 112.68 204 219 255
110.075 131.287 109.72 255 187 131
28.2375 142.608 113.224 225 232 255
123.096 70.6979 120.91 198 216 255
138.282 154.197 117.425 203 219 255
116.362 122.485 130.699 231 235 255
107.591 110.879 109.114 255 227 205
176.773 83.4939 115.023 201 217 255
141.557 79.723 108.458 255 196 148
159.816 30.6575 108.442 204 219 255
63.9964 91.6481 109.97 205 220 255
95.5436 175.382 102.816 255 220 192
78.505 146.617 104.801 202 218 255
6.34404 116.74 116.016 187 209 255
161.996 40.1539 114.935 212 224 255
141.612 200.633 100.957 215 226 255
163.445 104.978 115.176 223 231 255
94.424 172.854 110.345 247 244 255
93.9814 173.675 110.817 214 225 255
169.387 42.156 111.704 212 224 255
27.6698 209.356 106.984 187 209 255
93.9862 173.637 110.777 209 222 255
115.822 83.8007 117.663 211 224 255
80.9242 31.8073 108.422 198 216 255
128.535 117.95 112.198 225 232 255
87.2499 148.112 106.11 189 210 255
173.485 80.1505 114.459 187 209 255
93.9881 173.665 110.811 194 213 255
117.031 215.255 99.6989 181 205 255
101.158 172.295 114.069 225 232 255
94.0386 173.559 110.76 255 244 234
111.096 118.19 113.954 246 244 255
114.298 89.0591 125.899 231 235 255
48.6344 151.994 112.603 198 215 255
153.43 100.285 114.334 198 215 255
115.39 121.071 109.383 255 252 246
71.2086 146.772 106.589 200 217 255
183.974 10.516 105.286 190 211 255
121.725 121.33 108.597 218 228 255
54.2041 88.3408 105.617 190 211 255
102.671 103.498 111.664 255 239 225
108.12 103.159 116.996 255 225 201
94.1215 173.306 110.854 201 217 255
86.2997 39.5792 112.931 199 216 255
111.83 108.533 102.607 255 211 175
114.737 104.7 103.887 211 224 255
150.285 42.5512 114.547 255 249 242
94.0554 173.783 111.768 248 245 255
102.937 104.475 110.784 255 243 232
35.2016 112.835 110.779 209 222 255
179.81 143.897 116.8 187 209 255
48.7723 75.0214 121.479 255 252 246
165.083 142.848 139.006 201 217 255
113.831 146.45 109.585 212 224 255
114.045 181.749 111.639 185 207 255
48.1414 115.336 111.757 255 253 248
82.5595 141.451 110.582 243 242 255
106.466 106.984 117.158 224 231 255
77.7482 7.31537 120.597 186 208 255
121.791 184.665 112.42 200 217 255
70.8612 117.172 113.362 255 253 248
130.724 161.485 115.179 188 209 255
16.3568 156.199 129.002 211 223 255
222.538 116.127 116.094 185 207 255
93.9725 173.688 110.826 200 217 255
94.9773 173.839 120.634 255 251 246
110.928 153.904 114.029 255 249 255
96.0533 167.895 117.777 206 221 255
105.229 110.234 98.9303 255 231 212
94.6998 173.327 110.809 234 237 255
90.0478 150.076 113.802 255 230 210
111.585 93.8481 114.021 255 233 215
93.9888 173.665 110.81 229 234 255
64.2194 126.899 109.804 210 223 255
119.249 82.7007 125.591 213 224 255
114.072 153.006 108.751 192 212 255
80.5654 224.134 101.067 182 205 255
176.76 102.719 97.4464 255 237 221
141.442 164.297 108.159 191 211 255
118.026 101.866 113.379 255 251 245
105.42 110.541 118.055 214 225 255
75.7666 146.399 103.144 191 211 255
157.158 45.5636 114.631 186 208 255
108.159 108.313 121.79 214 225 255
93.9643 173.701 110.837 255 251 245
93.8768 173.795 110.857 224 231 255
110.188 111.862 115.406 205 220 255
145.154 155.417 114.963 189 210 255
60.5179 90.5876 110.822 192 212 255
158.841 115.551 106.917 184 207 255
126.835 119.378 116 243 242 255
135.529 119.882 113.738 202 218 255
144.975 95.3773 95.3561 214 226 255
85.5153 26.9144 90.6352 181 205 255
85.8248 14.1452 113.197 180 204 255
88.6481 179.7 109.762 217 227 255
69.2961 221.177 107.404 205 220 255
102.718 84.9792 112.877 222 230 255
119.225 124.257 113.024 241 241 255
66.1481 174.929 108.988 198 216 255
104.609 138.557 103.095 218 228 255
32.278 146.796 116.705 218 228 255
12.469 138.076 115.347 209 222 255
113.662 121.208 103.954 255 244 234
171.217 94.0101 113.666 207 221 255
177.59 161.15 114.943 196 214 255
131.293 114.704 116.247 221 230 255
104.822 112.402 116.553 255 230 210
138.908 89.0776 98.7261 205 220 255
66.9593 81.6688 112.523 217 227 255
91.6406 149.963 121.683 255 248 241
120.166 101.426 100.921 186 208 255
109.334 133.361 115.333 212 224 255
91.5205 175.512 111.361 194 213 255
66.9035 155.765 120.403 209 222 255
115.247 129.49 107.254 211 223 255
109.747 107.776 111.425 255 249 241
91.3205 167.097 113.2 198 215 255
95.1916 167.773 88.1576 210 223 255
155.142 74.4765 139.778 255 250 255
135.759 170.077 116.57 182 205 255
61.7372 110.941 113.096 255 253 249
172.081 99.2846 114.988 191 211 255
56.6037 114.75 90.5734 255 243 233
140.22 147.782 112.245 228 234 255
125.705 182.829 103.488 200 217 255
147.237 93.8071 121.538 210 223 255
125.94 117.448 111.567 237 239 255
144.037 80.2914 111.06 235 238 255
107.434 112.923 137.472 246 244 255
167.025 163.983 124.172 211 224 255
99.9692 103.479 113.121 255 232 212
130.734 57.0174 114.642 214 225 255
88.6424 161.273 127.712 228 233 255
117.996 134.157 104.964 255 225 202
162.331 162.515 151.258 207 221 255
120.276 108.746 115.439 219 228 255
113.491 119.584 110.969 203 218 255
93.9418 173.74 110.862 189 210 255
48.6065 186.735 114.61 189 210 255
127.495 78.25 107.669 210 223 255
95.6126 130.95 112.584 255 250 244
22.8528 168.558 111.991 203 219 255
153.931 150.021 114.28 177 202 255
105.817 67.3363 113.721 214 225 255
68.8022 135.354 108.132 227 233 255
47.8356 65.0389 115.046 204 220 255
186.058 41.6578 114.6 179 204 255
93.6226 174.717 111.588 214 225 255
39.3266 202.614 99.1114 189 210 255
78.7113 95.5236 111.548 218 228 255
67.4958 60.0094 113.026 255 253 249
109.689 107.43 119.263 255 238 223
103.034 175.259 118.092 255 253 248
126.782 105.281 114.395 204 219 255
120.346 102.792 116.712 255 247 239
94.019 173.617 110.781 255 243 232
121.426 88.4053 130.479 245 243 255
147.555 15.1737 100.769 194 213 255
96.5083 130.849 109.721 203 218 255
123.736 114.47 110.296 252 247 255
105.156 101.6 115.052 255 195 147
93.9889 173.665 110.809 210 223 255
81.4687 185.176 96.1111 227 233 255
99.7358 131.791 100.282 229 234 255
114.48 114.638 97.8522 197 215 255
146.744 89.7375 102.307 217 227 255
107.686 174.451 123.707 255 221 194
109.23 194.952 118.35 188 210 255
94.0027 173.652 110.799 204 219 255
117.099 121.966 121.729 255 231 212
140.941 85.1204 102.662 198 215 255
59.8548 194.541 112.711 179 204 255
118.313 115.142 105.302 255 240 227
62.2497 131.726 122.253 204 219 255
103.008 104.062 106.189 207 221 255
132.459 80.0161 116.667 193 212 255
43.8297 205.491 111.842 196 214 255
93.9848 173.671 110.813 231 235 255
93.9727 173.688 110.827 196 215 255
108.503 106.729 129.095 231 235 255
94.2295 173.757 111.271 255 185 127
93.0673 174.912 111.716 205 220 255
129.933 65.0495 117.126 255 222 195
93.9756 173.684 110.823 194 213 255
91.8177 113.786 116.119 214 225 255
196.469 54.703 110.331 188 209 255
90.2682 122.352 114.679 215 226 255
123.148 126.093 103.369 255 214 182
100.313 116.631 113.681 255 234 217
97.35 106.595 110.065 255 240 226
101.183 97.854 122.195 232 236 255
115.157 139.771 104.295 255 234 216
145.225 90.2108 112.381 199 216 255
203.435 156.637 116.767 185 207 255
103.151 87.0538 116.935 199 216 255
188.717 134.189 114.905 221 229 255
152.501 150.009 131.322 192 212 255
117.397 109.79 121.567 255 233 215
109.049 106.065 111.996 255 216 185
110.616 108.488 109.287 255 240 227
98.9833 132.18 112.785 255 239 225
117.369 96.2382 114.566 255 251 245
191.351 73.8637 114.005 209 222 255
57.2246 47.9016 128.373 182 206 255
77.6121 127.556 112.24 255 193 141
125 121.504 106.033 255 252 246
214.431 120.235 116.87 184 207 255
128.292 128.647 114.887 208 222 255
151.874 107.031 102.313 211 224 255
138.086 94.6458 111.934 255 248 239
96.8307 126.105 110.718 255 255 252
92.4069 47.9988 112.865 207 221 255
144.387 4.93115 122.883 186 208 255
91.2946 174.905 112.091 208 221 255
94.6505 173.609 110.921 206 221 255
32.1537 212.061 106.362 184 207 255
63.8284 37.2594 153.357 184 207 255
111.112 123.007 110.694 255 241 229
112.48 115.794 105.242 255 211 176
111.643 168.605 124.946 203 218 255
105.326 85.907 119.342 255 153 57
46.9165 171.798 112.397 198 216 255
163.245 164.195 114.467 185 207 255
166.593 4.65881 107.584 185 207 255
128.648 166.635 108.048 191 211 255
97.0031 122.542 108.412 255 166 87
94.0381 173.626 110.784 255 253 249
115.28 135.392 107.628 181 205 255
94.5085 173.596 110.513 206 221 255
96.9276 89.7641 116.947 213 224 255
155.922 132.79 124.331 204 219 255
110.365 90.0526 109.647 242 242 255
117.952 79.4691 119.447 215 226 255
150.017 149.321 103.305 202 218 255
60.4308 37.5265 115.828 194 213 255
69.873 92.8739 112.308 203 218 255
118.882 115.49 114.921 255 212 178
62.8552 87.4349 117.351 183 206 255
96.8593 102.081 120.103 234 237 255
53.9976 150.299 110.129 199 216 255
110.662 89.9243 129.891 255 213 181
125.709 206.25 124.311 205 220 255
130.999 152.254 114.025 198 216 255
113.535 99.5947 114.876 255 239 224
94.0127 173.634 110.789 255 216 185
102.146 123.451 123.396 255 227 205
140.54 163.138 115.201 188 209 255
117.424 122.771 126.992 255 185 125
162.009 84.7242 108.778 223 231 255
209.146 155.554 113.547 178 203 255
84.4965 139.33 103.734 184 207 255
85.4351 159.959 116.337 212 224 255
111.949 103.111 126.317 255 126 0
94.0979 173.168 110.503 255 251 255
5.76422 67.2444 111.171 189 210 255
22.0138 134.231 107.945 192 212 255
92.8746 179.702 112.39 255 244 234
113.447 202.541 112.966 185 208 255
179.48 99.6888 112.289 196 214 255
140.354 90.8529 112.63 191 211 255
117.277 115.296 95.461 242 242 255
175.525 51.7579 112.753 183 206 255
116.77 61.7636 114.486 233 236 255
77.8985 143.84 117.737 255 243 232
157.197 140.476 111.386 255 247 238
152.422 138.472 106.469 199 216 255
107.826 109.781 108.253 242 241 255
123.886 117.032 109.255 242 242 255
65.7645 135.907 99.6413 215 226 255
105.438 117.454 106.331 218 228 255
102.174 104.869 107.349 221 230 255
93.6481 174.019 111.377 255 207 169
118.903 123.322 118.204 255 244 234
153.685 100.063 101.756 201 217 255
116.259 153.48 108.873 186 208 255
29.8191 45.971 109.748 185 207 255
97.1637 132.329 102.782 255 233 215
83.9769 113.288 143.685 211 224 255
106.417 149.357 108.465 209 222 255
95.809 101.554 102.212 255 212 178
86.237 140.435 114.898 255 230 210
85.1969 132.784 114.401 200 217 255
116.135 152.228 104.225 188 209 255
170.516 25.0163 112.18 224 231 255
56.3693 129.33 113.174 202 218 255
83.2893 26.1649 132.009 198 216 255
87.5263 192.98 111.92 227 233 255
192.178 178.043 114.645 176 202 255
79.5899 55.8462 114.773 192 212 255
130.446 156.454 100.222 206 221 255
94.094 174.183 111.016 208 222 255
111.046 122.137 100.869 255 240 228
98.7503 134.972 110.139 228 234 255
93.9575 174.458 111.257 215 226 255
144.183 105.049 111.312 247 244 255
108.978 103.771 110.281 201 218 255
95.5861 173.552 109.155 242 242 255
99.2062 162.641 102.868 211 224 255
144.914 87.2851 100.959 225 232 255
9.25849 65.7969 117.862 191 211 255
129.405 120.898 110.499 236 238 255
60.627 174.76 109.574 195 214 255
93.9608 173.702 110.842 228 233 255
123.673 156.417 118.794 185 207 255
80.9865 79.4934 122.056 201 218 255
74.7951 175.879 115.682 203 219 255
88.1037 154.979 120.139 255 241 229
23.252 189.806 110.012 206 221 255
93.9851 173.67 110.813 205 220 255
113.91 159.877 113.602 210 223 255
5.22387 176.668 113.182 188 210 255
55.7784 46.5588 110.901 190 210 255
117.719 116.987 112.41 219 229 255
129.168 77.7914 130.536 226 232 255
120.511 123.745 112.183 255 249 241
102.763 160.029 111.246 210 223 255
198.977 15.8975 115.255 185 207 255
60.3652 128.506 123.148 217 227 255
107.16 137.881 115.339 255 239 226
13.6415 125.001 106.302 192 212 255
93.9829 173.637 110.843 220 229 255
109.388 111.318 110.446 255 232 213
53.9518 68.1451 100.286 200 217 255
108.053 142.42 105.706 224 231 255
110.797 111.65 112.973 216 226 255
92.0283 161.637 115.089 231 236 255
109.538 126.253 121.27 219 228 255
136.29 20.8519 110.739 206 221 255
118.749 127.858 99.6206 255 251 245
132.512 85.3711 121.177 196 214 255
116.332 107.142 118.741 237 238 255
108.036 99.4498 113.043 214 226 255
70.2619 52.6302 112.39 255 212 177
113.12 99.5192 118.431 210 223 255
70.7185 137.12 102.06 190 211 255
93.9814 173.675 110.817 202 218 255
39.6263 68.0102 112.077 204 219 255
110.01 139.634 115.69 202 218 255
54.8948 78.4184 110.995 210 223 255
104.026 99.7026 112.241 255 226 203
118.861 129.45 109.956 209 223 255
113.073 103.652 107.278 223 230 255
93.9968 173.655 110.803 206 221 255
94.705 90.5005 109.258 194 213 255
147.864 139.512 113.555 208 222 255
102.468 198.029 118.357 198 216 255
101.287 112.433 123.765 207 221 255
119.634 120.827 98.3994 255 229 208
126.906 81.5287 116.351 220 229 255
125.846 84.5402 131.819 204 219 255
105.391 160.7 106.621 246 244 255
1.26727 110.232 111.088 192 212 255
185.794 121.962 131.383 215 226 255
107.811 104.725 106.581 255 245 236
73.1013 143.344 90.7918 212 224 255
179.737 60.033 111.501 189 210 255
208.92 96.2098 112.311 191 211 255
160.258 6.20176 96.6945 204 220 255
93.4155 174.627 110.363 216 226 255
160.445 85.34 112.136 189 210 255
122.736 174.619 113.164 194 213 255
132.568 146.523 111.337 187 209 255
94.0176 173.63 110.785 196 214 255
125.434 116.423 119.619 255 240 226
103.232 130.277 108.786 241 241 255
177.061 10.651 113.844 181 205 255
148.109 94.1279 122.37 209 222 255
160.649 136.394 109.112 192 212 255
64.5539 128.395 104.601 255 229 209
97.1072 118.48 109.961 231 235 255
113.579 139.062 123.192 205 220 255
163.734 78.3399 116.062 255 249 242
94.0097 173.64 110.792 234 237 255
140.573 164.204 115.246 194 213 255
53.8082 167.295 114.897 195 214 255
94.0245 173.62 110.781 249 246 255
146.725 85.9658 111.938 195 214 255
90.9978 178.376 106.694 193 213 255
115.544 118.079 108.695 255 249 255
180.876 23.9335 114.084 185 207 255
31.8849 94.3026 126.297 214 225 255
159.253 20.4327 108.51 189 210 255
132.413 142.45 112.682 212 224 255
107.854 106.439 114.169 223 231 255
131.237 71.3496 118.649 196 214 255
155.299 91.0981 100.789 203 219 255
79.2644 148.651 105.342 196 214 255
191.808 82.4838 114.668 199 216 255
123.618 81.0771 107.071 215 226 255
99.7864 109.818 106.2 227 233 255
46.5627 49.5383 98.9483 191 211 255
93.9661 173.699 110.835 212 224 255
133.342 169.094 85.121 202 218 255
24.6954 156.236 116.369 255 209 172
22.6505 111.683 100.73 198 216 255
121.044 170.635 110.176 229 234 255
129.825 114.122 116.674 255 245 235
94.7962 95.826 109.216 220 229 255
83.2751 146.106 114.277 240 240 255
124.736 123.503 112.191 255 244 233
155.64 92.1084 131.259 203 218 255
95.8436 31.4793 110.634 189 210 255
67.4795 114.844 103.447 196 214 255
112.841 106.898 112.738 224 231 255
154.413 109.849 81.152 255 228 207
107.286 21.8624 108.096 192 212 255
146.406 162.598 106.575 192 212 255
108.983 17.6709 115.499 195 214 255
23.1978 47.6402 118.774 196 214 255
83.5932 109.637 109.985 203 219 255
144.868 171.5 112.006 255 252 247
93.982 173.675 110.816 193 212 255
93.5712 173.348 110.377 238 239 255
113.016 116.82 107.94 216 226 255
94.3075 173.364 110.553 187 209 255
69.365 60.5679 110.641 221 229 255
103.107 118.09 121.376 243 242 255
115.878 102.844 118.332 223 230 255
113.929 115.731 108.876 255 245 235
90.0684 169.484 123.014 255 235 218
69.7306 219.377 108.197 187 209 255
126.114 112.574 114.58 208 222 255
128.288 156.125 112.999 195 214 255
113.588 15.0101 115.031 196 214 255
104.573 100.274 114.161 255 224 200
121.412 129.671 116.646 224 231 255
117.901 79.8404 117.053 210 223 255
115.428 128.573 107.036 214 225 255
55.5722 131.105 112.51 198 216 255
124.648 92.4959 114.688 211 223 255
86.4205 139.992 114.008 214 226 255
93.9967 173.655 110.803 255 234 217
122.918 121.939 116.93 255 254 250
106.489 167.527 106.583 255 234 217
186.516 100.79 129.155 211 224 255
104.197 103.243 107.334 255 236 220
66.6729 106.492 139.958 202 218 255
105.591 11.6273 110.368 192 212 255
111.936 157.368 109.909 255 238 223
112.694 106.617 116.877 207 221 255
108.547 107.72 124.821 246 244 255
100.442 174.065 108.906 255 229 209
101.921 160.462 131.452 255 226 202
111.879 106.321 116.919 230 235 255
75.5193 110.574 77.0846 255 223 197
61.2153 113.131 101.929 197 215 255
41.5226 160.892 113.787 204 219 255
93.9859 173.669 110.813 193 212 255
136.309 106.333 114.122 255 255 252
93.9761 173.683 110.823 214 225 255
128.557 80.6024 107.544 237 239 255
42.8299 119.49 109.732 196 214 255
97.9607 116.896 121.841 255 235 219
174.083 114.892 102.533 255 255 251
122.073 116.784 112.117 255 251 245
98.636 105.491 111.142 232 236 255
95.5195 107.32 115.025 255 250 255
111.693 133.172 102.843 255 218 189
135.22 69.3521 106.661 255 216 185
97.8917 117.115 110.534 225 232 255
63.6253 150.592 112.812 203 219 255
102.252 143.154 110.892 209 222 255
134.569 159.483 109.598 255 252 246
92.5754 39.9246 113.855 204 219 255
112.818 124.984 101.936 255 241 229
68.0582 168.362 125.99 208 222 255
42.966 122.595 131.312 255 241 228
103.338 156.504 111.15 220 229 255
140.943 184.12 118.208 215 226 255
93.8722 151.642 111.747 187 209 255
92.5355 113.563 116.86 255 219 190
37.3223 119.598 109.217 205 220 255
93.9845 173.671 110.814 208 222 255
71.9125 142.575 100.571 197 215 255
105.983 152.103 106.499 224 231 255
105.18 133.106 110.133 250 246 255
172.385 6.10852 105.926 195 214 255
97.9775 148.491 98.8165 200 217 255
84.3049 72.1183 108.151 227 233 255
93.4905 127.409 110.818 188 209 255
140.342 99.779 113.131 234 237 255
93.9772 173.682 110.821 216 227 255
48.2685 77.0535 115.015 194 213 255
103.047 108.902 120.75 255 243 231
142.861 102.6 112.537 255 232 213
105.459 142.631 114.505 255 233 215
77.646 63.6093 110.545 201 217 255
61.2432 161.656 109.575 193 213 255
60.2523 88.3124 116.339 210 223 255
170.51 65.7794 111.002 209 223 255
110.174 103.07 113.904 255 241 229
65.1357 34.6998 63.1976 177 203 255
55.6027 79.4961 103.377 201 217 255
119.561 125.809 111.716 235 237 255
104.895 101.2 105.903 255 231 211
107.269 111.778 101.553 255 243 231
162.909 20.7784 106.283 202 218 255
97.8063 168.832 101.672 255 250 243
99.0573 108.454 112.099 255 218 188
173.041 39.0532 112.485 180 205 255
68.4484 30.5398 112.325 205 220 255
99.7815 128.808 114.663 254 248 255
110.089 107.979 113.62 255 233 215
82.9894 180.259 101.513 222 230 255
113.392 175.421 119.672 239 240 255
115.137 125.033 108.129 255 81 0
103.802 124.107 112.105 255 251 255
176.371 14.6887 112.026 192 212 255
1.20648 183.738 116.061 184 207 255
41.1167 97.7306 101.288 229 234 255
128.448 125.038 108.778 255 253 249
111.006 127.579 102.122 255 248 241
93.5923 174.056 111.268 191 211 255
146.381 151.357 84.187 198 216 255
94.1089 173.57 110.725 255 250 243
93.9699 173.692 110.83 197 215 255
109.871 107.388 111.863 223 230 255
217.291 44.6288 110.324 201 218 255
53.5 100.55 100.803 234 237 255
169.144 89.8431 113.904 192 212 255
93.9848 173.671 110.813 200 217 255
108.033 104.656 102.959 255 244 233
120.82 138.894 117.317 237 239 255
141.631 32.4253 118.535 196 215 255
138.644 108.515 110.477 229 234 255
153.078 133.565 118.451 190 211 255
94.0344 173.606 110.774 200 217 255
115.829 86.8474 112.811 192 212 255
78.0478 117.254 107.918 215 226 255
93.9866 173.668 110.812 206 220 255
45.3486 80.163 107.444 230 235 255
108.173 104.034 113.05 255 170 95
99.7527 14.7401 112.913 210 223 255
72.659 72.1033 112.061 239 240 255
174.75 120.472 135.365 207 221 255
126.016 126.564 109.603 201 217 255
187.521 156.77 120.48 243 242 255
51.3962 111.932 118.36 193 212 255
44.3315 178 112.441 187 209 255
94.076 173.594 110.777 192 212 255
93.9816 173.675 110.817 255 252 247
104.139 187.489 96.6271 210 223 255
120.915 95.9221 111.127 211 223 255
65.6042 85.3347 111.521 196 214 255
100.051 138.022 109.469 222 230 255
102.91 97.4431 110.036 255 244 233
108.841 147.601 99.7839 198 215 255
94.275 173.482 110.143 222 230 255
94.4836 70.3713 104.236 217 227 255
218.944 136.074 118.848 174 201 255
133.981 146.651 110.618 221 230 255
79.6087 91.373 112.386 194 213 255
51.4264 61.8167 111.623 212 224 255
150.077 83.0022 97.4796 209 222 255
94.006 173.642 110.794 255 247 239
133.461 88.7738 144.287 214 225 255
115.857 87.4566 108.029 199 216 255
93.9861 173.669 110.812 205 220 255
111.027 124.334 113.047 239 240 255
50.1045 35.3167 115.952 189 210 255
131.137 86.8453 113.059 213 225 255
155.159 119.593 88.4516 255 218 189
94.0528 173.528 110.223 215 226 255
183.801 160.195 119.976 221 229 255
120.665 133.24 111.701 204 219 255
217.116 124.231 114.377 214 226 255
145.439 177.062 113.316 196 214 255
115.073 84.7168 120.653 208 222 255
114.723 111.869 115.095 207 221 255
110.748 118.419 108.203 195 214 255
111.288 134.942 94.0833 255 252 246
118.008 128.306 120.617 193 213 255
54.578 121.588 116.692 220 229 255
65.0735 157.41 113.671 212 224 255
100.421 32.2563 111.675 194 213 255
144.943 10.2548 102.51 194 213 255
131.774 25.4088 111.211 205 220 255
118.218 105.572 112.267 247 244 255
49.8349 67.9354 109.369 203 219 255
141.8 104.841 101.382 255 251 246
99.6426 54.8053 113.22 192 212 255
93.9544 173.721 110.855 202 218 255
142.798 87.268 111.621 222 230 255
173.461 26.0468 109.49 190 210 255
45.3118 104.112 117.23 200 217 255
94.0558 173.582 110.762 196 214 255
128.119 75.6826 110.346 225 232 255
197.436 164.068 94.2031 203 219 255
112.334 93.6319 114.93 218 227 255
145.84 6.73173 112.818 201 217 255
118.622 103.42 100.353 255 129 0
104.669 123.681 110.77 255 218 189
97.0936 103.104 114.888 199 216 255
69.3301 123.855 104.051 194 213 255
174.168 42.4765 114.377 207 221 255
91.4909 144.863 108.401 209 222 255
93.9879 173.667 110.811 255 210 175
60.8554 128.813 122.953 217 227 255
106.691 108.929 117.15 255 253 248
71.9616 118.393 128.157 188 209 255
65.3368 86.9508 113.37 190 210 255
104.4 162.476 121.22 219 228 255
108.484 108.639 108.731 251 247 255
76.8185 60.4499 111.225 183 206 255
132.329 132.321 107.055 255 241 229
139.776 73.649 132.743 221 230 255
144.797 14.2013 105.842 192 212 255
117.777 127.485 109.06 255 179 114
107.645 130.887 109.683 228 233 255
122.318 115.388 106.765 242 242 255
94.0572 173.532 110.755 202 218 255
121.77 65.5385 121.928 195 213 255
37.3872 95.776 95.8548 198 216 255
35.7753 65.0056 100.804 200 217 255
116.687 84.8217 110.539 200 217 255
96.9337 123.832 113.017 255 219 190
118.767 84.5839 114.263 255 228 206
93.9766 173.682 110.822 194 213 255
93.9783 173.68 110.82 205 220 255
91.7567 187.256 113.856 197 215 255
93.9844 173.683 110.835 193 213 255
88.8073 88.3396 110.791 255 230 210
75.0074 32.1627 119.025 195 214 255
93.976 173.683 110.823 225 232 255
94.0073 173.641 110.794 203 218 255
113.944 83.6228 120.365 205 220 255
65.5406 139.718 122.079 192 212 255
95.7506 200.48 112.6 196 214 255
172.436 75.4493 112.075 207 221 255
120.638 151.303 114.282 213 225 255
123.848 80.3854 116.213 208 222 255
123.719 72.8005 121.754 202 218 255
77.8838 134.099 112.131 223 231 255
93.9864 173.669 110.812 255 239 226
67.5142 146.678 100.961 218 227 255
158.892 93.9801 97.1682 229 234 255
108.594 172.633 115.693 255 218 189
98.1732 107.189 116.403 237 239 255
94.0007 173.649 110.798 195 214 255
3.43864 84.0674 117.177 184 207 255
94.0004 173.65 110.799 216 227 255
130.419 180.767 110.113 200 217 255
143.712 86.2699 113.45 187 209 255
57.3272 11.6704 117.685 203 219 255
119.412 118.061 104.528 255 234 217
110.562 110.559 114.268 255 228 206
140.485 42.9824 114.172 203 219 255
159.636 132.453 92.2481 218 227 255
73.6825 138.341 115.531 220 229 255
11.5371 62.694 105.525 172 199 255
106.173 118.672 115.971 255 177 109
81.3695 156.17 107.927 222 230 255
106.229 109.942 113.764 223 231 255
138.931 86.7099 109.831 252 247 255
224.69 131.174 110.322 189 210 255
93.9855 173.67 110.813 255 254 251
122.795 126.688 111.251 239 240 255
150.959 105.865 108.859 201 217 255
103.754 59.1973 156.236 255 148 45
89.063 62.3462 109.749 193 212 255
64.2823 99.6763 110.218 204 219 255
50.6712 113.735 121.532 213 225 255
118.798 149.447 115.163 253 248 255
74.2018 126.125 113.788 203 219 255
85.3973 176.129 117.013 255 230 210
80.4665 51.8636 103.409 187 209 255
162.251 97.6998 103.617 255 250 243
140.339 125.175 114.982 239 240 255
93.5083 147.324 107.536 199 217 255
105.594 143.982 117.908 192 212 255
169.494 39.7622 112.231 191 211 255
109.027 98.8324 108.621 255 228 206
123.021 115.741 95.1647 227 233 255
213.775 151.749 111.106 198 215 255
34.9532 47.012 110.368 201 218 255
105.489 152.82 101.756 240 240 255
118.382 114.907 113.739 255 250 244
125.733 199.057 137.024 193 212 255
143.155 87.9689 81.8239 208 222 255
56.3402 117.48 122.529 196 214 255
80.6268 28.3576 117.137 211 224 255
72.5232 122.376 110.84 255 244 233
62.8181 27.8193 98.0128 186 208 255
155.772 120.505 109.173 207 221 255
205.142 104.78 114.198 193 213 255
118.426 37.0681 2.05211 191 211 255
120.767 123.689 129.943 210 223 255
72.2465 121.575 97.0257 183 206 255
111.323 107.13 102.867 230 234 255
70.9568 118.015 113.988 201 217 255
150.74 101.165 110.888 255 251 245
122.368 123.325 125.76 211 224 255
92.9396 173.225 110.541 246 244 255
106.964 102.434 108.539 228 233 255
119.734 122.389 105.105 255 240 227
213.59 112.149 117.978 197 215 255
157.629 113.606 108.673 207 221 255
208.675 75.7931 113.339 200 217 255
209.128 57.748 110.989 204 219 255
102.308 142.273 105.748 194 213 255
113.255 117.381 124.149 255 211 177
32.9776 116.931 112.46 193 213 255
154.227 107.998 103.463 201 218 255
102.752 156.522 100.72 205 220 255
152.448 77.7605 143.344 203 218 255
112.968 113.359 96.6112 255 252 247
93.9547 173.72 110.852 224 231 255
145.245 114.251 109.765 255 241 228
140.122 10.1776 109.062 198 216 255
116.356 119.926 111.96 255 254 250
99.8512 180.935 118.912 233 237 255
164.946 111.801 92.8177 195 214 255
39.3921 169.072 110.947 189 210 255
157.929 94.2446 108.359 204 219 255
174.281 124.901 106.442 216 227 255
101.681 114.187 111.64 255 225 201
35.5501 92.4089 83.9298 200 217 255
91.8486 47.6849 111.451 255 228 206
108.137 134.432 107.08 255 246 236
172.419 125.577 113.915 242 241 255
114.431 130.844 120.208 255 248 241
133.015 77.1785 134.869 202 218 255
70.2279 70.8466 111.574 231 235 255
150.358 61.8866 113.559 245 243 255
48.6839 114.475 126.615 197 215 255
101.633 100.553 104.132 255 193 143
110.565 117.883 112.524 255 207 168
93.981 173.676 110.817 199 216 255
122.136 39.5975 111.754 204 220 255
215.131 101.639 114.622 182 205 255
146.213 158.761 111.684 186 208 255
126.974 150.981 111.06 213 224 255
36.5443 152.728 113.727 186 208 255
219.316 53.6152 113.87 196 214 255
105.91 106.18 113.315 255 153 56
110.747 167.702 113.698 190 211 255
195.218 148.645 119.354 188 209 255
68.8787 129.685 112.756 255 243 232
93.9611 173.769 110.908 255 239 225
93.9988 173.652 110.801 195 214 255
9.43717 55.2403 97.4449 202 218 255
104.286 135.001 98.9464 255 253 249
111.532 94.5072 108.121 255 248 240
94.8136 140.565 116.99 255 211 176
118.924 124.066 107.071 215 226 255
81.2693 114.237 111.85 250 246 255
93.7128 173.343 110.57 255 238 223
58.5321 98.9043 103.095 246 244 255
64.4194 53.8667 105.695 200 217 255
165.04 100.526 128.244 227 233 255
115.279 104.671 88.3814 255 198 152
206.774 121.513 120.653 189 210 255
125.324 113.118 111.666 255 252 246
100.891 26.0467 115.779 201 217 255
89.2841 160.607 110.405 205 220 255
111.462 149.09 102.719 216 226 255
156.953 149.463 112.488 203 219 255
134.456 61.276 116.733 225 232 255
121.219 103.567 120.07 255 243 232
176.502 97.3912 116.009 194 213 255
107.403 132.019 113.164 210 223 255
129.199 81.415 106.916 217 227 255
125.11 182.425 102.64 182 205 255
97.0819 117.471 121.463 204 219 255
24.1582 66.9041 107.06 201 218 255
96.0072 174.456 106.628 255 222 195
95.005 104.407 105.939 255 253 249
131.86 85.5537 113.876 245 243 255
110.859 160.102 112.491 204 219 255
108.88 125.773 120.753 255 210 175
96.0626 135.637 109.941 205 220 255
122.205 123.729 110.973 204 219 255
143.498 211.099 110.606 188 209 255
75.393 149.58 102.789 209 222 255
175.048 145.431 129.755 200 217 255
124.531 119.464 113.503 222 230 255
103.308 118.01 119.819 225 232 255
157.719 95.0808 117.3 198 215 255
99.1813 165.795 109.732 255 249 242
55.6291 105.91 95.4854 207 221 255
93.2989 173.415 110.487 255 235 219
108.808 107.057 110.357 255 215 183
147.264 110.351 118.045 255 149 48
117.29 116.237 111.013 251 247 255
118.652 141.332 99.8793 193 212 255
124.411 124.74 116.437 205 220 255
102.12 171.183 118.245 197 215 255
0.9541 184.705 130.456 194 213 255
145.856 125.202 112.339 255 253 249
98.558 146.726 112.027 255 127 0
106.648 120.6 110.016 255 235 219
109.773 99.4165 116.493 255 250 244
53.4989 133.665 95.9629 255 230 210
94.1887 174.178 110.953 193 213 255
45.4854 151.221 112.034 197 215 255
112.473 103.181 96.6607 197 215 255
111.929 108.794 115.17 255 227 204
150.446 176.929 115.428 181 205 255
62.9415 74.759 112.434 228 234 255
64.7263 26.0961 111.587 206 220 255
101.042 6.37404 108.367 179 204 255
101.036 120.849 116.751 255 245 235
82.9202 151.941 111.726 255 236 220
93.364 174.338 111.105 228 234 255
137.075 50.6237 115.131 191 211 255
146.847 47.8559 112.807 184 207 255
84.6936 52.7484 113.895 220 229 255
93.9866 173.668 110.812 206 221 255
99.9512 109.083 109.102 255 243 232
117.298 130.07 105.853 233 237 255
93.9808 173.676 110.817 219 228 255
109.584 125.956 109.502 221 230 255
90.3132 171.956 123.782 187 209 255
184.1 22.7441 115.117 185 207 255
152.024 18.4119 133.803 203 219 255
92.0704 103.214 109.466 234 237 255
173.313 70.5252 112.261 203 219 255
94.1001 175.441 119.165 255 253 248
52.6871 134.137 148.472 216 227 255
64.6656 83.9141 112.252 200 217 255
107.387 125.376 125.233 255 206 167
60.2749 108.394 84.4166 208 222 255
102.508 88.8151 117.202 218 228 255
154.986 55.7211 112.683 193 212 255
91.5114 133.38 105.29 255 206 167
199.098 68.1826 115.226 188 209 255
120.526 114.039 105.461 195 214 255
150.694 107.782 99.473 217 227 255
104.837 120.282 115.508 249 245 255
155.822 42.9885 111.842 181 205 255
108.185 110.399 104.021 247 244 255
92.4654 197.304 109.618 192 212 255
9.65189 153.432 108.652 191 211 255
151.235 134.798 118.323 214 225 255
94.0039 173.645 110.796 199 216 255
94.922 204.392 116.967 203 219 255
190.923 168.026 113.509 191 211 255
156.261 102.645 111.614 206 221 255
128.558 123.222 105.861 227 233 255
93.9849 173.671 110.813 207 221 255
61.1054 134.375 111.939 202 218 255
128.457 85.7238 115.042 255 220 191
74.1223 51.9048 109.922 181 205 255
67.9486 90.796 108.329 195 214 255
109.489 120.164 113.381 219 228 255
95.3169 173.467 111.346 209 222 255
24.4557 80.9324 104.256 186 208 255
114.63 161.549 107.194 191 211 255
109.876 31.1032 119.937 191 211 255
113.29 101.212 112.901 255 250 244
106.272 125.311 105.294 255 194 143
98.921 158.004 139.093 196 214 255
52.2533 154.524 127.053 194 213 255
205.402 101.164 113.02 200 217 255
121.61 99.2455 101.383 219 228 255
143.054 70.6802 97.8744 222 230 255
166.842 95.215 111.365 222 230 255
103.691 122.751 112.214 208 222 255
101.367 190.713 111.865 213 225 255
65.6627 61.9318 118.581 212 224 255
65.8604 104.073 112.737 243 242 255
129.939 79.6899 106.068 210 223 255
110.834 107.677 113.133 255 249 255
93.5868 174.125 111.38 202 218 255
38.9543 75.3738 96.9891 212 224 255
86.4403 178.486 108.955 234 237 255
76.1039 25.6816 107.421 187 209 255
76.3407 96.6549 113.701 243 242 255
61.836 197.921 113.49 184 207 255
105.93 133.903 111.357 217 227 255
65.5686 35.9941 118.789 184 207 255
113.418 129.268 107.017 229 234 255
138.882 35.4339 114.311 218 228 255
72.465 118.644 112.393 196 215 255
109.369 94.6236 122.023 197 215 255
57.6855 158.718 114.018 204 220 255
94.002 173.648 110.798 255 249 242
221.875 136.003 112.243 186 208 255
108.401 110.196 111.109 255 233 215
91.5104 179.28 110.809 194 213 255
40.7853 168.309 109.296 194 213 255
73.1028 129.572 124.965 227 233 255
111.635 138.396 110.143 235 238 255
154.013 161.761 111.275 236 238 255
102.281 139.476 110.338 193 213 255
127.094 160.013 108.998 204 219 255
21.075 73.4048 114.631 198 216 255
60.7857 208.167 112.516 195 214 255
