ply
format ascii 1.0
element vertex 1341
property float x
property float y
property float z
property uchar red
property uchar green
property uchar blue
end_header
201.507 140.121 116.25 184 207 255
156.374 116.085 111.719 230 235 255
105.882 162.228 116.085 204 219 255
113.886 96.4557 93.3434 199 216 255
104.881 168.785 102.062 236 238 255
148.411 100.861 112.63 199 216 255
73.4281 86.8672 112.756 201 218 255
53.1905 50.0291 95.7985 202 218 255
109.927 131.002 97.7838 241 241 255
99.2734 6.59577 123.309 198 215 255
69.1459 148.333 113.57 201 217 255
124.681 80.4357 119.825 199 216 255
93.8225 174.137 110.337 214 225 255
115.228 82.8318 120.118 224 231 255
109.365 106.952 131.874 255 161 76
94.6406 173.943 109.794 250 246 255
104.62 134.875 111.835 255 232 213
172.647 11.8723 123.634 180 204 255
116.62 84.4056 96.009 196 215 255
77.0177 98.5702 113.349 204 219 255
120.63 123.102 110.062 203 219 255
151.137 105.996 108.098 238 239 255
150.667 101.415 126.549 206 221 255
27.7751 152.486 111.493 191 212 255
186.034 68.6999 111.799 207 221 255
91.8675 100.81 108.392 217 227 255
86.7069 91.4968 109.985 221 230 255
31.773 67.3974 113.88 187 208 255
11.8011 88.8373 81.8012 190 210 255
115.24 121.676 115.168 255 247 239
93.7519 174.143 110.412 228 233 255
92.7744 148.601 109.733 193 212 255
57.8643 94.8925 120.524 211 223 255
92.4036 197.75 111.704 192 212 255
100.267 122.52 106.757 255 253 248
138.246 121.436 113.64 255 225 201
99.5542 170 110.881 202 218 255
121.91 84.5794 112.532 204 219 255
130.16 118.718 112.89 236 238 255
115.23 120.557 93.9753 199 216 255
93.853 174.153 110.31 247 245 255
99.1519 19.1912 102.308 191 211 255
122.104 79.4197 129.556 255 236 220
124.105 117.905 104.838 255 235 218
195.667 117.757 81.9816 206 220 255
102.462 121.278 112.741 255 229 208
93.7976 174.121 110.369 255 250 244
116.754 115.778 111.839 255 252 247
102.848 164.12 111.628 212 224 255
51.7422 60.3088 121.159 200 217 255
93.8254 174.143 110.337 213 225 255
49.9173 95.3161 107.992 196 214 255
93.3584 174.573 111.078 214 225 255
142.149 127.367 109.593 254 248 255
101.985 141.169 107.661 183 206 255
98.6572 205.551 160.952 216 227 255
103.148 115.202 133.206 255 144 34
128.353 106.767 117.422 255 249 243
93.3499 173.957 110.565 255 236 221
132.387 121.773 106.803 255 239 224
138.51 98.4482 110.844 233 237 255
89.7542 150.448 119.944 212 224 255
93.8123 174.139 110.348 225 232 255
93.8264 174.144 110.334 193 212 255
95.1562 114.632 105.992 255 247 239
120.245 115.153 85.9435 255 224 199
220.522 50.5921 110.05 193 213 255
96.2431 170.228 118.774 255 249 255
97.0906 101.596 109.634 232 236 255
110.169 140.014 106.706 199 216 255
107.993 21.0805 108.003 204 219 255
183.548 142.805 117.069 181 205 255
155.201 86.2386 98.572 196 214 255
90.2035 173.43 110.074 202 218 255
93.9513 174.155 110.211 255 233 215
65.6011 126.053 98.0673 200 217 255
45.0394 148.221 110.12 195 214 255
119.288 102.659 126.266 219 228 255
111.309 133.365 108.226 255 187 130
93.8705 174.158 110.291 215 226 255
165.952 26.6856 113.482 214 225 255
93.864 174.157 110.297 255 249 241
61.2549 87.1678 108.887 255 222 195
43.365 173.037 113.362 211 223 255
116.133 134.433 101.85 205 220 255
93.0847 172.655 111.29 201 217 255
16.3559 146.214 112.106 187 209 255
114.84 114.241 117.843 207 221 255
87.6543 145.81 113.336 255 215 184
47.1563 100.622 53.8868 226 233 255
100.04 36.0521 107.367 204 219 255
93.749 174.102 110.382 221 229 255
215.193 5.41711 110.433 187 209 255
99.4773 143.336 117.024 201 217 255
192.943 183.121 162.557 199 216 255
103.592 107.539 116.003 255 224 199
87.7489 206.682 93.176 187 209 255
120.84 166.83 110.712 194 213 255
27.7544 143.984 116.896 192 212 255
79.6176 137.085 123.896 183 206 255
121.812 102.318 110.521 255 241 229
74.6664 203.94 111.906 199 216 255
112.438 132.323 111.905 199 216 255
128.387 91.2398 116.742 255 219 191
163.637 181.115 103.522 194 213 255
116.541 123.656 110.452 196 214 255
93.9093 174.171 110.253 223 231 255
137.061 121.966 109.97 211 223 255
93.8312 174.145 110.331 187 209 255
109.975 50.5584 116.208 237 239 255
147.524 15.9116 109.037 206 220 255
172.407 135.617 98.8744 200 217 255
100.726 177.575 120.393 255 246 237
130.55 116.42 106.038 255 174 104
171.322 95.8366 115.257 196 214 255
115.316 90.0067 108.514 255 230 210
151.305 134.57 129.946 195 214 255
159.793 176.637 100.681 199 216 255
138.777 115.956 115.519 255 235 219
106.567 105.732 111.073 250 246 255
66.5291 68.4159 113.381 207 221 255
85.1012 83.2912 113.29 234 237 255
114.277 133.197 107.56 255 183 121
121.494 83.1145 150.623 196 215 255
113.662 112.513 113.003 255 251 245
93.8296 174.145 110.333 255 206 168
142.141 145.61 117.001 255 251 245
93.7437 174.141 110.392 241 241 255
100.256 28.387 121.75 199 216 255
174.437 73.8849 50.3731 205 220 255
93.8406 174.148 110.323 255 235 218
160.907 97.5943 120.473 235 237 255
29.5737 132.962 115.173 202 218 255
93.8382 174.148 110.325 210 223 255
59.1923 185.836 121.405 226 233 255
94.4109 173.632 109.983 255 204 163
65.6496 51.0273 122.855 213 225 255
54.8813 208.984 107.718 186 208 255
105.896 155.671 110.387 181 205 255
45.38 86.357 116.971 187 209 255
80.2515 179.163 114.757 199 216 255
93.8198 174.141 110.342 185 207 255
124.928 133.189 105.857 230 235 255
132.656 84.2128 103.869 255 249 255
137.368 33.7465 113.119 194 213 255
93.7909 174.136 110.37 255 250 243
44.5343 209.101 120.331 183 206 255
171.844 145.054 147.514 251 246 255
110.183 100.248 107.337 217 227 255
10.3071 196.713 130.156 186 208 255
66.3791 111.59 119.74 211 223 255
93.8343 174.146 110.328 207 221 255
117.478 113.642 115.628 255 242 230
31.0175 87.9516 116.207 218 228 255
157.878 66.1514 126.951 243 242 255
93.0695 173.945 111.431 255 249 242
126.954 129.213 99.2215 250 246 255
122.079 82.2475 109.8 197 215 255
86.1833 146.499 103.882 227 233 255
92.6524 174.023 111.768 255 241 229
57.3205 40.714 103.422 193 212 255
94.0159 174.239 110.253 255 231 211
92.2644 167.311 110.847 209 223 255
93.4007 174.025 110.867 202 218 255
128.4 157.046 112.991 217 227 255
92.0503 149.079 136.253 255 242 231
93.9286 174.05 110.339 200 217 255
79.0474 99.7525 113.64 255 237 222
93.8925 174.162 110.269 212 224 255
62.4236 74.2922 127.467 209 222 255
102.687 117.419 121.508 255 182 121
68.3443 48.8506 114.184 202 218 255
127.712 106.121 105.113 220 229 255
163.145 177.571 110.552 238 239 255
15.865 198.104 106.371 180 204 255
108.409 132.654 95.6724 255 250 244
68.1075 192.712 112.677 208 221 255
130.205 125.412 109.056 248 245 255
15.6513 115.561 109.784 182 205 255
100.689 173.284 121.716 255 154 58
137.818 139.042 101.665 195 213 255
31.3317 191.245 108.715 183 206 255
120.881 13.3185 119.617 200 217 255
113.472 37.0777 114.712 199 216 255
160.423 135.895 110.202 218 228 255
144.744 28.7558 112.306 189 210 255
93.8436 174.15 110.319 200 217 255
93.8147 174.139 110.347 202 218 255
129.347 23.275 109.649 189 210 255
107.824 159.141 127.831 255 242 231
59.8658 67.7413 133.715 211 224 255
98.8764 77.0863 107.951 255 221 193
76.8025 107.953 112.171 189 210 255
108.897 108.878 113.444 255 248 240
142.838 75.1192 115.379 200 217 255
16.9449 167.932 114.218 195 214 255
126.993 156.635 119.554 194 213 255
175.532 33.0998 111.444 216 227 255
73.5237 135.099 98.8462 218 228 255
39.9622 132.931 100.918 213 225 255
91.738 98.2499 117.765 255 239 224
154.248 110.91 99.9424 200 217 255
122.389 123.107 93.5302 255 177 111
126.2 169.087 116.5 255 252 246
89.1539 141.095 112.775 255 242 230
123.729 116.991 97.4688 179 204 255
118.727 98.1592 111.137 227 233 255
112.527 84.0709 114.449 208 222 255
144.333 40.6343 117.376 230 235 255
93.8073 174.133 110.362 228 234 255
122.956 130.608 104.399 209 222 255
165.723 114.292 108.107 255 241 228
102.405 100.965 103.455 255 233 215
39.6943 84.0215 116.454 219 228 255
115.843 130.122 106.117 255 0 0
108.026 22.378 111.478 255 253 248
65.8771 64.9274 110.588 189 210 255
93.8189 174.141 110.343 214 225 255
120.054 125.925 111.84 213 225 255
178.997 151.159 112.831 194 213 255
93.8017 174.139 110.359 184 207 255
90.6758 183.479 112.658 200 217 255
93.8556 174.154 110.307 211 224 255
85.7853 180.312 107.106 222 230 255
93.8557 174.154 110.307 255 237 222
105.726 91.2044 126.277 206 220 255
108.315 113.465 120.818 215 226 255
128.093 113.583 96.1729 255 218 189
104.573 116.765 122.112 255 253 248
141.832 88.5465 108.894 223 231 255
106.695 115.386 105.298 227 233 255
75.2502 87.672 111.809 218 228 255
114.566 103.128 114.522 214 225 255
68.2037 137.929 109.963 188 209 255
110.499 132.414 114.871 248 245 255
111.826 99.942 104.778 240 240 255
62.1548 136.653 92.377 203 219 255
119.897 20.6125 108.353 210 223 255
145.946 108.248 108.62 214 225 255
114.179 94.7384 110.199 227 233 255
93.8401 174.148 110.323 255 246 237
62.0679 98.1678 118.643 193 213 255
108.958 159.024 124.579 255 205 165
115.298 100.769 113.982 255 244 234
220.959 107.123 117.426 194 213 255
80.3278 85.4476 111.132 196 214 255
93.8164 174.14 110.345 193 212 255
141.7 95.6678 112.239 196 214 255
105.188 160.563 113.417 205 220 255
158.964 22.0441 112.226 218 228 255
93.1936 139.196 110.87 255 253 248
57.1109 152.859 119.771 201 217 255
93.4502 174.598 110.897 190 211 255
171.858 92.615 117.667 192 212 255
208.609 36.8417 101.737 190 211 255
76.1944 64.0702 117.185 195 214 255
58.2399 145.121 99.8244 255 226 203
77.282 135.836 102.948 202 218 255
189.36 175.616 107.297 189 210 255
71.7972 40.2991 113.369 197 215 255
112.608 160.178 115.283 182 205 255
93.5887 174.111 110.452 192 212 255
93.6219 174.247 110.36 204 219 255
207.208 130.095 111.198 186 208 255
129.309 75.1996 125.749 255 200 156
119.401 134.668 102.812 216 226 255
93.8533 174.144 110.315 255 238 224
109.265 103.216 127.74 255 225 202
184.325 136.851 108.297 208 222 255
93.8209 174.141 110.341 196 214 255
131.472 147.987 120.435 188 209 255
118.7 209.179 117.349 179 203 255
110.742 99.2636 106.354 255 251 255
93.8304 174.145 110.332 219 228 255
98.3207 99.4817 121.15 200 217 255
122.168 22.1026 111.195 212 224 255
111.688 99.5162 128.163 255 237 222
125.67 133.522 95.8765 187 209 255
197.329 53.5663 110.372 236 238 255
142.382 91.0202 105.635 194 213 255
111.967 151.435 105.766 198 216 255
35.6305 53.5157 114.355 185 207 255
124.834 77.9089 109.628 255 250 255
94.316 150.931 112.053 255 220 192
165.958 124.633 106.54 204 219 255
89.4407 204.693 112.479 201 218 255
7.90302 168.202 116.175 202 218 255
118.053 151.472 112.564 219 228 255
113.589 195.829 106.066 206 221 255
103.781 134.797 118.783 244 243 255
133.038 95.434 78.5196 209 222 255
153.891 109.066 108.908 220 229 255
93.8581 174.157 110.305 203 219 255
60.716 54.6789 118.515 204 220 255
36.8573 215.626 135.288 194 213 255
86.8315 179.066 95.6296 208 222 255
104.169 99.6453 111.792 255 243 232
192.675 144.832 117.746 198 216 255
104.695 5.95645 82.4044 197 215 255
217.015 132.51 116.041 189 210 255
131.05 111.44 117.842 255 244 233
136.54 86.4813 114.626 207 221 255
113.746 100.816 108.723 216 226 255
167.769 38.1424 115.45 210 223 255
112.389 41.048 114.432 198 216 255
137.502 145.298 107.616 194 213 255
173.29 86.0032 152.397 195 214 255
77.378 52.0967 110.44 255 246 237
93.8245 174.143 110.338 196 214 255
108.762 113.948 116.77 255 217 187
124.83 103.386 110.511 255 250 243
112.672 101.57 115.054 206 221 255
112.44 93.2005 121.51 255 248 240
119.121 129.541 105.376 255 249 242
93.8265 174.144 110.336 194 213 255
94.6611 106.429 104.012 204 219 255
93.8066 174.142 110.358 203 219 255
82.6326 118.979 115.075 255 218 188
134.969 132.807 111.836 255 234 217
193.955 62.7598 114.93 200 217 255
130.434 2.14247 98.7264 194 213 255
133.634 93.9105 115.73 229 234 255
188.82 89.6534 108.817 187 209 255
215.646 19.9639 115.933 215 226 255
108.855 107.657 110.556 255 214 182
56.8286 164.278 113.724 191 212 255
126.706 106.227 111.954 255 225 200
108.924 106.468 114.859 212 224 255
113.295 147.022 112.762 255 246 237
146.442 157.477 146.534 188 209 255
93.8767 174.161 110.283 206 221 255
164.902 93.5092 85.9384 253 248 255
75.3042 127.382 112.17 198 216 255
114.49 134.894 104.458 222 230 255
125.869 82.0002 122.028 214 225 255
115.853 122.761 131.122 208 222 255
93.749 174.122 110.383 201 217 255
98.8342 89.2399 111.831 215 226 255
87.1537 24.2708 80.1081 194 213 255
117.076 99.2026 117.051 255 249 255
120.702 69.3641 123.107 196 214 255
161.249 76.3984 111.454 190 211 255
118.764 129.689 92.8631 255 231 211
77.8986 144.238 115.583 243 242 255
100.436 127.649 113.699 214 225 255
128.659 137.482 112.775 226 233 255
82.6359 121.568 98.6258 203 219 255
74.442 175.214 126.037 211 224 255
122.603 114.926 117.018 255 222 196
112.792 125.84 135.232 255 236 219
93.8176 174.14 110.344 195 214 255
130.807 86.3189 115.18 212 224 255
93.8511 174.152 110.312 184 207 255
80.7322 103.121 115.035 195 213 255
102.588 125.275 115.66 206 220 255
93.863 174.155 110.299 209 222 255
3.06349 118.941 106.905 195 214 255
110.296 37.6119 111.383 209 222 255
203.641 104.008 89.5401 234 237 255
219.557 120.322 108.957 179 204 255
82.8998 105.336 115.881 209 222 255
126.53 62.1082 117.597 191 211 255
101.605 98.1238 108.948 255 201 157
93.794 174.134 110.363 252 247 255
63.0934 131.128 121.867 219 229 255
117.859 124.49 109.569 255 248 239
93.8363 174.147 110.326 247 244 255
94.1387 121.978 111.317 255 187 130
66.7426 144.497 112.754 208 222 255
118.658 110.283 109.192 255 231 211
145.792 16.3581 139.696 200 217 255
103.484 145.319 115.889 219 228 255
81.8571 159.392 101.509 203 219 255
111.636 6.7412 105.212 196 214 255
80.6315 146.329 73.244 200 217 255
222.551 53.6394 109.97 191 211 255
163.245 173.987 128.094 197 215 255
116.921 119.259 107.136 255 165 84
99.3533 124.293 117.674 226 233 255
176.472 140.477 109.106 204 219 255
93.7786 174.126 110.374 200 217 255
29.255 164.272 111.478 211 224 255
107.694 165.457 103.611 255 238 224
114.524 15.498 97.4712 207 221 255
124.002 102.672 105.11 255 235 218
125.088 105.778 112.506 255 241 228
111.706 107.708 118.016 255 226 203
137.054 80.567 145.019 204 220 255
57.9579 154.925 113.693 217 227 255
93.9057 174.168 110.257 197 215 255
76.6562 74.9184 111.879 255 255 252
104.264 142.09 111.764 251 246 255
84.5987 100.247 109.97 255 191 138
67.6436 24.9731 97.2254 220 229 255
158.474 15.5913 109.858 198 216 255
87.8975 19.5373 113.111 185 207 255
72.7376 108.621 109.98 255 250 255
69.6089 189.935 112.138 204 219 255
123.623 111.732 135.138 217 227 255
107.798 99.6238 126.482 255 230 209
121.026 118.424 120.626 255 253 248
70.6186 105.487 114.934 217 227 255
112.375 107.621 118.82 203 219 255
73.4138 131.943 129.082 206 221 255
27.9022 217.051 123.03 186 208 255
145.327 87.7221 94.803 189 210 255
55.679 59.0226 119.017 202 218 255
125.762 129.466 107.616 213 225 255
51.7746 44.749 103.59 222 230 255
80.9719 182.145 104.123 255 251 255
134.937 88.9113 110.186 211 223 255
49.9793 101.796 108.299 255 254 250
127.159 98.1933 112.95 217 227 255
133.259 35.4655 114.502 201 218 255
109.641 105.253 113.757 239 240 255
75.7168 197.397 111.505 207 221 255
99.0405 142.282 110.246 217 227 255
88.3344 61.0594 115.031 191 211 255
120.848 97.6981 118.99 255 219 190
98.2793 66.3318 121.307 255 235 218
93.8175 174.14 110.344 202 218 255
108.575 167.764 123.147 185 208 255
146.677 98.4671 112.946 200 217 255
103.549 114.741 107.787 214 225 255
66.2747 80.0358 117.263 204 219 255
101.276 157.44 107.957 245 243 255
32.0045 111.488 114.277 217 227 255
115.355 197.153 110.123 212 224 255
127.173 119.446 109.277 234 237 255
93.8467 174.151 110.316 227 233 255
122.878 78.8089 126.562 213 225 255
56.3951 136.502 96.3072 216 227 255
73.878 156.166 111.483 197 215 255
194.044 96.8375 147.239 196 214 255
63.121 158.299 116.34 192 212 255
122.319 116.592 106.511 255 241 228
117.562 174.48 114.279 196 214 255
50.2936 134.833 72.7369 255 212 178
90.5499 215.651 98.4895 188 210 255
161.537 199.374 128.019 205 220 255
143.696 91.3419 116.902 190 211 255
93.761 174.125 110.396 196 214 255
201.951 63.176 115.054 192 212 255
75.659 132.576 118.427 219 228 255
79.0443 156.669 122.728 199 216 255
93.8146 174.139 110.347 199 216 255
91.619 173.163 110.012 207 221 255
212.936 58.1801 110.473 193 213 255
145.553 99.203 117.591 245 243 255
42.1259 74.9048 126.123 255 246 237
132.613 134.803 109.303 216 226 255
111.384 121.608 106.589 195 214 255
192.45 4.49138 114.954 188 210 255
124.397 72.0644 101.681 255 231 212
118.498 139.558 128.496 255 183 123
192.541 51.2517 111.758 205 220 255
105.67 215.84 103.934 196 214 255
111.649 107.7 116.865 238 239 255
62.3831 88.8561 111.845 203 219 255
59.6907 129.824 98.3559 187 209 255
96.6079 149.344 114.436 224 231 255
93.8587 174.153 110.304 252 247 255
143.154 98.302 111.672 229 234 255
223.183 65.1295 111.938 179 204 255
93.8332 174.146 110.329 201 217 255
148.443 109.856 117.625 206 220 255
111.597 113.319 112.427 215 226 255
153.746 114.134 106.781 206 220 255
136.797 78.3039 105.022 219 228 255
77.6845 48.2915 103.711 198 216 255
93.8318 174.145 110.331 187 208 255
106.705 73.5767 118.619 193 212 255
39.7527 112.014 111.417 193 212 255
114.376 103.338 103.133 206 220 255
93.5888 118.175 117.196 222 230 255
194.578 25.1235 116.185 192 212 255
110.024 70.8666 118.749 251 246 255
109.708 189.926 109.936 187 209 255
64.6745 96.634 110.266 255 239 226
67.0725 116.66 111.767 200 217 255
93.9807 174.258 110.326 222 230 255
36.5201 77.1509 109.264 218 228 255
218.885 43.5344 111.792 184 207 255
134.74 25.6283 113.037 196 214 255
103.428 126.052 110.126 255 239 225
192.255 7.08469 82.2269 191 212 255
104.114 113.446 127.348 255 229 209
159.435 47.3549 113.525 189 210 255
123.205 137.456 119.119 255 197 151
144.111 122.758 115.896 255 245 235
101.16 104.068 109.182 255 253 249
73.206 150.517 116.582 185 207 255
105.944 115.863 129.657 255 206 168
144.461 111.426 148.07 255 246 237
93.637 174.233 110.493 210 223 255
101.638 138.808 118.164 215 226 255
117.017 129.887 98.032 255 169 94
139.961 38.355 113.394 204 219 255
18.408 183.414 112.641 193 212 255
93.8195 174.141 110.342 241 241 255
93.8235 174.143 110.339 229 234 255
30.2176 31.0626 150.298 192 212 255
32.5929 65.5108 120.512 183 206 255
97.1687 124.992 119.898 230 235 255
93.8929 174.144 110.288 200 217 255
82.4178 213.317 128.961 183 206 255
66.7637 164.321 110.997 206 220 255
148.494 179.223 116.59 196 214 255
123.907 23.2315 119.783 209 222 255
93.7873 174.131 110.367 255 163 80
94.5491 77.4613 117.621 255 196 149
93.8097 174.138 110.351 219 228 255
93.8222 174.142 110.34 191 211 255
93.8463 174.151 110.317 254 248 255
32.383 171.126 115.749 181 205 255
105.457 140.313 113.199 240 240 255
124.125 171.343 101.675 197 215 255
79.243 125.822 109.125 255 197 149
95.6407 97.9113 113.015 255 251 255
21.5612 184.039 111.491 184 207 255
101.14 70.4824 117.984 222 230 255
146.476 90.2555 102.052 249 246 255
92.808 185.695 111.01 203 219 255
60.7858 90.1542 110.351 205 220 255
93.8514 174.152 110.312 214 225 255
99.7153 131.503 114.22 255 207 169
111.303 20.1321 108.194 202 218 255
123.049 126.163 115.766 255 221 193
92.3536 96.5098 113.067 216 227 255
30.9787 67.0592 118.379 210 223 255
93.8206 174.141 110.341 198 216 255
58.7443 145.007 77.5638 240 240 255
154.448 58.0256 111.495 200 217 255
51.0306 145.524 126.81 201 217 255
155.403 140.449 109.623 224 231 255
112.327 163.956 106.788 255 253 248
154.906 144.718 114.357 209 222 255
33.2007 153.878 115.345 193 212 255
61.9288 66.1601 100.675 205 220 255
208.14 51.6166 112.816 197 215 255
114.294 189.546 62.9278 192 212 255
155.605 150.833 110.328 213 225 255
123.292 116.43 101.514 239 240 255
81.2268 140.621 110.16 255 232 214
111.61 55.7472 117.472 240 241 255
116.258 135.518 108.853 255 241 228
48.968 182.736 114.434 201 217 255
60.447 68.0394 109.084 194 213 255
132.927 88.7112 112.603 242 242 255
93.8266 174.144 110.336 200 217 255
104.487 126.566 113.421 234 237 255
87.2114 152.611 116.309 255 244 233
127.373 148.979 112.092 198 215 255
111.696 99.5168 110.707 216 226 255
47.5489 65.9277 124.602 219 228 255
94.2687 112.738 85.1129 255 230 210
124.53 157.81 112.107 242 241 255
161.447 124.392 107.177 217 227 255
102.82 103.799 118.352 228 233 255
92.3407 218.344 107.718 177 202 255
110.055 87.0593 117.183 255 237 222
126.373 81.414 114.206 219 228 255
170.874 39.0043 110.676 188 209 255
156.308 105.993 111.367 213 225 255
116.294 116.459 112.156 214 225 255
176.978 96.8143 110.11 202 218 255
123.652 83.5657 107.758 206 221 255
67.674 113.852 110.553 204 220 255
69.9801 132.709 97.6724 200 217 255
118.001 104.287 119.845 221 229 255
93.8149 174.139 110.346 185 208 255
135.232 102.937 109.878 196 214 255
123.091 14.1155 112.542 182 206 255
20.8246 163.801 111.875 194 213 255
119.959 80.2943 121.437 219 228 255
102.358 100.199 120.753 255 253 249
90.2436 46.0026 112.868 206 220 255
166.662 168.562 113.514 200 217 255
105.858 115.106 106.331 255 217 186
93.7766 174.068 110.411 255 252 247
116.803 25.4053 107.318 205 220 255
115.83 99.227 112.522 210 223 255
78.7492 134.016 107.671 200 217 255
93.8528 174.153 110.31 248 245 255
69.2876 34.2446 116.493 199 216 255
67.9428 65.8041 120.515 221 230 255
88.4407 191.269 106.114 195 214 255
125.542 74.8626 107.767 203 218 255
114.043 121.369 107.518 242 242 255
130.862 80.2996 95.0123 231 236 255
105.392 134.333 110.054 205 220 255
98.6394 173.577 110.207 196 214 255
143.672 93.0959 109.425 190 211 255
117.832 58.7926 116.198 208 222 255
89.9479 2.98976 113.542 192 212 255
110.612 94.7446 105.644 215 226 255
137.284 78.3518 124.178 195 214 255
123.962 116.694 115.668 226 233 255
133.498 26.3486 109.984 203 219 255
128.143 127.785 106.969 214 226 255
102.977 98.5361 112.486 255 210 175
119.029 125.57 111.951 212 224 255
149.667 128.742 114.952 199 216 255
114.849 119.815 113.686 255 248 240
150.208 84.7818 106.134 192 212 255
70.6285 122.933 123.128 208 221 255
100.152 84.8746 114.373 212 224 255
102.073 205.317 106.199 200 217 255
99.4978 108.117 130.893 205 220 255
133.336 154.631 86.4557 195 214 255
136.144 69.7563 118.551 233 237 255
85.6614 36.797 103.434 245 243 255
90.4858 173.031 112.609 186 208 255
91.1901 180.335 112.928 191 211 255
91.9633 22.7338 106.57 177 202 255
93.8159 174.14 110.345 201 218 255
5.30361 113.298 109.792 184 207 255
92.9902 108.347 120.336 213 225 255
69.8712 160.742 116.822 202 218 255
106.86 104.565 114.345 212 224 255
118.847 41.8671 108.929 215 226 255
67.7131 63.7334 112.604 255 165 84
93.8289 174.144 110.334 229 234 255
91.3521 174.313 111.916 255 250 243
50.9385 91.0021 125.808 199 216 255
169.002 105.634 89.956 218 228 255
107.556 105.812 112.031 224 231 255
200.96 124.108 110.181 199 216 255
120.584 80.1186 125.797 255 251 255
211.882 103.476 68.003 255 170 95
100.513 180.714 115.477 238 240 255
81.2799 142.415 91.1857 210 223 255
123.051 70.222 113.596 231 235 255
132.191 71.3321 121.097 211 224 255
101.137 127.384 105.43 255 205 165
93.798 174.133 110.361 201 218 255
107.549 185.333 112.488 224 231 255
93.836 174.147 110.327 213 225 255
72.1701 79.6873 135.12 230 235 255
93.7399 174.06 110.48 201 217 255
105.94 90.9923 109.851 195 214 255
155.279 84.1979 132.219 255 228 206
72.802 43.391 108.525 190 211 255
117.098 36.4845 112.849 204 219 255
103.162 123.916 116.144 200 217 255
124.411 113.996 98.7171 255 252 247
141.262 199.065 107.653 186 208 255
94.1324 177.895 119.774 195 214 255
147.889 93.7961 137.997 203 219 255
93.8427 174.149 110.32 189 210 255
63.4043 46.2973 126.074 210 223 255
187.262 88.8972 112.216 204 219 255
143.956 108.791 116.152 184 207 255
93.8844 174.186 110.272 255 221 193
103.135 99.6405 99.0731 255 243 232
55.3592 101.949 104.873 192 212 255
6.88151 177.351 111.753 189 210 255
159.181 122.02 112.15 240 240 255
181.621 68.4933 96.2589 226 232 255
106.979 111.484 111.491 212 224 255
120.323 107.995 100.469 184 207 255
93.8301 174.145 110.332 212 224 255
105.051 124.2 94.7 201 218 255
92.5516 95.9399 103.122 255 237 222
102.893 22.1105 104.868 194 213 255
63.0681 51.0197 112.874 194 213 255
93.324 120.937 106.554 255 230 210
122.074 85.1705 110.686 217 227 255
93.8066 174.137 110.353 255 242 231
133.317 200.353 111.287 196 215 255
142.804 87.4093 127.534 218 227 255
98.8877 164.224 110.867 255 247 238
93.8287 174.144 110.334 229 234 255
109.167 109.505 88.33 255 255 251
93.7262 174.866 109.824 219 228 255
111.453 115.357 113.07 255 250 244
134.871 85.2519 116.564 202 218 255
111.908 119.216 106.742 232 236 255
63.9154 37.5206 107.01 198 215 255
107.064 99.8806 119.242 255 251 255
115.558 137.55 94.9499 255 233 215
145.357 75.4327 125.225 255 239 226
123.571 137.572 110.684 206 220 255
143.332 92.7177 108.888 252 247 255
116.872 130.002 103.782 255 187 130
101.558 129.899 112.246 209 222 255
162.405 151.993 103.415 198 215 255
93.0524 174.393 111.322 194 213 255
76.3556 133.617 114.093 204 219 255
148.463 54.6247 114.873 190 211 255
65.9692 74.8116 111.547 207 221 255
171.748 35.947 31.985 247 244 255
61.2667 86.6105 104.467 212 224 255
125.93 119.557 111.926 203 219 255
163.537 150.307 106.774 213 225 255
102.886 104.346 117.23 255 242 230
161.214 63.1642 113.966 192 212 255
102.752 110.708 130.441 208 222 255
4.35764 148.959 109.262 186 208 255
122.779 127.008 108.85 255 233 215
73.8519 57.0265 113 242 242 255
119.575 187.591 45.2021 194 213 255
94.2777 174.642 110.002 193 212 255
77.1281 98.9474 113.465 219 228 255
41.8948 206.849 93.1814 184 207 255
92.7674 167.004 106.414 218 228 255
93.8408 174.148 110.322 210 223 255
143.049 43.3342 111.252 255 246 236
138.838 17.1776 106.486 190 211 255
107.227 143.293 109.404 215 226 255
144.488 96.8233 111.393 247 244 255
106.626 142.312 116.141 217 227 255
126.693 123.639 116.492 204 219 255
107.649 169.384 113.297 184 207 255
125.055 182.449 111.231 184 207 255
103.31 164.087 114.882 232 236 255
161.072 111.3 123.43 240 241 255
120.81 137.485 104.192 245 243 255
70.2977 121.347 111.977 186 208 255
112.663 106.902 109.034 255 197 150
70.966 24.4807 122.749 199 216 255
93.8925 174.164 110.266 210 223 255
44.8199 86.5902 99.6607 203 218 255
82.4351 150.573 117.487 210 223 255
152.708 62.514 101.499 255 242 230
145.451 87.2801 111.018 214 226 255
104.611 135.448 101.353 218 228 255
14.3658 54.8454 114.468 190 211 255
114.456 115.099 117.532 206 220 255
139.139 172.789 118.055 208 222 255
165.285 104.186 115.829 209 222 255
110.644 166.58 105.087 255 240 227
112.761 100.919 121.044 255 220 192
109.849 121.821 119.593 255 218 189
77.223 92.9322 115.489 225 232 255
116.583 144.453 110.689 190 211 255
93.7664 174.123 110.38 195 214 255
93.8281 174.144 110.334 187 209 255
124.109 19.2748 109.95 192 212 255
93.7932 174.132 110.364 201 217 255
111.482 23.0925 96.6684 181 205 255
52.8479 154.932 110.431 203 219 255
92.5978 133.442 113.034 202 218 255
123.684 116.244 96.1103 237 239 255
60.0357 98.3679 116.107 189 210 255
129.817 122.282 105.499 255 235 219
132.408 86.5615 112.709 199 216 255
40.5246 223.633 107.011 200 217 255
78.3883 139.131 109.825 227 233 255
92.4105 173.908 110.698 211 223 255
100.291 149.782 110.906 207 221 255
123.304 81.4876 103.556 224 231 255
141.727 149.347 119.437 191 211 255
141.457 93.7108 111.882 211 223 255
152.544 113.206 109.622 234 237 255
8.01261 210.599 116.6 212 224 255
66.2567 125.376 123.702 255 247 239
109.512 96.5787 90.2753 230 235 255
26.0227 148.812 112.365 190 211 255
223.769 104.31 112.582 205 220 255
115.826 135.097 101.968 215 226 255
94.1348 174.187 109.957 255 205 164
7.70079 179.8 108.915 191 211 255
69.6214 122.931 111.112 188 210 255
152.429 152.079 112.264 197 215 255
36.8249 68.7811 122.103 198 216 255
98.4691 177.585 104.374 255 229 207
80.7276 59.0522 107.432 201 218 255
93.8068 174.137 110.353 211 223 255
80.661 122.353 114.118 255 238 223
93.4024 173.744 112.794 221 229 255
47.3143 98.2635 130.643 194 213 255
106.595 152.504 111.82 223 230 255
12.383 68.6541 115.059 192 212 255
64.3304 40.7369 137.277 199 216 255
54.2258 21.0116 139.844 189 210 255
100.444 133.06 104.464 217 227 255
77.7223 145.68 113.078 220 229 255
93.8244 174.143 110.338 189 210 255
112.42 116.113 117.231 246 244 255
96.7115 7.52145 112.171 191 211 255
180.458 104.953 105.602 198 216 255
134.293 175.244 114.403 189 210 255
48.4089 162.347 112.793 186 208 255
150.599 82.4009 112.72 202 218 255
158.055 125.714 134.045 188 209 255
157.292 117.028 112.35 203 219 255
58.4482 165.158 110.97 198 216 255
108.406 106.29 111.048 199 217 255
100.948 29.5725 109.126 245 243 255
120.154 84.4804 112.814 222 230 255
77.3217 25.9486 113.122 233 236 255
81.8279 214.146 112.937 186 208 255
128.606 119.685 126.749 210 223 255
93.9024 174.173 110.265 230 235 255
70.9003 127.969 110.479 204 219 255
103.057 87.1996 113.408 223 231 255
65.9828 67.7707 111.552 191 211 255
7.77647 87.3547 119.357 185 208 255
108.319 113.244 130.908 202 218 255
93.8026 174.126 110.373 218 228 255
93.8222 174.142 110.34 210 223 255
97.7661 211.146 109.765 199 216 255
112.059 106.929 117.089 255 250 255
87.3734 32.864 114.694 198 215 255
79.4327 186.52 111.343 228 234 255
156.324 152.86 58.3244 255 157 65
93.4685 115.477 106.535 232 236 255
93.8357 174.147 110.327 194 213 255
110.903 102.859 105.729 226 233 255
80.7551 79.521 111.88 225 232 255
141.661 92.7422 105.426 240 241 255
98.3681 108.736 122.555 218 228 255
122.613 126.69 106.499 255 237 222
139.905 91.1287 108.434 191 211 255
93.8086 174.066 109.899 197 215 255
103.554 11.041 107.357 196 215 255
127.564 114.631 117.655 255 228 206
107.68 170.078 118.676 248 245 255
34.9253 44.8175 110.712 197 215 255
188.959 21.2275 113.398 187 209 255
144.374 144.197 104.234 185 208 255
106.711 124.884 111.284 226 233 255
93.2374 173.94 110.843 232 236 255
90.7411 71.981 113.271 192 212 255
113.045 162.195 113.69 229 234 255
127.067 93.3687 107.415 208 221 255
139.306 89.8434 104.235 255 253 248
93.8296 180.339 126.752 253 248 255
150.409 79.8793 127.693 217 227 255
171.256 99.323 113.345 198 216 255
125.459 108.513 101.748 255 249 255
151.327 103.91 108.451 197 215 255
31.3326 140.81 115.739 205 220 255
27.6755 115.908 112.768 190 211 255
111.783 82.0883 112.313 255 207 169
93.829 174.144 110.333 208 222 255
101.198 149.671 114.022 191 211 255
128.866 80.9265 112.79 205 220 255
108.945 5.52852 119.704 207 221 255
92.5772 38.4884 108.601 233 237 255
33.7012 165.258 115.934 188 210 255
69.6842 120.112 112.351 197 215 255
48.9906 183.298 111.339 202 218 255
223.692 49.8148 102.855 199 216 255
133.334 108.639 113.548 255 221 194
93.8321 174.145 110.331 225 232 255
65.5101 101.68 107.694 208 222 255
126.799 120.126 100.792 255 210 174
119.968 213.89 106.734 195 214 255
113.62 106.492 118.931 248 245 255
100.314 149.137 144.811 203 219 255
130.904 120.282 111.68 205 220 255
93.8506 174.152 110.312 255 247 239
94.0786 174.317 110.209 255 221 195
115.33 110.07 127.57 255 252 247
112.311 144.831 114.671 251 247 255
179.815 44.3676 111.883 255 250 243
93.8415 174.149 110.321 204 219 255
134.328 85.7379 116.54 220 229 255
121.566 96.1412 116.792 255 254 251
112.624 104.281 108.805 255 208 170
86.5775 19.9313 120.334 200 217 255
93.7883 174.131 110.366 255 240 226
94.462 150.079 120.22 225 232 255
211.971 62.6817 113.242 200 217 255
20.2233 220.122 125.755 196 214 255
115.005 113.495 113.113 231 235 255
123.894 121.333 104.643 202 218 255
147.232 111.165 115.403 255 236 220
114.882 86.9857 114.832 255 158 68
93.8227 174.142 110.339 255 238 223
195.008 143.004 119.665 181 205 255
105.435 130.816 108.117 255 241 228
66.5311 145.885 119.015 194 213 255
181.127 154.121 116.702 181 205 255
118.251 106.08 108.905 255 185 126
117.354 124.778 113.304 224 231 255
146.507 103.58 115.58 198 215 255
128.95 81.5508 113.15 255 248 240
147.871 115.932 114.472 204 220 255
94.6562 157.204 109.427 213 225 255
93.8367 174.147 110.326 209 222 255
75.241 102.624 109.877 212 224 255
65.2143 83.3352 112.54 196 214 255
125.219 129.561 101.777 255 255 251
184.516 74.7159 110.539 187 209 255
146.359 31.8205 116.129 197 215 255
151.472 96.4015 107.981 202 218 255
149.053 116.836 107.37 201 217 255
94.6085 174.276 109.731 188 210 255
97.5766 174.35 112.42 204 219 255
107.842 99.3423 119.191 255 251 255
93.6109 174.086 110.343 203 219 255
151.228 107.053 128.524 192 212 255
88.3291 119.959 107.357 198 216 255
135.825 180.502 113.555 255 252 246
104.109 107.636 127.598 196 214 255
61.7798 107.852 116.85 226 233 255
171.272 81.0855 105.984 213 224 255
73.4341 91.1807 110.528 252 247 255
81.6224 18.9813 103.871 204 219 255
119.973 138.974 117.629 237 239 255
101.414 133.022 122.061 220 229 255
94.9253 171.628 125.144 219 228 255
101.601 99.0607 102.919 255 244 233
93.856 173.966 110.852 228 234 255
93.8196 174.141 110.342 215 226 255
147.177 66.8448 81.1914 191 211 255
138.32 153.556 128.164 194 213 255
44.5945 126.731 111.368 203 218 255
94.119 174.003 109.944 193 213 255
57.1502 102.033 101.479 206 220 255
89.1437 144.109 118.821 219 228 255
17.5493 179.182 111.97 189 210 255
99.9527 121.326 124.211 215 226 255
104.217 190.888 109.898 255 242 230
208.619 153.283 113.309 189 210 255
95.7332 160.493 113.997 212 224 255
118.13 169.226 113.101 223 230 255
118.807 107.745 118.771 255 206 167
93.7995 174.134 110.359 187 209 255
154.779 109.481 93.703 213 225 255
103.589 102.526 107.88 255 234 216
96.9323 130.451 120.829 250 246 255
102.421 99.0949 121.434 226 233 255
18.2037 60.3629 115.873 181 205 255
93.9152 174.165 110.246 255 250 255
126.987 140.071 106.264 186 208 255
96.7905 99.3075 111.237 210 223 255
63.509 68.4086 101.867 209 222 255
61.1721 57.7724 127.309 198 215 255
116.199 110.808 122.885 255 237 221
29.52 43.8102 114.908 186 208 255
62.9098 206.508 117.536 189 210 255
108.858 119.661 107.237 255 242 230
96.0928 121.307 107.284 209 222 255
4.31547 106.902 107.322 189 210 255
101.257 58.1817 117.225 211 223 255
93.8874 174.163 110.272 215 226 255
137.751 164.111 115.284 192 212 255
135.99 93.2793 139.09 255 177 110
93.8197 174.141 110.342 197 215 255
58.5315 35.5431 59.5862 194 213 255
121.706 147.326 113.299 255 241 228
116.968 133.552 103.054 255 210 174
11.8334 112.981 114.541 182 205 255
118.15 106.374 118.008 225 232 255
155.424 117.72 91.4227 224 231 255
108.703 108.838 115.755 247 244 255
60.9349 92.2636 101.75 200 217 255
124.976 70.8938 98.859 255 251 245
129.624 120.31 106.636 255 234 217
113.852 70.5118 119.727 206 220 255
136.716 73.5116 118.792 226 233 255
81.2612 106.415 116.377 226 233 255
65.3636 12.0038 102.704 255 244 233
84.3405 174.303 110.479 253 248 255
168.971 134.009 113.329 206 220 255
171.874 133.046 123.471 245 243 255
166.59 213.023 135.156 184 207 255
87.1392 161.434 109.627 202 218 255
147.199 74.3869 91.1536 255 243 232
101.29 183.379 110.3 198 216 255
93.7059 174.088 110.428 255 247 239
136.611 82.0545 90.984 255 218 188
53.7679 17.2888 116.243 188 209 255
93.8053 174.136 110.354 234 237 255
178.941 92.1584 120.465 201 217 255
108.834 145.094 113.268 255 245 235
122.404 85.9513 122.026 237 239 255
93.8107 174.138 110.35 212 224 255
120.861 102.689 99.0637 240 241 255
115.485 103.619 109.735 255 224 199
93.8233 174.143 110.338 205 220 255
98.7237 92.3668 116.334 205 220 255
39.9028 150.975 114.665 194 213 255
110.414 193.044 121.169 192 212 255
100.171 183.226 104.65 227 233 255
123.056 94.5601 106.716 255 226 203
72.3917 26.9179 91.1135 188 210 255
33.3976 202.881 122.043 185 208 255
76.7259 147.686 111.477 207 221 255
104.644 163.827 125.243 242 242 255
118.12 98.6168 107.306 255 212 178
155.97 91.3367 97.544 227 233 255
114.938 129.455 102.942 255 246 236
120.564 123.836 112.307 255 230 210
58.1455 114.365 142.487 255 230 209
96.9021 131.396 117.821 196 214 255
194.001 14.4129 106.181 192 212 255
87.6682 54.6618 112.103 247 244 255
93.8247 174.143 110.338 198 216 255
111.84 102.963 105.798 255 228 207
93.8591 174.155 110.303 246 244 255
122.216 107.6 114.997 187 209 255
103.156 105.217 106.986 207 221 255
16.7602 59.9299 120.833 183 206 255
62.4297 138.973 140.531 215 226 255
49.601 94.1152 91.6573 200 217 255
102.468 104.121 126.14 239 240 255
148.549 136.11 109.163 198 216 255
50.0489 85.3921 105.373 188 209 255
83.9001 29.5206 116.202 196 214 255
93.9093 174.163 110.259 255 227 204
21.4387 58.6229 111.756 210 223 255
52.596 92.9533 116.648 211 224 255
105.4 47.8927 115.808 208 222 255
115.59 66.487 118.105 218 228 255
93.8167 174.14 110.345 255 240 228
99.2955 162.549 123.592 204 219 255
141.154 85.0075 115.012 214 225 255
81.1927 47.3118 113.213 216 226 255
108.788 113.086 108.678 255 211 176
93.8104 174.138 110.35 214 225 255
124.061 113.993 120.131 255 222 196
124.643 162.58 117.439 196 215 255
185.082 8.94658 107.058 188 209 255
93.8203 174.141 110.342 197 215 255
110.734 112.589 121.372 225 232 255
142.996 129.33 111.324 202 218 255
18.3821 67.5399 111.682 231 236 255
155.902 59.6232 117.147 255 230 210
113.24 127.289 99.8441 196 215 255
123.595 205.703 123.686 193 212 255
72.63 147.982 118 206 220 255
93.7959 174.14 110.361 248 245 255
153.791 120.769 115.498 184 207 255
93.8315 174.145 110.331 210 223 255
196.358 117.921 111.118 243 242 255
137.149 177.445 112.433 192 212 255
167.649 176.146 114.895 190 211 255
170.953 138.591 141.632 195 214 255
128.464 193.994 80.7762 187 209 255
12.305 65.8322 109.742 195 214 255
93.8251 174.143 110.337 255 240 226
136.956 81.9088 94.8212 255 232 213
92.4494 34.5149 113.72 226 233 255
64.6762 68.063 111.978 197 215 255
118.084 133.432 103.304 255 250 244
110.819 107.241 115.975 214 225 255
165.488 171.958 110.448 179 204 255
116.373 112.708 115.848 255 193 142
41.9064 100.713 97.8081 186 208 255
112.112 166.846 116.453 218 228 255
224.887 75.2783 111.499 202 218 255
22.4673 48.6168 104.019 186 208 255
71.0652 121.865 113.177 211 224 255
65.7343 120.066 150.393 196 214 255
93.4599 11.5864 85.8087 192 212 255
95.9264 166.038 107.514 212 224 255
93.8507 174.152 110.312 213 225 255
93.3579 195.498 112.154 226 232 255
125.911 72.3036 107.498 255 184 124
114.342 125.178 106.408 255 200 155
81.0707 8.70416 150.408 191 211 255
98.8294 116.807 118.482 231 235 255
46.0911 106.49 91.2171 255 240 227
115.072 2.42753 105.952 204 219 255
102.392 122.52 105.928 217 227 255
123.321 64.2687 120.024 255 252 246
101.982 38.5596 112.947 217 227 255
107.255 103.964 114.413 232 236 255
115.606 110.827 115.715 246 244 255
93.8352 174.147 110.328 226 232 255
93.812 174.138 110.349 211 223 255
76.8704 61.4158 110.472 185 207 255
89.1423 17.9347 115.096 183 206 255
151.889 124.553 109.713 201 217 255
111.103 106.096 120.346 211 224 255
62.1337 161.523 111.716 188 210 255
130.893 53.084 117.542 212 224 255
119.649 171.2 112.245 209 222 255
96.3477 111.52 119.756 255 250 243
145.543 98.34 114.881 223 231 255
151.07 114.989 150.209 202 218 255
106.405 81.7096 106.881 255 255 252
141.686 151.159 109.379 189 210 255
63.2119 44.9153 92.0058 214 225 255
108.065 180.681 110.067 204 219 255
93.8208 174.142 110.341 220 229 255
103.951 141.067 107.884 226 232 255
137.492 98.9129 103.67 216 226 255
103.571 98.5606 121.586 203 219 255
97.5593 26.0658 114 229 234 255
123.462 85.0972 98.6829 210 223 255
131.499 93.1596 129.155 200 217 255
125.725 192.312 116.04 194 213 255
68.3409 125.637 112.047 255 220 193
101.431 102.524 109.599 204 219 255
106.671 140.012 104.334 236 238 255
77.6793 140.529 115.642 255 219 190
67.0459 30.0945 117.175 203 219 255
8.40212 69.6944 118.127 182 206 255
107.968 109.72 126.328 203 219 255
77.2848 148.907 115.598 198 215 255
114.355 152.441 103.851 255 242 230
39.4933 49.9315 109.056 190 211 255
13.874 120.701 113.985 192 212 255
109.106 132.075 115.002 222 230 255
93.7477 174.107 110.382 235 237 255
93.8505 174.152 110.312 255 235 218
124.571 58.7374 121.578 211 223 255
83.0712 70.6888 109.419 186 208 255
1.61468 114.224 114.351 187 209 255
93.7695 174.228 109.951 255 237 222
8.72626 162.351 111.148 209 222 255
99.9143 173.666 121.828 209 222 255
93.8262 174.143 110.336 201 218 255
72.1458 139.083 98.7235 216 226 255
156.222 100.432 114.272 255 233 215
116.581 116.505 107.446 255 223 197
133.787 82.6343 107.481 212 224 255
106.105 120.108 118.436 217 227 255
94.2844 165.382 118.317 194 213 255
107.15 137.926 107.11 192 212 255
106.353 95.2301 111.607 255 176 107
74.7373 90.1151 113.728 231 235 255
110.372 116.452 115.867 255 222 197
163.3 150.563 114.49 213 225 255
113.551 22.0396 109.394 181 205 255
73.0985 125.915 111.237 198 216 255
122.607 127.428 114.391 255 253 248
93.819 174.141 110.343 241 241 255
143.269 94.2999 112.161 225 232 255
107.586 126.038 110.582 224 231 255
188.01 63.1633 115.252 183 206 255
77.3708 122.867 115.097 255 225 201
116.382 110.131 118.536 255 185 126
114.932 169.477 125.662 193 213 255
104.168 133.174 119.63 214 225 255
60.3987 103.531 110.53 217 227 255
59.6246 102.151 110.981 199 216 255
1.41513 103.674 110.022 200 217 255
128.905 169.367 111.195 197 215 255
0.365102 94.1723 110.757 187 209 255
76.5162 135.017 114.782 255 237 222
129.758 4.80026 114.535 183 206 255
119.929 150.498 108.812 255 179 114
107.826 100.838 111.6 255 226 203
104.364 99.2334 110.052 255 241 228
119.369 184.71 102.36 185 207 255
93.8181 174.141 110.344 214 225 255
93.8596 174.139 110.277 213 225 255
71.3413 137.398 115.562 255 232 214
93.8273 174.144 110.335 207 221 255
98.6861 100.107 110.881 249 246 255
87.5318 21.853 126.775 191 211 255
117.229 130.524 100.619 226 233 255
59.0285 201.831 111.712 212 224 255
128.826 168.195 114.163 182 205 255
93.7975 174.133 110.361 193 213 255
93.8132 174.139 110.348 204 219 255
132.438 109.272 112.962 201 218 255
107.365 105.494 102.755 206 220 255
126.142 131.685 118.953 255 238 223
47.2159 76.1824 117.734 255 245 236
102.725 105.285 124.753 234 237 255
168.579 32.8191 112.632 211 224 255
93.8321 174.145 110.331 190 210 255
93.9745 174.213 110.226 207 221 255
105.498 62.2901 114.58 255 222 196
64.2167 223.391 152.624 197 215 255
108.056 108.301 118.178 207 221 255
93.8442 174.257 110.343 210 223 255
90.802 224.202 120.967 212 224 255
46.9945 91.3963 126.973 213 225 255
112.071 105.508 114.342 255 127 0
167.594 5.05668 105.056 182 206 255
74.1736 11.3805 101.51 199 216 255
93.4037 56.7429 115.815 211 224 255
113.702 123.599 110.533 217 227 255
52.7277 142.988 112.376 197 215 255
47.0866 203.227 111.094 191 211 255
95.0531 134.459 104.781 229 234 255
94.1955 174.621 110.442 255 250 244
86.8927 221.362 119.897 186 208 255
157.949 112.385 115.449 191 211 255
159.689 168.866 108.769 211 223 255
61.2428 138.069 109.244 255 249 255
115.377 113.544 112.108 255 250 255
97.4262 128.688 110.967 255 255 252
70.4652 208.358 115.883 200 217 255
128.493 77.428 112.28 218 228 255
147.876 23.0472 121.291 186 208 255
97.9038 135.012 114.779 218 227 255
150.44 84.2098 112.765 197 215 255
114.856 126.757 90.9079 233 237 255
73.3666 127.658 115.008 255 234 217
109.181 127.78 115.347 255 226 202
139.505 106.9 111.045 191 211 255
61.6342 41.5933 121.725 188 209 255
87.2451 44.2952 111.118 222 230 255
169.213 110.378 100.512 210 223 255
149.546 9.83204 109.046 216 226 255
99.3241 166.647 114.144 217 227 255
111.192 1.16542 108.158 203 218 255
178.02 100.625 126.955 217 227 255
86.7843 151.248 132.835 211 223 255
159.113 150.695 141.729 196 214 255
22.4044 64.5328 106.148 182 206 255
122.815 124.552 115.187 255 204 163
113.998 58.3139 115.452 251 247 255
125.899 88.9273 101.843 187 209 255
93.8259 174.143 110.336 182 206 255
61.5723 157.185 112.39 200 217 255
177.67 108.064 111.095 237 238 255
202.376 3.5375 113.751 195 213 255
63.7708 135.385 143.991 193 212 255
22.2589 61.2465 107.066 232 236 255
175.75 136.067 131.118 237 238 255
150.833 108.009 115.344 196 215 255
108.351 107.447 106.469 255 251 255
87.705 141.88 114.229 193 213 255
109.497 136.019 109.147 237 239 255
79.4812 148.104 103.197 252 247 255
103.855 125.846 108.19 219 228 255
135.439 13.013 97.4917 185 207 255
127.814 159.795 113.954 181 205 255
115.123 117.281 110.328 218 227 255
104.635 129.525 80.0121 255 209 172
102.768 97.3298 120.888 255 103 0
97.103 65.5794 113.417 192 212 255
124.685 63.8094 120.864 214 226 255
106.822 126.64 101.442 194 213 255
97.8546 139.72 70.4261 215 226 255
93.813 174.169 110.372 200 217 255
97.2164 113.246 113.762 239 240 255
65.6556 137.013 103.582 193 212 255
92.6441 103.547 110.199 221 229 255
111.01 128.131 106.009 225 232 255
93.884 174.161 110.274 204 219 255
195.878 82.8817 91.9709 204 219 255
78.0682 169.378 96.3335 192 212 255
37.922 123.264 122.652 201 218 255
99.6148 137.706 108.113 223 231 255
117.656 115.636 112.557 255 231 212
159.155 65.8144 137.198 220 229 255
69.2052 41.4956 100.53 204 219 255
63.6026 131.155 95.5584 255 249 255
104.301 106.411 111.85 203 219 255
50.7312 74.2668 92.3135 192 212 255
118.441 134.852 120.553 255 243 233
108.578 100.554 109.752 247 245 255
117.182 91.6907 129.322 255 245 235
93.8034 174.135 110.356 255 239 225
143.028 93.2349 104.659 227 233 255
93.8124 174.139 110.348 223 231 255
64.3901 92.1246 113.992 198 216 255
155.335 93.8934 97.7207 218 228 255
46.5343 123.151 80.8123 186 208 255
195.202 129.081 107.323 215 226 255
42.9906 169.837 114.253 188 209 255
159.427 177.484 130.994 207 221 255
78.7574 127.078 109.219 209 223 255
93.7931 174.132 110.364 203 219 255
114.612 123.398 100.693 211 223 255
157.694 114.326 113.114 218 228 255
119.344 141.092 99.5685 200 217 255
97.6254 40.7001 107.217 201 217 255
93.8116 174.138 110.349 191 211 255
70.1326 209.272 118.618 193 212 255
93.9062 174.176 110.193 255 244 233
45.1676 59.3732 101.164 192 212 255
54.5811 91.6443 94.8247 200 217 255
187.541 178.012 143.844 190 210 255
91.3167 149.281 102.052 236 238 255
116.339 102.055 114.268 218 228 255
93.839 174.148 110.324 255 218 189
48.7864 94.6948 82.507 247 244 255
175.167 97.2445 114.801 190 210 255
99.2611 115.038 120.888 226 233 255
196.003 15.5326 113.065 191 211 255
110.45 91.3908 121.189 216 227 255
93.8619 174.156 110.301 255 235 218
194.962 93.6204 110.858 211 224 255
93.8175 174.14 110.344 193 213 255
10.8617 139.581 113.318 193 212 255
44.4545 76.3611 84.9936 255 249 255
118.477 162.268 122.746 208 222 255
101.179 100.147 104.813 255 245 235
206.54 78.505 109.217 187 209 255
123.672 124.136 102.245 255 237 222
169.029 154.404 125.805 207 221 255
63.9395 119.228 103.778 206 221 255
122.912 133.169 116.544 255 221 193
112.809 92.9979 112.787 221 230 255
44.0749 104.707 107.095 205 220 255
95.7662 122.108 117.176 209 222 255
69.78 103.022 112.881 236 238 255
92.2565 176.947 106.514 255 254 251
122.029 164.439 111.826 192 212 255
115.631 122.614 108.372 233 236 255
123.82 0.861722 97.5156 189 210 255
134.666 122.76 111.616 210 223 255
119.982 174.15 105.827 210 223 255
121.774 128.749 114.112 212 224 255
97.5231 140.201 112.717 229 234 255
173.666 118.453 123.318 199 216 255
60.6858 113.868 120.078 191 211 255
100.863 154.887 119.532 202 218 255
163.505 79.1511 119.951 192 212 255
93.8216 174.142 110.34 219 228 255
108.756 106.067 110.863 226 232 255
219.339 116.511 118.872 198 216 255
93.8449 174.15 110.318 255 232 213
93.9082 174.166 110.242 255 247 238
152.541 126.709 119.89 197 215 255
47.8613 63.6132 112.441 191 211 255
109.006 120.406 113.698 255 233 215
43.5316 95.1934 114.365 198 216 255
93.8152 174.139 110.346 204 219 255
112.056 74.4064 120.577 201 217 255
100.765 118.739 118.269 232 236 255
133.958 24.4073 109.398 212 224 255
57.8686 142.397 105.483 196 215 255
160.022 110.538 109.439 201 217 255
117.989 205.011 114.153 209 222 255
83.5271 33.5535 111.842 199 216 255
112.249 119.413 113.181 197 215 255
144.425 28.7909 109.044 200 217 255
111.939 110.826 114.707 255 155 61
90.9099 168.097 112.266 188 209 255
103.988 100.626 109.226 255 240 227
93.8169 174.14 110.345 255 250 244
93.8205 174.141 110.342 207 221 255
109.055 110.928 121.252 255 215 183
138.407 106.732 114.794 255 248 240
114.031 106.621 119.234 233 236 255
163.63 111.882 105.252 209 222 255
160.45 130.566 115.481 219 228 255
106.014 100.941 104.729 227 233 255
65.5407 144.816 119.683 237 239 255
133.906 127.427 108.236 255 227 205
93.8333 174.146 110.33 224 231 255
19.9768 168.177 112.307 188 210 255
107.372 122.277 110.659 255 232 213
48.9886 202.301 112.365 192 212 255
199.036 137.052 120.233 185 207 255
103.167 166.384 118.763 221 230 255
65.0605 126.899 108.789 202 218 255
