ply
format ascii 1.0
element vertex 1341
property float x
property float y
property float z
property uchar red
property uchar green
property uchar blue
end_header
96.1045 122.727 116.05 220 229 255
212.965 104.948 113.578 186 208 255
120.984 82.4438 113.318 203 219 255
136.339 73.1844 107.063 240 240 255
148.647 108.857 112.668 201 217 255
165.765 85.661 115.482 191 211 255
48.8121 214.262 113.254 195 214 255
113.695 206.072 113.449 180 204 255
93.3482 173.767 110.495 216 226 255
96.9709 173.917 110.203 207 221 255
71.9572 67.8329 116.612 196 214 255
120.366 102.591 111.253 255 222 196
156.477 140.577 111.822 195 214 255
163.083 98.9652 114.996 206 220 255
111.054 106.269 116.211 255 146 40
169.738 42.6045 109.42 182 205 255
93.4875 173.621 110.538 201 218 255
130.611 82.2324 109.225 198 215 255
100.088 92.9073 104.789 211 224 255
125.574 77.5848 121.423 210 223 255
101.202 129.675 105.294 218 227 255
37.8339 124.585 107.028 215 226 255
17.4086 118.319 115.723 190 211 255
113.167 139.188 104.392 255 153 57
110.277 130.3 112.699 255 251 246
93.2084 174.308 110.089 194 213 255
129.637 127.975 114.192 202 218 255
168.813 102.466 91.4705 187 209 255
105.758 125.881 110.707 228 234 255
95.8536 150.986 113.939 206 221 255
159.673 117.499 115.984 228 233 255
93.4854 173.615 110.532 255 247 238
217.365 134.976 115.995 193 213 255
161.345 124.239 102.77 207 221 255
91.3869 89.4526 115.697 197 215 255
103.854 173.439 103.784 203 219 255
144.323 117.343 112.81 210 223 255
83.9529 26.6379 112.267 197 215 255
175.057 25.93 110.809 192 212 255
180.332 5.02419 100.104 190 210 255
76.9137 198.467 113.324 204 219 255
93.4802 173.599 110.518 205 220 255
14.281 194.533 113.527 189 210 255
12.5572 121.927 109.716 191 212 255
153.984 163.549 111.401 201 217 255
116.588 117.505 108.186 216 226 255
66.9729 49.4735 104.121 199 216 255
93.5015 173.687 110.581 213 225 255
22.6153 56.696 133.169 195 214 255
132.18 75.074 103.478 217 227 255
167.24 102.073 115.44 182 206 255
93.4908 173.63 110.548 196 214 255
96.6977 169.454 115.166 224 231 255
148.454 10.0579 108.297 200 217 255
115.402 98.7937 105.154 240 240 255
108.746 120.983 107.061 255 171 97
98.0078 118.498 119.626 214 225 255
111.97 129.757 102.882 245 243 255
127.831 158.145 103.29 194 213 255
172.381 129.384 96.5298 207 221 255
120.166 139.447 116.31 211 224 255
110.658 131.684 117.983 219 228 255
115.71 78.6874 118.927 237 239 255
161.483 126.007 100.748 196 214 255
141.777 33.8494 111.574 179 203 255
112.738 117.036 112.309 255 225 201
126.662 195.475 116.751 192 212 255
116.447 97.4492 116.188 255 248 241
150.885 29.403 111.231 194 213 255
94.4802 124.651 111.727 200 217 255
121.924 173.062 116.698 181 205 255
0.472719 156.404 110.625 192 212 255
111.798 101.073 114.619 255 218 190
119.637 121.129 109.88 228 234 255
86.6553 85.0897 91.6009 197 215 255
45.78 138.869 131.69 199 216 255
114.568 30.1144 112.162 197 215 255
104.057 125.721 111.141 255 250 243
125.211 49.0316 113.31 217 227 255
106.094 67.8836 113.957 239 240 255
103.136 170.654 118.946 201 218 255
15.8667 106.201 112.316 187 209 255
62.0196 120.466 113.784 230 235 255
111.073 102.836 115.737 221 229 255
76.7625 33.2467 108.642 185 207 255
117.986 123.536 104.582 238 239 255
2.10147 177.96 115.676 220 229 255
113.976 128.824 116.232 194 213 255
52.6643 68.6357 93.5729 199 216 255
88.6061 70.4938 113.657 226 232 255
93.5325 173.635 110.644 194 213 255
107.66 196.615 77.5342 255 203 161
52.3293 139.012 117.366 200 217 255
142.826 121.179 112.504 201 217 255
93.138 172.72 110.844 221 230 255
138.621 124.722 113.436 237 239 255
104.351 140.262 106.751 209 222 255
110.778 102.983 116.727 235 238 255
125.638 92.1001 107.678 240 240 255
115.762 168.656 109.563 234 237 255
110.868 123.431 110.11 255 246 237
119.369 70.2633 113.986 210 223 255
93.487 173.62 110.537 255 249 255
93.4933 173.636 110.555 241 241 255
100.762 101.05 108.249 222 230 255
93.4885 173.624 110.541 186 208 255
93.4928 173.663 110.626 255 244 233
98.3534 123.447 113.16 255 220 193
117.565 112.275 100.549 237 239 255
67.5578 113.268 107.628 206 220 255
112.593 121.721 119.663 228 233 255
100.475 214.023 118.069 194 213 255
86.0094 113.993 110.355 201 217 255
33.4799 78.1322 113.714 194 213 255
75.8438 117.179 111.706 243 242 255
67.3862 219.522 111.334 213 225 255
105.926 162.799 102.473 255 250 243
145.941 165.171 111.853 190 211 255
107.033 133.915 111.871 255 200 156
83.2426 116.118 112.482 228 234 255
14.7787 136.451 113.859 197 215 255
69.0736 62.4077 110.766 255 253 249
122.353 86.9736 122.468 255 255 251
93.4807 173.599 110.516 197 215 255
125.404 184.39 112.664 197 215 255
196.473 180.072 108.616 193 213 255
119.137 28.0434 115.012 193 212 255
109.929 109.898 115.761 255 248 240
120.636 116.85 115.521 255 226 203
93.4879 173.622 110.539 201 218 255
174.532 19.4331 106.44 199 216 255
51.2913 149.064 113.352 197 215 255
115.699 142.114 104.414 193 212 255
82.2609 157.035 110.203 252 247 255
153.104 111.982 112.199 207 221 255
107.391 126.493 109.606 246 244 255
121.052 120.333 121.121 255 206 167
114.607 135.725 103.138 255 238 223
158.177 37.5355 113.124 216 227 255
39.092 134.983 112.171 197 215 255
93.4827 173.453 110.35 255 230 210
91.0996 154.46 119.764 224 231 255
53.3396 42.3099 110.412 223 230 255
156.154 134.929 112.191 199 216 255
125.255 121.918 104.661 203 219 255
136.785 118.218 112.84 236 238 255
154.091 146.182 111.353 252 247 255
61.2337 49.3873 104.65 204 219 255
112.421 84.2132 96.8471 240 241 255
123.718 126.816 120.599 255 238 224
129.025 103.892 111.951 201 217 255
131.665 147.685 110.696 212 224 255
56.3608 93.7506 118.283 206 221 255
118.288 176.147 109.723 186 208 255
100.214 107.704 105.274 209 222 255
70.0158 122.787 116.949 205 220 255
94.1963 144.685 113.406 226 232 255
73.4963 150.866 115.411 186 208 255
68.2599 119.427 114.47 204 219 255
79.8463 94.5962 112.241 195 214 255
93.482 173.604 110.52 184 207 255
81.3162 111.086 111.025 255 221 195
111.221 108.809 107.695 221 229 255
111.128 38.8152 111.495 212 224 255
136.375 88.8824 112.209 193 213 255
18.8224 115.696 117.851 187 208 255
113.328 114.067 101.027 240 240 255
131.937 100.73 112.955 255 249 241
109.962 43.7922 112.354 225 232 255
134.349 75.9553 101.541 230 234 255
95.9795 36.3105 112.482 191 211 255
114.754 113.817 118.039 255 249 255
93.7385 174.807 110.807 229 234 255
180.486 149.545 96.6553 230 235 255
116.713 129.667 117.685 255 251 245
115.468 106.031 94.7134 255 207 169
60.05 124.819 81.6925 232 236 255
151.426 118.193 112.218 255 255 252
52.6636 23.9867 140.354 225 232 255
173.368 138.175 113.722 198 216 255
189.236 105.371 115.147 195 213 255
93.5317 174.141 111.427 209 222 255
125.3 22.8753 112.175 190 210 255
50.3819 61.6435 100.649 253 248 255
79.1185 17.2698 101.707 189 210 255
78.0605 57.8148 110.714 197 215 255
107.258 125.265 111.179 218 228 255
113.639 110.568 99.1225 229 234 255
190.084 155.496 117.359 190 211 255
117.837 104.279 128.784 255 235 218
141.32 89.2059 119.669 198 215 255
45.9733 57.2038 115.87 191 211 255
34.9086 147.515 77.9097 211 224 255
61.2183 129.526 103.098 205 220 255
72.2773 133.94 110.916 195 213 255
164.178 31.9525 111.79 197 215 255
93.525 173.734 110.613 202 218 255
130.212 80.3505 133.899 195 214 255
143.89 15.3469 109.659 203 219 255
116.982 135.19 110.177 210 223 255
87.4505 59.7816 113.201 200 217 255
116.076 46.1303 111.819 194 213 255
98.6141 109.931 104.697 228 233 255
145.506 94.0472 110.042 202 218 255
118.195 115.996 103.822 255 203 161
26.7323 193.366 112.367 188 209 255
89.6403 119.303 111.77 255 252 247
140.247 168.31 113.508 183 206 255
95.7187 129.82 112.896 211 223 255
103.241 177.196 109.68 212 224 255
97.5711 96.9835 109.673 255 247 238
118.971 118.991 110.606 192 212 255
163.851 131.938 110.747 215 226 255
95.7355 169.661 112.916 224 231 255
143.656 90.8935 106.713 182 205 255
93.4881 173.623 110.54 207 221 255
108.817 129.163 109.589 255 253 249
111.688 124.011 110.241 218 228 255
93.4938 173.638 110.556 201 217 255
107.065 115.172 108.555 201 217 255
1.97469 116.057 109.29 207 221 255
105.948 130.505 103.958 255 199 154
113.173 149.746 110.097 188 209 255
152.418 150.517 111.178 213 224 255
101.335 62.5262 111.816 220 229 255
116.756 154.61 112.773 181 205 255
173.827 190.556 132.83 193 213 255
38.1661 112.727 109.45 199 216 255
84.597 11.82 110.904 191 211 255
93.4793 173.611 110.526 231 235 255
142.207 71.2076 123.782 255 148 44
106.823 143.936 101.958 255 253 248
121.33 118.95 101.399 255 216 186
171.109 133.933 110.039 200 217 255
109.63 100.547 103.905 255 244 234
139.936 136.872 114.398 217 227 255
93.4866 173.619 110.535 193 213 255
165.02 42.4462 112.365 204 219 255
93.7441 178.352 110.223 243 242 255
119.656 110.928 104.645 224 231 255
76.8224 179.357 111.905 203 219 255
112.44 100.76 121.767 215 226 255
102.936 170.127 118.441 207 221 255
108.905 102.309 121.368 206 221 255
81.5171 58.2579 110.304 206 220 255
142.258 187.843 111.076 217 227 255
104.678 164.294 128.566 255 243 231
104.005 109.411 105.474 236 238 255
93.4786 173.592 110.505 231 235 255
212.111 96.097 110.347 193 213 255
73.9586 55.1517 115.591 203 219 255
112.158 106.56 123.891 255 249 255
93.4663 173.546 110.468 189 210 255
69.1369 105.08 112.821 194 213 255
58.6572 37.0414 111.569 187 209 255
122.027 91.1409 132.228 255 247 238
92.7967 172.211 110.537 216 226 255
176.462 164.321 90.1585 196 214 255
93.5035 173.655 110.566 255 249 255
93.3923 173.189 110.121 217 227 255
153.199 165.602 111.692 255 248 240
92.037 65.9365 115.857 227 233 255
110.665 108.932 113.254 214 225 255
23.955 199.135 114.311 190 210 255
34.3618 180.924 116.671 200 217 255
97.7073 147.376 112.823 187 209 255
31.1285 38.2466 116.391 185 207 255
87.7126 56.6329 112.886 196 214 255
223.805 126.073 112.732 194 213 255
93.2747 173.33 110.268 255 233 215
136.491 126.467 112.19 255 242 229
93.4893 173.626 110.544 191 211 255
86.9736 202.164 112.416 187 209 255
103.089 87.0493 103.038 218 228 255
93.4789 173.593 110.509 255 254 250
151.991 84.7093 88.1967 224 231 255
116.493 124.743 105.21 253 247 255
81.1825 125.958 110.62 255 238 223
145.978 108.317 110.945 255 253 248
154.452 110.012 112.643 198 216 255
114.031 111.874 125.85 208 222 255
151.848 114.829 150.428 194 213 255
93.6378 174.482 111.152 255 180 116
68.4187 139.759 99.1334 202 218 255
111.609 114.504 114.868 255 215 183
89.4028 104.324 115.985 255 248 240
42.0413 71.9334 94.6123 209 222 255
151.411 108.35 116.697 216 227 255
109.933 104.353 108.237 202 218 255
162.473 110.906 106.599 199 216 255
104.421 104.679 106.767 208 222 255
88.376 19.1881 102.845 191 211 255
170.381 117.77 113.57 216 227 255
110.576 112.157 116.059 255 225 201
100.33 124.15 116.036 202 218 255
145.643 91.1274 111.293 227 233 255
131.764 179.018 119.205 205 220 255
93.5064 173.617 110.556 255 246 237
93.5174 173.669 110.589 196 215 255
210.256 96.1287 108.177 188 209 255
93.2595 84.8352 109.581 255 250 243
208.973 115.705 112.913 200 217 255
59.4904 44.049 114.305 195 214 255
87.5086 163.872 111.606 198 215 255
44.0802 66.0973 113.965 186 208 255
99.2775 165.361 113.925 255 224 200
118.446 54.8052 114.242 255 252 247
135.179 85.1092 120.095 224 231 255
110.162 110.19 104.696 255 245 235
154.018 57.1046 114.67 230 235 255
51.1745 52.9722 99.0637 194 213 255
165.359 62.0254 111.063 219 228 255
165.858 121.202 124.125 210 223 255
204.027 92.994 114.33 193 212 255
39.2639 61.7658 109.039 183 206 255
106.74 160.263 152.531 255 224 199
93.4769 173.576 110.493 185 207 255
93.4762 173.577 110.491 192 212 255
46.9034 118.567 111.691 189 210 255
73.9603 148.913 125.199 234 237 255
93.0201 172.234 112.451 199 216 255
117.815 107.676 104.482 255 231 212
103.296 120.364 122.546 228 233 255
108.496 76.4642 112.436 194 213 255
113.306 95.9039 110.928 255 243 232
93.4843 173.611 110.528 196 215 255
216.301 128.147 107.307 191 211 255
110.257 100.009 116.383 255 210 174
113.198 148.777 105.105 255 131 0
159.774 112.115 124.078 186 208 255
224.382 123.472 112.408 180 204 255
106.008 121.66 130.467 223 231 255
116.225 115.496 108.42 221 230 255
99.0828 94.1944 111.31 203 219 255
130.967 124.37 110.632 210 223 255
118.514 113.047 99.3422 208 221 255
101.662 155.282 127.618 233 237 255
147.37 18.8415 103.631 197 215 255
109.786 85.65 111.785 246 244 255
68.1111 121.666 119.04 234 237 255
212.359 29.1096 121.959 205 220 255
118.418 123.746 114.09 227 233 255
93.487 173.62 110.537 255 251 255
84.5912 140.834 135.924 193 212 255
93.476 173.58 110.497 193 213 255
166.537 130.275 156.868 190 211 255
147.298 88.4312 103.556 208 222 255
120.754 135.226 107.53 255 236 220
101.336 140.694 108.533 255 241 228
94.0506 157.106 110.367 201 218 255
95.5883 34.7809 121.973 203 218 255
127.348 118.079 116.416 255 241 229
93.4866 173.619 110.535 221 230 255
67.4265 91.944 106.135 185 207 255
8.00675 155.235 108.645 191 211 255
55.2327 49.0174 90.5315 255 243 232
151.193 134.581 118.322 214 225 255
93.4767 173.586 110.501 199 216 255
98.4232 112.116 125.548 218 228 255
175.896 144.272 95.1452 201 217 255
175.118 28.2024 112.86 221 230 255
122.652 117.822 112.696 213 225 255
102.096 128.338 111.398 242 242 255
104.95 119.495 84.2789 189 210 255
117.438 203.074 135.027 182 205 255
58.6461 115.865 133.025 255 251 246
102.487 96.9397 103.248 255 120 0
110.662 111.902 108.245 254 248 255
81.4127 114.542 110.974 255 246 237
121.579 71.9484 120.571 214 225 255
48.9774 102.38 108.548 201 218 255
196.216 35.913 110.866 186 208 255
93.4806 173.599 110.515 214 225 255
49.0139 66.3992 96.2885 191 211 255
49.356 48.0629 141.772 201 218 255
128.602 76.3548 110.73 255 238 223
23.2383 128.34 109.164 218 228 255
92.901 174.84 110.809 186 208 255
41.7418 152.274 108.341 187 208 255
110.096 104.766 115.729 255 215 183
64.0401 25.8011 100.231 193 212 255
108.257 108.496 109.957 214 225 255
106.368 123.597 120.088 210 223 255
86.0252 171.423 96.9893 255 240 228
162.435 38.6443 111.676 195 214 255
66.486 117.733 113.22 255 228 207
93.4589 173.898 110.216 194 213 255
72.7102 54.0757 109.491 195 214 255
116.305 139.331 120.257 202 218 255
142.002 156.442 111.788 222 230 255
97.7953 104.719 120.525 210 223 255
103.018 83.3302 116.297 213 225 255
119.204 89.3686 117.873 220 229 255
54.35 92.9566 106.373 255 208 170
111.533 166.251 108.163 209 222 255
103.78 123.225 111.046 255 232 212
103.995 89.8977 118.042 212 224 255
93.7267 173.917 110.566 214 225 255
116.222 125.148 104.734 255 177 110
126.781 180.98 112.712 199 216 255
94.5409 140.279 112.82 255 232 214
121.03 46.7429 112.363 196 214 255
207.332 66.8202 112.501 200 217 255
109.87 105.217 101.22 255 237 221
45.4144 103.113 111.354 236 238 255
169.752 144.19 107.31 255 253 249
93.4883 173.623 110.54 216 226 255
120.442 125.795 116.673 221 229 255
99.3291 120.129 113.387 255 251 255
149.347 89.7327 109.359 235 237 255
126.169 133.671 114.019 224 231 255
93.5032 173.656 110.58 187 209 255
119.503 62.5763 118.155 250 246 255
65.3763 23.268 104.817 190 210 255
66.626 41.0696 118.194 182 206 255
166.338 51.9802 112.661 189 210 255
71.0679 66.3533 116.227 190 210 255
93.1813 173.618 110.467 195 214 255
111.469 107.046 105.494 236 238 255
123.971 105.909 113.991 255 237 221
166.426 41.6491 110.968 205 220 255
138.499 143.769 109.909 223 231 255
153.963 82.9605 116.392 213 224 255
95.4237 79.411 98.894 255 235 219
55.7675 129.142 106.58 216 226 255
106.484 102.868 113.843 218 227 255
108.823 104.514 109.514 255 213 180
139.816 88.0557 121.05 208 222 255
155.62 98.6817 112.108 255 244 234
104.63 114.282 124.494 255 226 204
110.11 108.295 113.84 245 243 255
93.4688 173.561 110.476 225 232 255
57.0622 57.9481 94.5486 198 216 255
155.723 106.619 111.15 199 216 255
119.308 160.426 107.554 201 218 255
93.4418 173.697 110.462 205 220 255
158.802 189.772 82.9838 255 249 242
146.805 76.0095 91.4474 200 217 255
188.866 17.8217 101.863 187 209 255
163.877 80.2517 114.382 191 211 255
144.371 62.2976 113.813 193 212 255
117.544 145.715 113.707 255 208 171
94.4199 128.538 111.036 229 234 255
101.078 172.33 112.807 201 217 255
54.0579 68.1173 119.504 189 210 255
110.411 94.6668 116.796 217 227 255
66.5421 75.5963 116.545 202 218 255
143.205 126.142 111.351 197 215 255
157.513 115.193 141.822 230 235 255
66.5328 148.977 120.4 203 219 255
92.3167 165.216 115.989 194 213 255
62.6229 128.571 116.041 223 231 255
147.278 114.766 112.264 235 238 255
68.4229 54.5568 110.988 214 225 255
49.5223 66.9246 96.3668 187 209 255
129.487 79.8427 127.221 213 224 255
148.535 139.563 74.0729 197 215 255
119.011 190.473 110.556 208 222 255
196.565 23.1482 114.406 212 224 255
89.8784 122.933 112.737 255 242 230
101.014 161.882 130.513 201 217 255
187.338 122.257 120.062 209 222 255
148.619 103.667 113.738 208 222 255
167.013 18.6417 110.339 202 218 255
77.521 80.079 113.473 243 242 255
64.0008 58.3728 108.106 255 249 255
52.2009 155.817 110.81 200 217 255
131.732 116.5 111.886 197 215 255
163.399 147.265 111.552 198 215 255
90.5952 181.741 96.7944 192 212 255
111.872 163.861 104.227 206 220 255
58.971 111.917 113.227 189 210 255
142.007 85.245 104.803 214 225 255
106.514 118.391 112.255 209 222 255
119.876 127.824 48.5895 246 244 255
93.5421 173.228 110.403 255 241 228
105.084 118.251 117.903 255 157 67
151.725 179.612 115.217 201 218 255
48.9654 51.3416 117.137 181 205 255
80.6199 68.0896 110.764 255 229 208
38.1515 103.094 116.288 198 215 255
93.4765 173.583 110.499 201 218 255
127.007 116.492 120.952 208 222 255
113.995 106.621 121.499 233 236 255
180.568 24.2737 116.272 192 212 255
140.994 26.315 110.923 183 206 255
150.195 97.3989 103.315 198 216 255
112.094 115.983 114.821 216 226 255
156.43 84.6784 140.473 198 216 255
188.334 36.8887 111.631 210 223 255
132.486 31.5904 113.111 191 211 255
117.345 94.2981 114.237 255 215 183
50.3131 121.353 107.83 235 238 255
116.82 154.78 110.379 205 220 255
93.1261 75.208 114.956 203 219 255
128.64 108.745 116.248 199 216 255
109.59 119.142 106.887 242 242 255
45.7504 147.864 111.818 214 225 255
88.8939 72.6759 111.093 211 223 255
123.065 189.347 111.705 193 212 255
93.6024 173.532 110.395 229 234 255
93.4892 173.626 110.543 200 217 255
120.051 108.076 121.977 255 217 187
128.322 202.97 115.584 202 218 255
168.277 80.384 95.6513 255 251 246
215.528 90.5675 109.24 190 211 255
125.382 73.5662 122.807 213 225 255
92.7282 171.573 113.107 255 254 251
152.238 96.9445 103.278 195 214 255
131.417 84.7488 113.908 212 224 255
93.4706 173.573 110.495 255 242 231
84.7424 91.5305 112.679 255 238 224
123.824 116.349 95.1774 232 236 255
117.485 88.2682 111.132 225 232 255
141.529 103.552 112.316 235 237 255
34.4197 74.0205 110.895 201 217 255
142.979 93.9331 112.651 227 233 255
156.819 36.2579 115.586 228 234 255
106.784 111.003 111.548 255 250 244
105.923 104.253 109.163 255 239 225
118.023 116.22 105.442 254 248 255
103.631 92.9529 119.791 255 247 238
79.7708 94.0077 113.968 255 255 252
22.1328 44.905 119.765 190 211 255
112.38 98.9495 115.021 255 241 228
103.277 101.764 106.322 199 216 255
93.5977 173.77 110.601 196 215 255
106.051 123.284 113.586 255 162 77
103.446 109.959 118.198 255 192 140
85.2448 188.432 110.686 195 213 255
115.887 72.3583 117.324 218 228 255
116.42 121.791 106.608 220 229 255
44.5539 81.091 110.558 219 228 255
93.4904 173.629 110.547 255 252 246
76.5041 168.157 111.108 207 221 255
93.3932 173.626 110.397 214 226 255
108.078 120.268 109.307 255 227 205
127.958 194.856 116.57 255 239 226
106.709 112.93 111.354 218 228 255
171.83 177.813 113.738 231 235 255
95.6744 168.629 97.0358 208 222 255
93.5941 173.644 110.575 211 223 255
117.525 166.78 58.7373 187 209 255
107.137 36.5583 113.328 193 213 255
70.5475 105.274 111.462 203 219 255
132.193 68.2778 115.521 224 231 255
93.6906 181.687 112.486 235 238 255
62.4091 183.893 111.68 206 221 255
124.136 117.127 111.26 232 236 255
177.801 155.302 119.73 186 208 255
47.7123 150.054 105.319 196 215 255
44.3432 191.828 111.802 207 221 255
142.241 77.0752 105.526 216 227 255
74.9717 10.527 112.994 200 217 255
61.5918 12.1373 140.085 203 219 255
146.671 53.6623 115.431 181 205 255
147.324 142.125 113.71 211 223 255
114.134 125.895 118.654 255 250 243
110.259 196.229 115.554 189 210 255
93.4715 173.552 110.469 213 225 255
93.974 172.721 110.847 255 253 249
118.702 107.048 98.6222 237 239 255
147.436 167.735 105.809 193 212 255
94.1214 174.607 110.001 203 219 255
115.093 115.247 113.085 255 245 235
97.5928 26.2336 110.909 190 211 255
115.069 127.548 118.679 255 154 59
66.406 174.612 115.261 208 222 255
87.3082 134.102 111.685 226 232 255
93.4859 173.617 110.533 213 225 255
105.202 85.8191 113.99 255 228 206
110.122 122.064 116.192 209 222 255
93.485 173.614 110.531 204 219 255
107.923 108.969 109.188 255 249 243
158.806 169.412 116.487 187 208 255
119.176 122.513 95.7199 221 230 255
112.187 120.404 107.06 255 153 55
105.26 101.862 112.23 244 243 255
13.3074 170.602 116.017 200 217 255
167.267 131.97 100.681 199 216 255
92.7302 184.692 111.444 255 242 230
93.4887 173.624 110.542 206 221 255
90.7195 170.348 110.646 215 226 255
135.611 115.033 110.873 217 227 255
74.1517 9.00417 123.655 188 209 255
96.8627 198.234 109.836 255 248 240
168.784 152.683 89.4035 227 233 255
107.864 106.001 110.4 255 189 134
93.4928 173.635 110.553 255 226 204
123.093 73.6531 123.349 255 250 255
125.149 84.0138 112.57 200 217 255
33.9413 148.686 103.112 183 206 255
52.6353 94.3003 117.563 206 221 255
121.569 119.941 113.477 208 222 255
150.321 98.4519 111.892 242 242 255
146.482 153.16 110.729 237 239 255
169.322 15.7176 101.597 187 209 255
115.136 110.646 117.054 210 223 255
113.21 124.278 125.283 255 252 246
103.353 59.8968 111.194 215 226 255
48.7211 76.1729 102.953 243 242 255
90.5116 164.388 108.913 255 227 204
93.4808 173.6 110.516 212 224 255
99.4657 144.301 112.282 187 209 255
116.109 114.943 114.718 255 189 134
106.902 163.563 108.131 255 240 226
108.993 127.095 105.982 255 245 236
118.094 86.1378 112.543 219 228 255
200.924 151.139 100.044 204 219 255
93.4856 173.615 110.532 219 228 255
123.896 120.144 120.035 230 235 255
106.417 92.2962 118.009 224 231 255
121.105 167.227 112.374 190 210 255
93.6974 173.971 110.701 205 220 255
120.848 110.245 104.282 255 217 186
93.5499 173.957 111.047 212 224 255
97.9988 173.281 114.444 183 206 255
107.333 114.125 108.143 255 156 65
123.471 169.399 113.643 224 231 255
93.761 173.522 110.604 187 209 255
99.5563 190.338 105.559 219 228 255
46.5554 29.5218 106.426 194 213 255
72.0591 156.225 112.323 212 224 255
48.1247 61.6339 112.696 197 215 255
155.364 85.342 108.597 255 239 225
112.789 168.904 109.359 192 212 255
70.3336 183.381 112.109 209 222 255
90.9337 169.235 111.977 211 223 255
126.399 197.09 110.104 185 207 255
97.7093 112.835 106.898 210 223 255
179.005 116.901 117.597 194 213 255
155.577 83.1152 117.244 210 223 255
107.745 110.285 111.695 200 217 255
115.181 127.298 116.268 255 195 146
102.896 70.6112 114.201 255 239 225
75.1956 136.066 106.119 201 217 255
116.193 123.708 109.323 255 244 233
113.922 119.96 123.415 255 234 216
112 124.925 106.648 222 230 255
70.7245 44.656 90.0062 211 224 255
108.867 128.949 109.82 255 221 195
63.0006 134.187 102.529 255 254 251
49.2535 168.927 107.657 194 213 255
124.113 114.661 103.792 255 193 142
118.678 118.222 119.741 217 227 255
87.5632 48.6621 109.347 201 217 255
118.581 123.034 113.618 235 237 255
8.50013 159.069 111.707 203 219 255
93.491 173.631 110.547 202 218 255
120.104 103.87 120.535 255 225 201
102.606 110.851 112.339 220 229 255
146.298 86.3876 125.443 203 219 255
76.5832 141.77 111 230 235 255
118.848 137.827 110.65 218 228 255
121.103 75.4494 123.065 196 214 255
201.521 86.3595 108.975 225 232 255
178.751 109.344 113.801 228 234 255
93.4938 173.636 110.553 220 229 255
106.968 69.744 112.687 198 215 255
143.332 90.0828 127.124 202 218 255
93.4835 173.609 110.526 234 237 255
136.419 83.8221 123.242 225 232 255
189.627 21.4388 106.435 190 211 255
176.356 79.4483 110.178 207 221 255
78.7035 39.5209 116.722 244 243 255
92.8165 69.6015 114.92 197 215 255
52.9622 158.999 116.173 202 218 255
51.1799 215.121 108.482 180 204 255
93.5231 173.38 110.775 208 221 255
122.03 210.554 114.13 174 200 255
109.086 78.8223 113.425 250 246 255
84.4445 40.1406 105.065 214 225 255
114.419 87.06 112.964 206 221 255
93.4918 173.632 110.551 229 234 255
148.516 102.234 108.472 200 217 255
47.6919 83.2076 117.666 188 209 255
58.8423 179.651 113.4 188 209 255
131.314 172.522 81.2973 217 227 255
52.5294 101.755 108.571 208 222 255
93.4814 173.596 110.506 221 230 255
149.493 151.286 118.393 222 230 255
175.092 4.41042 106.857 183 206 255
174.462 122.214 125.556 196 214 255
124.743 118.254 109.665 255 248 240
201.134 113.542 111.809 208 222 255
93.4859 173.617 110.533 228 233 255
53.2643 124.136 113.622 190 211 255
103.292 124.007 112.029 204 219 255
148.126 127.047 111.395 221 229 255
200.305 163.652 114.063 198 215 255
102.982 163.048 102.286 204 219 255
96.4203 63.1703 112.615 187 209 255
115.041 74.8863 117.59 233 236 255
199.124 42.5681 109.11 195 214 255
143.776 87.2058 111.835 255 233 215
196.962 108.272 116.508 189 210 255
164.533 106.889 66.9218 194 213 255
98.1722 114.033 106.698 220 229 255
115.666 99.1326 121.203 198 216 255
63.8475 144.125 132.785 216 226 255
141.591 113.18 112.729 236 238 255
72.4947 152.457 115.696 219 228 255
72.5608 107.908 112.947 199 216 255
179.557 42.1295 115.675 193 213 255
144.786 134.428 110.046 202 218 255
75.6329 90.977 110.635 199 216 255
135.293 20.1089 111.745 203 219 255
123.296 110.721 118.599 202 218 255
159.507 13.7307 120.34 208 222 255
10.7641 117.318 116.294 184 207 255
115.721 115.931 98.8461 255 251 246
147.035 87.802 116.601 204 220 255
37.0901 68.8678 114.292 191 211 255
187.431 119.067 116.921 189 210 255
93.473 173.567 110.482 190 211 255
106.475 127.013 102.599 255 247 239
58.7639 66.6625 109.07 195 214 255
26.7402 89.942 133.923 217 227 255
162.165 109.048 139.247 210 223 255
116.865 130.689 103.719 255 216 186
14.1583 167.947 112.296 193 212 255
102.648 163.864 102.115 204 219 255
143.063 116.705 112.109 255 253 248
75.8777 13.7453 110.866 195 214 255
103.39 39.3694 114.709 188 210 255
221.63 103.62 117.453 221 229 255
157.386 105.228 102.408 189 210 255
93.4551 173.517 110.504 255 247 239
157.406 117.607 112.395 212 224 255
53.3951 125.252 116.378 226 232 255
93.4878 173.622 110.539 218 227 255
152.391 109.311 108.471 185 207 255
67.7135 56.1055 152.518 205 220 255
26.8742 79.0537 124.846 201 217 255
111.527 120.89 126.589 217 227 255
93.4844 173.611 110.481 255 207 169
81.1236 22.2482 113.946 196 215 255
53.0206 86.6261 100.007 205 220 255
36.4995 60.6288 110.048 191 212 255
134.541 75.5391 122.91 244 243 255
100.03 103.106 121.249 198 216 255
56.4498 114.062 105.911 226 233 255
63.1991 52.5281 124.063 192 212 255
97.1234 172.707 119.496 219 228 255
168.441 74.3533 110.175 195 213 255
122.466 115.672 113.003 255 245 235
102.435 173.976 111.303 254 248 255
101.083 32.7153 111.727 195 214 255
116.775 161.022 113.981 200 217 255
93.4597 173.549 110.447 203 219 255
33.1096 69.4772 108.698 206 220 255
85.1479 146.339 105.641 255 238 223
156.806 121.713 111.954 255 249 242
82.4268 29.8099 133.913 187 208 255
101.733 106.682 122.546 255 238 224
102.728 136.844 120.381 243 242 255
112.853 129.531 116.037 255 239 224
93.3423 173.944 110.587 200 217 255
93.5373 173.697 110.454 201 218 255
101.619 167.275 99.6351 214 225 255
150.974 157.605 114.799 200 217 255
133.974 171.29 112.583 175 201 255
107.676 88.3218 110.085 201 217 255
111.092 109.633 114.283 255 222 196
124.648 88.3397 112.314 206 220 255
107.954 22.1438 110.123 190 211 255
137.458 147.523 113.334 227 233 255
163.428 130.784 112.812 235 237 255
113.349 149.915 108.85 239 240 255
45.0576 148.089 24.1532 184 207 255
71.0428 61.5695 112.274 203 219 255
55.3725 103.497 124.625 178 203 255
109.28 111.774 115.46 255 226 203
137.722 88.4655 114.258 207 221 255
93.4887 173.624 110.542 255 254 250
149.752 108.476 111.793 191 211 255
153.513 86.2492 114.04 188 209 255
111.137 118.042 109.854 255 237 221
87.5746 71.4323 114.281 202 218 255
128.591 159.374 121.666 176 202 255
114.612 72.6474 118.309 204 219 255
113.837 122.135 118.673 196 214 255
52.7717 95.4339 114.439 229 234 255
158.999 83.5247 105.217 200 217 255
173.029 54.7888 114.063 202 218 255
91.4102 124.545 111.218 197 215 255
20.7307 40.2855 110.827 255 247 239
47.1444 169.137 109.467 203 219 255
92.1538 57.726 111.457 252 247 255
140.086 25.3226 111.36 195 214 255
130.665 79.7132 107.389 207 221 255
93.4965 173.675 110.536 233 236 255
143.772 74.5831 121.728 217 227 255
108.683 124.189 112.203 233 236 255
164.446 9.43279 121.044 195 214 255
109.895 100.782 114.437 228 233 255
77.7064 95.955 112.93 255 222 196
93.4904 173.629 110.546 190 211 255
155.947 80.9962 104.958 231 235 255
102.102 21.6856 114.931 195 214 255
142.815 82.7582 105.92 255 252 248
87.4029 126.378 112.418 203 219 255
166.079 54.9064 112.285 241 241 255
107.797 159.151 102.527 255 251 245
93.4333 173.562 110.425 206 220 255
105.839 82.4286 105.483 213 225 255
163.317 151.515 108.995 190 211 255
198.198 92.6249 110.688 195 214 255
131.989 86.0067 117.195 216 226 255
109.148 132.175 102.175 255 220 192
93.6992 174.478 113.599 211 224 255
37.8347 104.253 114.812 243 242 255
115.672 81.0168 117.593 239 240 255
157.845 120.96 113.454 222 230 255
134.781 81.3357 121.851 205 220 255
113.782 124.868 116.456 237 239 255
102.778 121.228 109.165 255 231 212
70.9817 138.182 109.753 255 248 241
115.809 110.806 98.5512 217 227 255
157.388 61.5226 114.321 196 214 255
93.4889 173.625 110.542 214 225 255
65.1114 33.4074 111.142 182 206 255
197.648 94.9749 110.039 205 220 255
51.7304 88.3139 113.983 255 251 255
106.646 136.439 111.928 255 243 231
93.4789 173.592 110.508 238 239 255
115.674 136.618 105.818 255 239 226
7.09998 127.349 111.222 211 224 255
93.4858 173.616 110.533 190 211 255
132.072 106.266 111.923 200 217 255
159.037 109.092 106.372 224 231 255
114.258 123.393 108.3 223 230 255
95.496 53.1744 113.269 196 214 255
115.854 196.494 115.892 197 215 255
93.4786 173.591 110.508 228 233 255
106.778 124.013 111.232 228 233 255
136.205 76.2855 108.481 222 230 255
78.1029 92.2071 113.611 189 210 255
198.507 16.1537 126.065 187 209 255
93.4806 173.599 110.515 187 209 255
119.341 81.5389 123.087 208 222 255
89.0844 19.6294 105.424 182 206 255
109.645 110.363 113.21 255 222 196
69.565 135.774 122.715 190 211 255
152.587 91.997 112.104 219 229 255
93.4922 173.633 110.552 188 210 255
44.4397 210.816 107.404 192 212 255
138.51 145.155 96.9445 185 208 255
115.811 88.7978 120.174 252 247 255
115.72 125.451 111.191 255 178 112
142.977 27.7523 114.994 205 220 255
170.02 41.333 111.454 192 212 255
95.1472 104.497 106.388 211 224 255
61.7534 35.3647 112.462 193 212 255
138.331 99.8958 112.191 191 211 255
59.33 119.445 119.342 213 225 255
33.9115 82.6917 112.437 194 213 255
180.096 22.3135 115.487 210 223 255
175.457 150.85 110.951 213 225 255
218.84 68.1661 116.041 184 207 255
26.9573 113.428 109.072 192 212 255
109.657 141.503 123.537 212 224 255
114.023 112.336 130.137 255 235 219
76.4302 148.483 117.529 203 219 255
55.1808 71.444 102.601 239 240 255
41.4498 80.1397 103.543 255 245 235
147.684 88.999 101.677 255 229 208
134.143 118.253 111.679 194 213 255
113.659 112.572 113.015 232 236 255
120.087 113.488 114.073 228 233 255
41.5869 85.9182 111.114 207 221 255
98.6333 133.215 112.335 232 236 255
102.205 156.7 121.67 221 229 255
162.449 136.857 111.886 225 232 255
116.677 117.046 105.151 255 221 193
124.218 73.0475 121.806 255 232 212
102.232 133.546 101.26 226 232 255
155.005 119.042 112.392 200 217 255
78.394 108.126 111.762 218 228 255
203.77 125.343 95.2305 188 209 255
189.4 75.1479 114.007 202 218 255
53.5479 116.877 110.508 216 227 255
44.1015 105.066 113.546 193 212 255
137.518 165.219 113.388 186 208 255
103.338 119.043 119.792 233 237 255
66.901 67.6453 113.025 201 218 255
146.384 149.046 95.9696 211 224 255
123.135 112.6 110.619 255 251 245
92.6196 149.065 110.297 255 238 224
19.2404 155.977 115.18 195 214 255
142.891 126.71 111.835 217 227 255
205.956 114.451 111.784 183 206 255
117.205 118.791 103.498 255 233 215
153.076 127.275 113.27 207 221 255
35.6791 190.363 111.487 202 218 255
148.785 89.574 108.927 198 216 255
90.4584 183.464 107.82 255 254 250
129.076 165.25 111.967 211 224 255
111.279 22.9676 104.836 188 209 255
109.689 49.6319 112.676 255 254 250
93.6005 173.669 110.609 218 228 255
64.6526 90.7218 112.351 243 242 255
88.6115 92.9676 110.882 224 231 255
94.8189 175.902 110.688 225 232 255
94.0814 162.993 111.162 209 222 255
102.048 113.93 122.788 255 248 240
32.4934 122.784 116.79 187 209 255
147.27 43.1964 114.834 195 213 255
115.746 124.511 123.392 242 241 255
109.236 111.577 111.06 255 250 255
81.9469 149.833 116.043 205 220 255
89.373 164.714 110.08 194 213 255
168.094 117.041 111.464 215 226 255
113.629 125.41 114.465 255 244 233
134.955 66.8642 117.736 184 207 255
109.929 57.2251 116.345 228 233 255
97.7677 111.214 114.561 205 220 255
58.356 34.6642 115.633 208 221 255
115.663 182.331 107.94 189 210 255
84.9212 154.859 122.152 255 252 247
113.196 128.206 105.976 255 246 237
217.722 125.038 118.148 196 214 255
52.6513 146.072 115.911 217 227 255
155.274 44.6409 114.216 195 214 255
37.3419 76.7676 115.418 193 212 255
108.736 102.679 99.808 255 244 233
92.0995 194.971 112.219 215 226 255
81.3471 158.924 114.18 195 214 255
156.883 129.874 113.136 207 221 255
105.48 106.86 104.662 214 225 255
121.132 109.545 110.569 204 219 255
102.717 191.577 111.444 200 217 255
113.697 134.178 101.805 255 156 64
117.282 108.422 101.581 255 234 217
125.23 123.962 120.426 255 243 232
74.3099 157.829 111.201 197 215 255
93.5356 115.983 114.646 242 242 255
93.5778 173.681 110.637 255 233 214
111.78 15.3982 97.0709 225 232 255
64.9318 130.712 119.224 199 216 255
164.545 18.1317 110.54 195 214 255
131.101 78.1515 128.746 255 214 181
186.107 99.9129 114.501 191 211 255
212.367 137.929 111.291 187 209 255
56.6017 62.447 114.639 194 213 255
6.59603 130.023 107.341 193 212 255
32.5975 182.515 109.334 207 221 255
172.228 144.953 116.963 193 212 255
107.385 108.9 116.601 255 220 193
109.616 161.109 112.103 225 232 255
88.8871 129.087 112.184 222 230 255
119.749 130.965 109.921 204 220 255
122.405 83.6783 114.055 246 244 255
84.5882 101.057 111.365 255 246 238
34.7648 88.0558 88.3558 228 234 255
34.7759 22.299 115.4 201 217 255
158.752 118.995 108.536 184 207 255
25.7093 139.541 112.693 255 235 219
106.466 103.007 104.526 218 227 255
90.252 180.221 110.778 255 236 220
93.4856 173.616 110.532 195 214 255
126.096 199.988 121.662 194 213 255
101.199 26.6471 120.626 196 214 255
68.3547 127.864 108.9 212 224 255
108.477 2.02834 110.108 189 210 255
156.474 85.2905 87.5186 221 229 255
111.925 104.33 118.696 255 173 101
80.2452 168.011 114.248 224 231 255
93.3457 173.221 110.113 193 212 255
63.4769 84.8527 122.142 187 208 255
104.359 177.188 113.469 224 231 255
133.037 96.3082 112.962 255 225 202
120.327 111.581 114.215 255 252 247
51.0995 85.77 91.7272 195 214 255
68.381 60.0764 111.93 255 252 246
94.1852 179.772 108.944 247 244 255
116.267 143.773 116.484 228 234 255
96.9263 64.9437 115.046 209 222 255
30.0409 111.126 153.302 234 237 255
93.4829 173.607 110.523 193 213 255
106.374 59.5362 114.474 200 217 255
163.755 148.686 109.211 255 251 246
203.975 44.1329 113.362 191 211 255
122.172 135.762 116.017 255 232 214
109.724 31.2988 113.284 202 218 255
93.4622 173.513 110.431 254 248 255
152.98 110.785 112.563 226 232 255
60.9298 127.332 116.43 211 223 255
112.29 114.032 115.218 218 228 255
50.382 112.104 93.2004 195 214 255
38.2815 109.144 111.394 189 210 255
93.2031 37.4754 111.224 196 214 255
183.577 90.2981 112.18 212 224 255
105.374 116.308 116.357 244 242 255
97.8323 122.248 119.931 255 242 230
78.9183 121.284 108.917 198 216 255
100.956 113.681 110.873 255 253 248
14.0233 55.3925 110.6 182 205 255
126.484 55.5453 106.188 219 228 255
76.7154 61.4783 113.665 204 219 255
50.7242 112.737 119.958 202 218 255
223.294 145.172 112.28 194 213 255
163.388 122.547 111.171 255 219 191
117.209 118.861 108.256 255 222 195
208.79 115.189 109.725 187 209 255
167.135 123.982 109.4 237 239 255
53.8325 81.5992 105.609 235 238 255
155.568 75.3851 109.826 214 225 255
98.5075 148.319 118.689 230 234 255
114.506 87.0199 121.362 242 242 255
86.3789 156.699 108.439 236 238 255
95.8791 105.51 118.035 246 244 255
57.1772 113.144 126.591 208 222 255
63.0955 127.932 112.346 184 207 255
126.118 80.5149 121.227 198 215 255
134.867 97.4483 114.166 255 245 236
166.675 143.382 78.9874 189 210 255
122.689 82.0346 124.927 245 244 255
220.938 68.3396 112.565 200 217 255
86.4396 164.535 114.006 252 247 255
79.7598 163.917 76.7336 255 212 177
135.625 151.622 112.782 218 228 255
46.7752 83.2519 125.017 199 216 255
142.594 124.921 111.407 255 250 255
202.382 126.102 119.979 211 223 255
93.475 173.564 110.48 194 213 255
70.5191 128.492 111.913 255 225 201
85.8953 41.3179 115.914 197 215 255
93.4973 173.642 110.563 218 227 255
112.776 101.824 104.365 255 101 0
63.1284 118.494 112.942 206 220 255
109.935 121.526 118.459 255 212 178
84.8262 168.743 112.372 255 245 235
107.95 76.4698 117.09 239 240 255
68.7185 89.6216 111.908 255 230 210
71.2663 188.447 112.381 255 250 243
126.959 174.627 95.5413 185 208 255
110.955 132.355 101.018 255 226 204
45.8001 104.305 109.327 233 237 255
182.445 87.7919 109.406 255 237 222
117.075 121.553 106.461 223 231 255
123.602 183.334 111.096 192 212 255
110.523 105.267 118.114 255 254 250
152.224 110.94 113.938 210 223 255
109.935 147.084 111.863 255 253 248
93.4086 212.591 110.92 186 208 255
95.3023 80.7385 112.386 203 219 255
116.568 170.239 112.749 255 252 247
131.96 73.9024 134.523 213 224 255
4.01033 190.658 108.08 182 206 255
125.308 83.1866 111.065 220 229 255
103.931 164.354 100.246 210 223 255
93.4819 173.603 110.52 223 231 255
164.43 119.129 119.647 255 251 245
33.4479 201.176 115.384 211 224 255
59.345 201.581 112.602 207 221 255
180.867 55.6189 114.401 200 217 255
123.884 143.8 70.6062 219 228 255
117.67 113.481 123.434 255 187 130
21.8404 98.1847 109.825 180 204 255
125.38 183.053 90.1978 195 214 255
93.4782 173.589 110.504 255 254 251
127.533 180.769 151.127 199 216 255
105.85 156.932 120.856 255 243 232
159.171 117.856 115.513 191 211 255
51.1007 54.9513 127.874 206 220 255
100.581 124.694 110.935 255 236 220
123.404 109.037 118.007 255 249 242
67.7926 139.444 120.104 211 223 255
120.644 81.1303 115.467 255 223 198
98.7681 103.429 107.009 255 224 200
111.25 111.085 111.694 255 232 213
117.18 120.241 108.836 255 188 133
78.2437 71.199 111.604 193 213 255
107.441 46.6569 111.349 255 213 179
99.7446 124.719 111.435 244 243 255
93.4856 173.616 110.533 203 219 255
124.345 149.956 85.5793 231 235 255
15.2429 112.308 115.065 206 221 255
13.5075 197.541 118.929 179 203 255
149.255 82.3864 115.927 250 246 255
141.379 139.563 112.304 206 221 255
133.029 165.852 125.475 185 207 255
109.756 105.821 116.889 255 237 221
147.976 90.7138 110.254 255 244 233
81.2654 139.336 112.024 201 217 255
107.808 107.146 115.971 208 222 255
74.7494 136.411 114.752 255 241 228
147.29 83.975 121.928 255 248 241
153.655 95.3149 104.866 214 225 255
102.383 110.748 123.86 209 222 255
117.757 117.5 104.581 223 231 255
93.4854 173.615 110.532 201 217 255
146.323 128.928 113.122 205 220 255
141.969 81.3497 114.22 255 234 217
105.103 109.011 112.921 214 226 255
100.692 117.6 120.268 234 237 255
115.156 114.495 102.378 255 237 222
178.779 2.20915 99.6077 196 214 255
93.2363 174.408 110.984 246 244 255
88.9008 12.6009 112.043 216 227 255
118.19 170.333 109.634 199 216 255
107.231 104.033 119.337 197 215 255
158.031 162.849 113.34 223 231 255
75.0208 136.489 103.12 244 243 255
50.2558 64.3781 100.045 177 202 255
143.231 139.268 113.465 197 215 255
8.19467 163.595 114.083 184 207 255
92.2591 93.5676 114.23 206 220 255
157.517 141.148 105.612 181 205 255
91.523 142.446 114.41 255 251 245
160.982 169.307 110.402 222 230 255
70.3605 124.612 112.23 212 224 255
41.903 44.9631 107.712 180 204 255
103.985 103.29 115.787 222 230 255
122.18 116.275 95.9434 218 228 255
107.704 175.974 108.675 225 232 255
101.995 97.874 106.265 206 221 255
109.554 106.223 116.254 255 240 227
154.114 79.5451 104.342 222 230 255
201.5 167.656 117.577 189 210 255
124.448 118.783 117.748 255 233 216
121.159 108.808 113.61 255 232 213
93.5369 173.609 110.798 204 220 255
70.2277 127.147 103.309 202 218 255
109.942 106.401 119.152 255 212 179
93.4883 173.625 110.542 204 219 255
118.785 112.112 110.006 227 233 255
81.16 147.658 123.845 194 213 255
93.9763 172.998 111.104 196 215 255
95.8459 165.513 108.427 216 227 255
12.794 187.317 114.16 183 206 255
94.1626 106.637 107.74 255 253 248
62.969 66.787 111.321 199 216 255
94.0867 8.36041 90.2633 196 214 255
3.84768 110.986 110.989 189 210 255
98.8509 45.8709 111.578 201 217 255
147.26 156.994 113.927 254 249 255
49.8365 127.891 111.371 208 222 255
96.6647 107.399 118.273 255 24 0
108.884 124.919 114.059 255 240 227
134.354 81.466 103.688 255 238 224
113.284 104.794 109.114 255 236 219
93.4916 173.632 110.55 255 168 92
95.263 174.617 89.2044 247 245 255
216.192 69.2924 113.735 188 210 255
91.9338 199.236 108.756 182 205 255
93.4838 173.61 110.526 195 214 255
99.9582 166.951 107.731 255 236 221
29.3822 71.165 109.784 177 203 255
178.421 136.401 125.229 255 242 230
93.4865 173.618 110.535 208 222 255
116.617 127.9 109.755 255 202 160
55.4005 223.038 110.748 185 207 255
118.754 69.4537 121.924 230 235 255
73.1883 51.6437 123.796 187 209 255
170.326 126.373 97.569 202 218 255
105.598 100.707 113.588 231 236 255
93.4852 173.614 110.531 214 225 255
145.322 81.5989 108.89 255 230 210
71.6296 138.385 96.5057 219 228 255
89.2749 104.442 110.033 189 210 255
176.889 147.026 120.284 202 218 255
147.448 96.6711 164.424 188 209 255
107.34 87.9349 119.461 255 216 185
168.512 138.306 115.533 255 245 235
85.8496 27.8021 123.479 181 205 255
6.38648 145.672 117.061 215 226 255
90.131 96.5246 109.821 208 222 255
106.113 56.6527 115.426 255 229 207
124.618 89.3367 114.704 255 254 250
163.909 127.826 102.88 255 174 105
98.2292 63.4604 111.764 207 221 255
102.897 118.838 114.971 255 227 204
118.548 118.95 110.342 204 219 255
127.318 77.3201 109.715 255 222 196
168.431 108.113 113.109 199 216 255
93.4915 173.627 110.571 255 240 228
102.828 132.147 113.27 255 218 188
72.6674 80.0836 123.841 197 215 255
193.098 25.7666 112.83 194 213 255
36.2953 158.234 117.599 183 206 255
135.184 80.3154 104.16 213 225 255
94.1263 136.108 112.162 228 234 255
109.9 119.188 102.535 255 200 155
130.864 84.8094 130.322 207 221 255
131.198 110.752 119.61 206 220 255
93.485 173.614 110.531 255 214 182
163.772 161.168 125.741 201 217 255
129.28 74.7204 117.086 205 220 255
176.209 173.24 114.571 207 221 255
116.727 127.874 123.795 244 243 255
111.909 128.003 109.294 211 224 255
129.132 191.727 101.779 213 225 255
90.1429 1.5479 143.623 201 218 255
106.734 102.232 116.005 216 226 255
97.6043 35.8597 112.166 197 215 255
112.77 129.681 122.777 255 210 173
67.3351 117.512 109.162 205 220 255
66.493 112.984 122.26 217 227 255
106.777 61.6127 113.157 189 210 255
17.9834 60.3386 107.825 181 205 255
165.364 133.689 113.874 216 226 255
114.625 125.312 104.335 236 238 255
13.8627 187.579 109.358 190 211 255
127.026 75.9204 108.512 255 253 249
68.3567 61.0985 111.577 207 221 255
96.3808 56.7679 113.485 235 238 255
182.413 48.1597 109.578 191 211 255
82.2126 149.979 117.384 206 220 255
216.366 140.544 122.31 183 206 255
93.4881 173.623 110.54 204 219 255
191.941 31.6721 111.525 224 231 255
117.006 121.695 106.562 215 226 255
180.902 35.4373 112.11 190 211 255
183.926 83.8627 110.536 195 214 255
112.017 161.402 131.999 242 242 255
37.7311 108.059 117.895 199 216 255
100.407 155.529 105.712 228 234 255
80.662 151.354 104.365 218 228 255
93.4866 173.619 110.536 181 205 255
63.3497 136.261 115.388 241 241 255
93.4827 173.608 110.522 255 252 247
101.275 174.337 121.573 255 230 210
105.138 176.562 115.908 234 237 255
111.901 128.603 108.096 195 213 255
176.42 102.118 127.088 255 220 193
135.227 82.7031 106.298 206 221 255
88.7741 97.6188 110.492 255 222 196
34.124 65.0512 103.708 255 255 251
116.011 78.3189 118.009 198 216 255
159.403 71.0491 129.762 206 220 255
118.712 102.655 111.236 255 245 235
93.4753 173.582 110.498 215 226 255
155.84 149.21 103.086 206 221 255
134.323 74.4582 115.266 200 217 255
113.109 102.067 115.661 255 191 138
121.469 91.2996 101.94 204 220 255
113.268 137.46 122.375 225 232 255
111.832 120.17 111.679 231 235 255
127.812 151.237 103.53 197 215 255
90.4875 10.848 111.497 190 211 255
103.449 104.339 116.899 255 206 166
29.9202 60.858 107.351 193 212 255
98.8948 128.688 110.613 255 223 197
1.29885 117.346 118.697 182 206 255
157.792 65.03 116.112 200 217 255
93.484 173.611 110.527 226 232 255
118.676 119.459 100.842 255 205 165
104.308 146.351 115.783 241 241 255
156.013 100.232 155.881 211 224 255
96.4885 173.105 110.865 255 239 225
87.9566 118.139 111.37 231 235 255
107.026 143.049 110.035 192 212 255
35.4855 175.29 111.492 184 207 255
125.34 118.823 106.547 213 225 255
15.9472 96.2075 112.765 178 203 255
93.2387 172.731 111.027 255 249 241
74.436 37.9004 106.097 204 219 255
199.723 116.734 114.693 188 209 255
129.105 168.375 112.606 255 249 241
100.931 58.9194 117.357 255 249 242
55.0524 111.961 99.4479 194 213 255
83.5353 103.808 112.738 196 214 255
102.303 99.6968 113.001 211 223 255
119.219 41.3362 112.914 237 239 255
57.749 92.4259 111.203 200 217 255
115.609 138.973 115.416 255 233 214
107.547 12.2155 70.609 181 205 255
143.285 152.538 111.089 188 210 255
110.608 188.58 106.821 183 206 255
140.144 87.0335 104.153 199 216 255
121.241 123.53 127.667 217 227 255
67.5072 98.7511 109.962 225 232 255
49.086 104.971 110.893 216 226 255
78.1444 98.6651 113.555 253 248 255
113.184 103.374 103.802 255 251 255
63.8164 133.491 117.443 207 221 255
146.82 96.3869 108.6 197 215 255
82.8878 105.825 111.605 237 239 255
163.173 29.377 110.537 244 243 255
93.4883 173.623 110.541 193 212 255
118.443 48.2275 115.114 206 221 255
93.4844 173.612 110.528 243 242 255
53.6593 86.9596 110.354 200 217 255
117.887 107.531 97.3286 255 226 202
150.761 95.7687 111.8 220 229 255
109.257 95.7149 113.204 238 239 255
109.177 109.182 115.596 234 237 255
102.059 103.114 114.576 255 244 233
93.5823 173.634 110.581 207 221 255
156.324 140.084 153.47 200 217 255
105.828 155.043 121.945 215 226 255
110.777 112.181 106.538 255 235 219
94.685 182.711 104.889 204 219 255
116.542 142.517 106.178 255 250 244
93.1465 173.855 110.82 200 217 255
49.4472 100.746 109.26 219 228 255
134.41 103.717 111.785 201 217 255
33.2047 156.672 115.926 185 208 255
116.745 125.488 98.7874 255 251 246
101.995 91.9723 104.212 255 210 175
163.266 127.13 109.345 218 228 255
91.0197 175.083 121.418 199 216 255
48.1078 83.3807 118.428 196 214 255
95.5936 122.479 114.714 194 213 255
54.4472 73.5156 101.143 188 209 255
167.202 132.634 85.5042 195 214 255
80.2178 41.7834 109.684 201 217 255
159.177 190.359 130.376 189 210 255
151.145 97.1314 114.335 192 212 255
121.365 125.446 122.762 239 240 255
139.172 81.2906 105.533 191 211 255
101.033 104.769 127.648 255 161 75
165.966 104.64 104.732 190 210 255
96.7091 97.1806 116.072 210 223 255
69.9153 78.4701 117.807 215 226 255
52.428 67.4719 107.987 194 213 255
106.118 140.564 110.942 255 250 243
93.4947 173.638 110.557 188 210 255
174.103 75.8355 111.15 201 217 255
122.749 93.3181 111.322 241 241 255
115.814 115.782 113.714 235 237 255
86.442 71.4743 111.328 192 212 255
114.942 82.0911 108.227 198 215 255
27.4522 166.045 157.738 192 212 255
14.1206 119.603 117.767 216 227 255
93.4727 173.575 110.502 211 224 255
93.409 173.916 110.512 206 220 255
50.5408 111.087 108.121 189 210 255
87.7389 154.491 124.653 255 223 198
58.5921 63.8522 122.846 255 238 223
109.37 107.47 110.327 255 184 124
201.219 8.5951 111.653 191 211 255
108.653 103.141 107.531 197 215 255
114.312 77.556 126.196 213 225 255
60.0035 92.1655 124.31 190 211 255
102.998 141.605 110.327 241 241 255
119.441 93.1384 115.626 201 217 255
57.7256 101.789 101.508 255 250 255
109.404 110.761 116.698 255 238 224
