ply
format ascii 1.0
element vertex 1341
property float x
property float y
property float z
property uchar red
property uchar green
property uchar blue
end_header
93.7899 173.447 110.828 216 226 255
93.8959 173.43 110.825 255 245 236
93.7679 173.449 110.831 190 210 255
99.4464 94.2352 114.112 255 250 244
112.465 161.69 109.665 205 220 255
40.3326 74.0501 118.76 180 204 255
104.541 120.986 107.547 210 223 255
74.4514 40.8892 120.008 207 221 255
117.922 130.478 105.362 255 226 203
177.076 39.3287 115.968 236 238 255
93.8043 173.445 110.828 209 222 255
101.709 153.592 100.36 225 232 255
93.2342 174.024 110.984 255 231 211
115.914 101.547 114.487 206 220 255
82.3164 174.519 101.842 191 211 255
93.9144 173.574 111.024 208 222 255
93.8143 173.443 110.827 188 209 255
46.3451 108.884 128.223 211 223 255
127.229 144.709 115.29 228 233 255
133.836 84.7464 120.073 241 241 255
23.2356 193.654 107.861 190 211 255
26.6754 176.502 108.553 207 221 255
133.569 114.219 120.234 255 246 237
158.616 70.4908 82.6743 196 214 255
197.107 104.307 94.0642 255 234 217
103.226 105.318 127.159 255 224 199
35.434 188.721 111.966 206 221 255
122.766 83.303 104.13 255 251 255
80.7643 161.952 113.975 253 248 255
69.5312 131.8 102.621 198 216 255
114.969 114.649 111.781 255 240 226
116.86 5.80083 146.371 209 222 255
119.46 108.54 123.121 235 238 255
161.317 86.3945 121.832 247 245 255
135.185 8.64514 132.634 195 213 255
62.7843 87.3813 120.187 202 218 255
93.81 173.444 110.827 255 244 234
125.554 162.962 128.109 182 206 255
138.772 77.9352 117.126 201 218 255
23.7594 91.3569 114.597 217 227 255
70.8679 46.9838 108.687 186 208 255
94.7697 134.268 114.262 184 207 255
93.8703 173.433 110.824 211 223 255
125.989 170.035 110.624 188 209 255
105.259 99.1106 120.647 209 223 255
96.3597 155.572 122.536 195 214 255
93.9023 173.428 110.826 218 228 255
173.235 143.491 108.307 215 226 255
89.8763 121.038 113.743 255 251 246
79.4401 41.0947 97.8909 232 236 255
105.358 152.027 103.409 255 233 216
100.977 117.155 106.48 219 229 255
114.206 112.252 91.4074 255 132 2
93.851 173.438 110.826 221 229 255
112.658 122.905 110.815 255 227 205
116.752 160.129 120.778 218 228 255
172.52 44.9615 111.483 192 212 255
93.8155 173.443 110.827 203 219 255
93.8253 173.442 110.826 255 249 243
16.5074 139.433 96.3871 190 211 255
81.3723 31.3843 101.521 214 225 255
77.8041 118.222 101.207 204 219 255
107.347 134.511 87.946 250 246 255
97.2369 63.8032 116.726 211 223 255
134.709 89.3218 112.211 206 220 255
94.0135 173.405 110.835 198 216 255
120.865 132.934 97.1057 255 248 240
103.737 178.555 111.502 190 211 255
114.499 146.744 109.189 255 238 223
68.6236 206.191 118.727 184 207 255
118.527 206.637 104.135 188 209 255
118.866 36.0598 62.3276 194 213 255
111.291 92.5222 117.475 216 226 255
107.249 110.514 112.54 195 214 255
98.2471 116.454 104.428 192 212 255
26.0417 105.417 135.816 201 218 255
121.676 132.143 110.459 200 217 255
122.714 104.024 120.571 255 230 209
107.1 13.4045 104.691 236 238 255
76.176 62.5483 107.77 204 219 255
93.789 173.447 110.829 205 220 255
198.732 163.056 114.53 186 208 255
93.808 173.444 110.827 199 216 255
213.565 53.7068 110.754 180 204 255
64.9445 205.671 115.571 196 215 255
123.223 66.9021 116.407 201 217 255
92.3556 174.104 110.885 255 249 242
93.8027 173.445 110.828 212 224 255
108.21 4.38171 74.6376 200 217 255
93.8193 173.443 110.827 214 225 255
93.8192 173.443 110.827 218 228 255
93.8076 173.444 110.827 212 224 255
93.7821 173.448 110.829 220 229 255
93.8124 173.446 110.822 203 219 255
110.807 91.3868 125.495 221 229 255
89.1292 156.804 102.623 255 225 201
129.743 73.6428 111.308 225 232 255
121.312 147.055 120.621 233 237 255
93.8144 173.443 110.827 206 221 255
97.703 113.164 129.429 255 244 234
126.922 87.1017 94.1718 210 223 255
93.8721 173.434 110.825 191 212 255
58.5513 105.361 90.0089 197 215 255
86.9455 91.36 112 193 212 255
115.47 98.199 101.783 222 230 255
53.1943 122.191 96.611 215 226 255
96.5801 48.0493 115.792 198 216 255
38.1606 137.511 113.562 245 243 255
78.0829 88.9679 112.226 227 233 255
170.2 69.5228 113.026 193 213 255
94.024 173.424 110.687 229 234 255
60.4463 78.1138 118.003 194 213 255
112.237 77.4922 121.372 190 210 255
147.312 143.735 122.12 185 208 255
17.9156 80.1239 177.87 215 226 255
107.507 112.675 110.701 255 220 192
84.432 16.9778 113.35 210 223 255
106.039 88.4071 110.477 195 213 255
75.9231 145.428 101.269 255 246 238
96.5866 18.387 97.357 203 218 255
136.704 86.0909 116.789 190 211 255
118.091 120.302 108.569 255 248 241
118.843 73.0499 109.833 219 228 255
99.5499 130.731 120.671 223 230 255
109.156 125.383 114.259 206 220 255
97.7755 121.641 113.936 255 218 189
149.245 84.2122 106.177 207 221 255
103.221 112.556 114.944 228 234 255
121.881 140.56 88.8696 255 240 227
93.8122 173.444 110.827 210 223 255
184.661 12.1296 117.457 189 210 255
68.0495 77.3037 118.813 194 213 255
133.947 110.712 111.158 214 226 255
117.303 174.023 115.691 195 214 255
93.8282 173.442 110.826 206 221 255
27.1577 193.723 98.1593 180 204 255
102.984 129.211 102.457 255 254 250
83.6145 133.187 112.759 196 214 255
130.99 109.952 103.949 230 235 255
121.905 106.374 91.1325 202 218 255
144.989 99.6149 87.3397 217 227 255
76.8879 120.417 103.397 196 215 255
101.418 29.5062 106.264 206 221 255
73.6901 55.9718 109.464 205 220 255
134.023 130.558 63.2927 206 221 255
93.6067 173.29 110.858 255 250 255
103.67 108.118 110.392 255 216 184
93.9264 173.423 110.822 209 223 255
7.91408 67.0585 111.253 197 215 255
119.677 141.777 120.097 255 218 188
132.902 91.192 121.886 211 223 255
96.6928 121.235 110.449 234 237 255
93.8333 173.441 110.826 210 223 255
1.4517 114.83 117.141 195 214 255
61.1269 113.681 119.897 203 219 255
224.532 156.765 108.542 211 223 255
110.752 123.111 109.6 214 225 255
147.517 111.374 108.651 211 224 255
110.939 92.8567 121.903 202 218 255
93.8126 173.444 110.827 223 231 255
94.0315 173.403 110.917 228 233 255
120.497 82.0313 110.719 194 213 255
93.3819 173.565 110.893 194 213 255
26.9595 157.964 115.088 196 214 255
93.8693 173.435 110.825 232 236 255
109.548 103.449 118.18 252 247 255
66.4136 75.2262 87.4799 250 246 255
79.3112 77.9153 114.353 208 222 255
68.2799 100.032 124.202 230 235 255
77.59 15.8591 101.254 189 210 255
104.616 181.015 114.942 205 220 255
53.8478 105.245 111.59 231 235 255
123.29 171.067 92.9958 186 208 255
83.6205 6.29958 131.148 239 240 255
112.168 106.324 115.678 198 216 255
34.9296 117.405 99.933 201 218 255
90.8397 221.759 154.425 188 209 255
18.4456 205.672 107.116 209 223 255
177.762 146.08 108.325 255 234 217
57.1656 126.061 94.0663 204 219 255
96.92 170.222 109.654 221 229 255
127.853 95.4228 114.577 255 255 251
96.6012 147.867 111.51 214 225 255
41.8091 121.28 110.324 186 208 255
92.7438 172.017 116.953 190 211 255
93.7704 173.448 110.83 255 250 244
50.0031 167.188 115.383 181 205 255
174.947 21.9432 110.675 255 248 240
175.291 41.1703 114.969 186 208 255
93.8121 173.45 110.839 205 220 255
106.512 166.991 97.8271 254 248 255
93.7776 173.448 110.829 204 219 255
187.65 34.3775 110.882 198 216 255
72.3287 155.355 103.996 204 219 255
196.259 161.269 117.127 186 208 255
93.747 173.471 110.887 237 239 255
97.4861 135.311 120.413 255 195 146
111.519 21.5988 122.671 194 213 255
34.112 111.668 98.9993 208 222 255
138.12 122.747 108.81 255 213 180
39.6371 214.215 115.971 196 215 255
111.175 85.4379 113.521 209 223 255
154.432 47.0214 111.909 190 211 255
118.998 109.732 129.591 216 226 255
90.6021 206.663 118.061 186 208 255
93.2041 167.481 115.061 187 209 255
61.6394 80.6303 113.272 194 213 255
128.619 137.803 112.482 217 227 255
166.92 142.16 105.455 215 226 255
58.393 88.5613 174.382 213 225 255
131.995 171.551 111.83 215 226 255
93.9355 95.2968 109.535 255 240 227
166.124 90.0277 110.498 191 211 255
158.418 113.036 112.385 186 208 255
177.204 3.70664 115.203 191 211 255
114.832 107.16 120.026 203 219 255
113.593 201.898 124.578 184 207 255
63.0284 125.636 91.8438 204 219 255
52.4948 157.434 125.955 207 221 255
206.051 9.26871 107.285 182 206 255
109.115 87.459 113.953 206 220 255
37.4098 169.766 112.604 198 216 255
176.426 58.6578 111.022 178 203 255
43.6972 73.1789 138.063 227 233 255
98.4517 155.24 112.168 192 212 255
113.999 101.526 101.185 255 215 184
108.816 107.464 111.213 247 244 255
144.176 47.8308 111.688 203 219 255
94.7083 173.613 110.499 221 230 255
58.5496 38.426 102.944 255 249 241
79.4691 24.1365 119.44 194 213 255
32.8569 103.549 113.487 194 213 255
79.7241 111.829 115.129 255 220 193
170.987 7.85288 109.596 190 211 255
94.1112 173.428 110.812 255 247 238
128.83 91.857 89.1959 228 233 255
125.145 84.2102 133.832 229 234 255
93.8126 173.444 110.827 217 227 255
151.104 69.6208 115.818 206 220 255
91.9805 174.009 105.552 225 232 255
128.558 99.5206 87.8386 205 220 255
135.349 126.253 112.124 255 231 211
108.342 121.881 123.425 222 230 255
93.8327 173.441 110.826 189 210 255
107.796 110.75 112.651 255 255 251
123.193 144.078 107.176 187 208 255
87.7757 179.837 116.08 210 223 255
93.8154 173.443 110.827 235 237 255
93.9158 173.426 110.825 203 219 255
21.2199 200.187 122.904 204 219 255
101.097 188.597 105.887 221 230 255
150.839 78.9295 125.282 215 226 255
90.4258 153.485 112.347 239 240 255
44.9994 95.2529 144.609 207 221 255
152.405 138.05 146.548 253 248 255
149.228 63.3448 90.361 223 231 255
136.27 127.122 109.892 255 215 183
93.9801 173.437 110.824 206 220 255
25.1797 83.8708 108.17 196 215 255
190.523 16.0438 112.07 203 219 255
148.655 77.0157 129.53 255 243 231
61.6049 27.5616 59.238 195 213 255
105.199 147.267 110.547 210 223 255
93.8201 173.443 110.827 194 213 255
93.7886 173.447 110.829 244 243 255
163.811 118.396 118.606 210 223 255
159.881 135.769 117.385 202 218 255
93.8217 173.442 110.827 187 209 255
128.368 128.671 100.957 232 236 255
69.8949 118.999 105.063 205 220 255
100.588 105.165 110.778 213 225 255
215.606 38.9245 105.385 184 207 255
118.532 167.637 103.651 187 209 255
139.612 158.161 118.504 222 230 255
115.846 104.641 115.364 242 242 255
109.103 115.775 120.791 232 236 255
72.3011 53.7835 114.656 224 231 255
142.916 98.3966 94.5965 221 229 255
93.8113 173.444 110.827 191 211 255
115.77 168.774 108.407 196 214 255
98.7671 80.9777 114.586 221 230 255
67.7911 119.342 109.277 223 231 255
122.265 114.513 97.8886 212 224 255
140.695 162.649 83.364 191 211 255
128.907 122.163 105.993 227 233 255
63.9357 109.646 116.295 228 234 255
74.7465 200.707 103.962 188 210 255
152.628 96.5831 97.9091 197 215 255
8.64403 57.502 127.012 206 221 255
93.8602 173.436 110.826 249 245 255
108.868 125.36 112.175 217 227 255
123.919 130.94 112.794 255 247 238
112.481 101.412 113.2 255 245 236
93.5504 166.255 103.264 210 223 255
111.889 28.8827 112.851 194 213 255
84.7048 153.276 116.164 199 216 255
73.983 120.285 142.537 210 223 255
103.358 108.875 105.502 244 243 255
116.562 74.0183 125.857 247 245 255
84.9945 140.769 111.613 214 225 255
118.333 126.526 106.072 255 253 248
93.8069 173.445 110.827 244 242 255
117.076 92.4845 108.783 255 243 233
96.7428 140.642 125.009 206 220 255
110.46 88.2751 118.689 219 228 255
93.8208 173.442 110.827 198 216 255
96.2206 32.7131 128.752 212 224 255
118.383 136.544 75.9904 255 254 250
93.7937 173.446 110.828 205 220 255
106.386 134.351 110.119 198 216 255
171.727 31.5184 108.153 192 212 255
70.9576 161.672 114.414 183 206 255
98.1027 184.024 109.831 255 213 179
55.8815 119.671 111.823 210 223 255
147.908 76.1904 130.201 255 197 150
102.901 128.475 109.703 225 232 255
106.083 215.174 98.9086 186 208 255
93.8154 173.443 110.827 232 236 255
109.998 108.995 114.711 219 228 255
82.1991 110.703 111.281 255 250 255
102.857 144.751 110.055 215 226 255
106.773 113.055 116.929 202 218 255
86.5629 123.883 108.383 224 231 255
93.744 173.455 110.823 208 222 255
189.369 132.627 117.26 188 209 255
127.029 197.506 117.164 251 246 255
79.7199 125.985 110.862 202 218 255
127.577 76.4927 117.426 199 216 255
151.085 121.442 118.648 200 217 255
93.3829 169.2 111.735 207 221 255
76.526 95.1703 111.915 192 212 255
112.739 99.9892 129.386 227 233 255
94.3515 102.768 115.051 246 244 255
168.482 123.914 91.308 187 209 255
93.8231 173.442 110.827 190 211 255
134.744 183.662 103.349 186 208 255
93.1712 173.492 110.482 187 209 255
217.299 146.038 109.212 187 208 255
47.6707 39.9918 104.371 195 214 255
131.61 42.4286 117.455 200 217 255
126.2 90.4855 119.267 255 213 180
106.162 103.058 113.929 255 249 255
118.518 33.4792 114.381 205 220 255
44.0641 51.3367 114.87 203 219 255
177.134 107.707 108.907 214 225 255
54.9859 88.0296 120.362 197 215 255
91.0661 172.834 110.916 197 215 255
73.703 145.784 113.895 207 221 255
154.683 87.4318 81.6795 198 216 255
107.947 76.4863 114.359 221 229 255
114.883 187.167 109.855 202 218 255
122.252 166.819 109.415 255 248 240
105.592 76.8798 114.913 199 216 255
93.8223 173.442 110.827 202 218 255
121.931 180.082 112.202 212 224 255
109.631 120.737 115.423 203 219 255
107.294 121.611 108.982 210 223 255
151.722 50.8145 111.917 195 214 255
113.372 102.44 109.881 194 213 255
66.9888 124.506 123.5 255 231 211
200.356 46.3819 112.335 201 217 255
97.8103 183.222 107.589 232 236 255
128.877 193.678 110.556 255 240 227
142.718 113.951 116.897 255 215 183
118.509 151.826 112.532 196 214 255
83.485 79.4026 111.735 195 214 255
106.13 144.555 115.78 199 216 255
93.8105 173.444 110.827 219 228 255
75.2546 60.6857 113.953 191 211 255
112.487 98.0356 118.654 210 223 255
64.7334 190.515 111.693 200 217 255
106.326 171.688 106.453 219 229 255
194.284 170.557 111.846 181 205 255
30.4739 57.0166 130.326 203 219 255
143.675 98.9976 117.583 198 215 255
147.454 76.5295 114.703 180 204 255
93.8203 173.443 110.827 255 245 235
16.1164 135.057 114.042 211 224 255
108.951 130.992 117.025 243 242 255
53.9974 89.4033 139.487 185 208 255
78.692 110.24 116.001 255 248 241
120.612 134.016 109.327 255 234 217
83.9696 76.509 111.95 194 213 255
94.9881 157.128 108.28 255 216 185
121.789 87.8426 110.958 204 220 255
93.7718 173.448 110.83 248 245 255
105.307 197.415 114.087 217 227 255
101.539 157.377 114.504 201 217 255
97.7549 222.818 116.676 178 203 255
110.646 167.417 122.602 255 216 185
189.051 23.968 107.611 199 216 255
125.656 115.697 103.318 255 236 221
136.683 120.999 108.262 255 254 250
150.587 118.954 112.851 189 210 255
116.247 103.041 117.937 255 147 42
68.131 136.092 107.717 255 244 233
93.8185 173.443 110.827 209 222 255
77.3414 187.87 114.722 197 215 255
104.238 169.801 115.462 255 247 239
93.9694 173.451 110.824 255 249 242
125.469 120.816 104.341 255 224 199
110.457 173.505 112.737 224 231 255
93.7955 173.446 110.828 205 220 255
148.628 14.5132 109.745 226 232 255
93.8053 173.445 110.827 222 230 255
152.974 78.9624 127.367 255 247 238
118.673 101.994 97.3776 224 231 255
74.1651 45.0962 148.887 194 213 255
67.4342 124.013 105.767 219 228 255
59.3803 65.5315 118.69 184 207 255
45.8755 80.0621 95.8165 223 231 255
116.094 107.941 100.856 237 238 255
93.8147 173.443 110.827 197 215 255
93.7991 173.445 110.828 202 218 255
101.455 173.889 112.275 198 216 255
64.9136 64.644 100.608 255 239 225
93.8103 173.444 110.827 209 222 255
104.44 113.509 124.934 255 249 241
109.895 161.703 109.709 207 221 255
93.8062 173.445 110.827 202 218 255
140.284 123.026 112.743 233 236 255
93.7458 173.45 110.829 215 226 255
93.8253 173.442 110.826 192 212 255
144.68 101.988 106.004 203 218 255
93.8777 173.428 110.825 201 218 255
185.092 103.509 114.758 210 223 255
107.43 107.648 109.058 210 223 255
86.8346 175.057 120.877 199 216 255
119.493 79.5067 131.494 255 230 210
168.779 96.8231 119.968 213 225 255
111.408 88.601 117.126 219 229 255
135.922 75.2922 85.3382 255 250 244
85.5707 200.629 105.402 183 206 255
119.084 152.804 105.658 193 213 255
220.807 35.0361 108.022 190 211 255
46.8874 177.585 112.74 189 210 255
178.73 93.705 118.491 252 247 255
116.776 102.217 104.322 255 236 219
113.015 74.4442 120.453 218 228 255
90.2619 171.184 110.842 220 229 255
104.505 99.1835 125.069 255 249 242
52.1945 133.505 91.7045 197 215 255
108.527 80.443 114.357 197 215 255
107.888 200.915 118.925 204 219 255
93.7519 130.822 113.648 247 245 255
121.077 83.7404 114.438 227 233 255
144.073 84.9772 116.75 255 236 220
144.502 73.1689 129.012 211 223 255
60.6124 125.274 138.392 233 236 255
106.589 90.4094 111.877 197 215 255
93.8237 173.442 110.827 189 210 255
94.8053 180.807 97.6738 254 248 255
85.7936 141.561 98.5347 225 232 255
7.61799 109.513 115.843 191 211 255
128.661 129.419 111.987 255 222 196
119.023 119.914 113.556 255 234 217
171.738 98.4911 139.337 210 223 255
93.8936 173.43 110.825 212 224 255
119.07 111.39 110.874 208 222 255
147.006 80.5138 122.511 255 236 220
158.836 118.027 99.7745 216 226 255
117.372 82.5172 112.254 223 231 255
41.9427 89.7433 119.497 234 237 255
150.443 86.4241 128.052 213 224 255
107.437 143.016 108.697 255 233 215
154.548 190.639 122.734 196 215 255
174.924 65.9658 64.7794 246 244 255
91.5425 170.301 113.233 255 240 227
92.3174 121.83 109.644 219 228 255
93.803 173.445 110.828 255 247 239
119.847 136.037 110.273 255 238 224
74.0538 180.488 100.343 255 248 240
160.109 145.391 110.172 235 238 255
78.176 176.196 132.765 255 232 212
95.2238 106.382 102.891 255 230 210
144.552 82.6977 86.7091 224 231 255
93.8192 173.443 110.827 222 230 255
131.374 99.5726 114.251 198 216 255
93.7019 173.603 110.866 212 224 255
37.2367 114.912 162.548 242 242 255
93.8198 173.443 110.827 255 231 212
144.969 72.9122 113.198 189 210 255
91.2552 174.764 110.154 255 203 161
79.5687 130.461 109.034 207 221 255
93.8147 173.443 110.827 195 214 255
93.29 116.479 113.349 255 231 211
26.8191 170.176 123.588 185 207 255
115.272 118.526 107.375 255 226 202
90.7383 130.987 106.383 224 231 255
101.651 116.687 122.132 229 234 255
118.688 115.989 112.906 197 215 255
92.1367 173.377 111.002 200 217 255
108.843 190.124 117.26 195 214 255
103.38 124.049 99.2265 255 224 199
93.8547 173.527 110.768 191 211 255
93.8475 173.438 110.826 255 252 247
64.3606 115.337 128.969 245 243 255
115.759 79.6059 122.709 205 220 255
91.8104 123.64 126.298 255 242 230
57.6078 71.7535 120.144 199 216 255
87.608 134.606 109.451 248 245 255
111.11 120.108 110.546 255 223 197
112.785 149.486 113.436 255 241 228
112.224 94.2347 125.746 228 234 255
119.712 99.9992 128.772 255 200 156
89.0727 131.467 105.054 231 235 255
61.3714 108.591 113.789 192 212 255
171.204 127.631 104.629 255 197 149
105.051 101.434 104.552 255 250 243
93.7922 173.446 110.828 255 249 241
2.66276 107.922 120.708 188 210 255
108.385 140.998 108.515 214 225 255
109.075 4.75365 109.962 192 212 255
96.2455 71.5647 110.244 255 245 234
100.807 47.1925 114.823 240 241 255
134.542 174.015 124.801 200 217 255
171.808 43.4267 112.626 197 215 255
178.442 95.6159 119.122 219 228 255
71.0613 135.776 113.213 214 225 255
59.9608 121.517 124.589 202 218 255
100.579 119.501 112.845 204 219 255
118.81 71.7406 130.015 255 247 239
122.274 157.477 107.134 255 233 215
127.056 154.513 107.897 200 217 255
93.9789 173.42 110.825 216 226 255
123.658 103.717 121.399 219 228 255
146.351 104.824 114.547 209 222 255
102.665 112.427 117.926 225 232 255
126.79 118.307 116.112 208 222 255
125.716 113.488 107.247 244 243 255
56.5545 80.5661 128.332 255 249 255
151.537 110.152 115.14 230 235 255
102.683 163.644 111.665 196 214 255
79.0998 147.983 126.474 195 214 255
42.778 134.465 83.2529 206 220 255
157.519 124.416 114.356 211 224 255
105.41 162.956 115.156 252 247 255
93.8414 173.439 110.826 207 221 255
181.595 108.371 92.4303 207 221 255
79.2544 50.827 118.047 210 223 255
93.8337 173.441 110.826 202 218 255
122.38 134.796 108.053 255 174 104
134.374 171.392 94.8073 198 216 255
76.1609 20.9632 67.9896 194 213 255
153.958 111.974 105.578 212 224 255
93.359 173.469 110.685 255 252 247
142.443 72.4884 131.385 215 226 255
113.399 96.6311 127.592 228 234 255
142.467 22.2576 112.455 203 218 255
223.186 51.6961 111.174 200 217 255
84.3932 173.694 112.81 201 218 255
135.05 88.919 105.976 198 216 255
113.31 123.422 104.239 203 218 255
95.1212 119.699 110.264 255 242 230
125.364 121.134 105.322 255 238 224
93.8239 161.804 119.134 234 237 255
114.917 125.19 101.424 255 215 183
77.7235 145.586 125.921 216 226 255
121.062 86.1571 103.724 255 251 245
105.773 103.241 118.715 197 215 255
93.8273 173.442 110.826 193 213 255
149.392 35.6972 115.75 198 215 255
93.8284 173.441 110.826 203 219 255
167.805 80.9573 102.634 204 219 255
123.853 131.539 107.75 207 221 255
114.067 135.539 109.426 199 216 255
39.9402 118.257 110.007 190 210 255
103.051 127.498 106.2 208 222 255
138.378 142.578 119.959 180 204 255
97.7993 137.297 115.54 214 225 255
93.8174 173.443 110.827 247 245 255
96.3798 39.0115 105.48 213 225 255
63.4032 122.701 116.098 198 216 255
93.6426 173.509 111.075 192 212 255
108.527 141.251 164.523 211 224 255
47.2818 121.654 87.7692 200 217 255
106.099 90.1952 116.268 199 216 255
93.7601 173.404 110.721 211 223 255
125.4 118.502 106.654 253 248 255
31.0104 206.495 111.684 198 216 255
98.105 54.1975 117.891 205 220 255
108.108 93.6782 92.2274 227 233 255
147.711 102.328 113.273 205 220 255
211.978 110.04 112.459 198 216 255
120.842 118.702 113.718 255 242 230
188.509 152.932 118.936 197 215 255
56.431 122.017 98.6388 201 217 255
167.313 141.963 109.134 219 228 255
77.4036 134.335 114.565 193 212 255
44.5455 149.032 114.807 204 219 255
64.1517 103.05 126.921 213 225 255
104.882 179.924 114.23 255 253 249
96.6394 72.1223 115.021 208 222 255
92.7939 173.785 110.801 203 219 255
110.352 122.65 117.671 255 254 249
93.8607 173.435 110.826 206 221 255
93.8323 173.441 110.826 240 240 255
160.712 10.0254 102.679 184 207 255
115.017 86.3823 118.778 255 214 182
43.2243 126.106 116.703 183 206 255
93.8111 173.444 110.827 251 247 255
93.8174 173.443 110.827 186 208 255
82.9952 145.006 109.252 207 221 255
125.87 151.881 107.977 228 234 255
93.7894 173.449 110.823 255 240 227
6.52339 94.4539 112.099 182 205 255
72.0786 101.104 126.677 255 199 154
135.83 96.9867 116.587 206 221 255
122.175 82.676 106.734 255 251 246
106.324 153.887 104.505 199 217 255
108.793 118.163 105.244 255 141 25
108.022 125.201 119.619 217 227 255
71.7623 72.0893 116.726 183 206 255
103.448 82.6403 114.678 226 232 255
105.606 144.749 106.852 211 223 255
190.432 99.2537 112.378 211 223 255
116.072 84.4254 111.025 227 233 255
93.9357 173.42 110.826 255 250 243
88.9312 191.647 95.7113 192 212 255
93.8576 173.437 110.825 255 250 244
93.8471 173.439 110.826 226 232 255
108.908 104.996 111.351 255 235 219
102.143 125.453 108.554 224 231 255
142.775 94.0505 123.353 255 242 231
107.465 128.486 132.307 255 247 239
112.737 122.351 113.404 198 215 255
93.9436 173.419 110.826 248 245 255
113.379 120.531 111.612 231 235 255
42.8695 202.94 111.644 188 210 255
93.8957 173.429 110.825 181 205 255
93.7832 173.447 110.828 206 221 255
139.66 94.7914 100.608 255 250 255
68.4396 67.3186 112.701 202 218 255
57.7838 71.5094 120.822 201 217 255
169.019 40.7523 110.91 198 216 255
115.603 147.439 105.227 216 227 255
119.145 118.795 116.613 255 188 133
108.638 151.394 109.572 241 241 255
13.5691 31.3148 112.12 188 209 255
153.964 79.9677 92.7791 204 219 255
113.02 101.595 110.35 255 229 208
93.9056 173.426 110.825 221 229 255
132.098 11.1809 102.584 190 211 255
47.6678 59.8857 92.6119 222 230 255
129.542 97.1785 113.624 220 229 255
50.7228 69.3459 119.045 198 216 255
93.8166 173.443 110.827 211 224 255
109.803 117.11 111.825 255 249 241
93.8808 173.616 110.723 255 248 240
140.747 137.321 90.69 195 214 255
107.109 118.281 115.336 255 188 132
114.249 90.2423 113.557 255 239 225
87.2282 171.526 105.959 197 215 255
101.124 15.9191 120.488 194 213 255
152.034 97.7788 114.693 255 209 173
156.188 104.86 138.734 215 226 255
65.875 16.7425 115.699 195 214 255
41.6966 40.5712 103.576 220 229 255
91.271 178.561 110.756 220 229 255
104.469 100.592 115.672 198 215 255
131.429 83.2945 110.512 188 209 255
78.6977 174.662 90.5084 206 221 255
149.156 95.6465 102.023 201 217 255
108.967 132.33 115.119 255 250 243
92.6128 173.573 110.596 255 250 255
106.244 217.007 100.127 223 231 255
96.8549 107.327 109.699 255 114 0
96.4581 117.835 110.277 216 227 255
108.77 135.897 105.115 192 212 255
120.689 110.321 102.927 255 221 194
93.6335 219.384 86.2408 206 220 255
22.4382 90.2768 108.427 205 220 255
63.9982 62.241 113.6 189 210 255
47.756 129.458 106.755 236 238 255
104.922 127.505 117.05 255 233 214
52.4034 70.1829 102.502 222 230 255
51.7942 99.729 186.386 218 228 255
53.6481 127.19 87.7144 207 221 255
76.092 130.392 116.991 228 233 255
131.847 181.198 113.296 192 212 255
83.488 51.5796 111.628 203 219 255
60.4213 59.8426 109.503 208 222 255
32.187 203.718 110.804 191 211 255
125.988 126.756 108.715 255 186 129
99.687 62.2628 118.235 210 223 255
77.9355 219.715 110.728 189 210 255
121.23 122.679 121.367 255 248 241
135.587 21.9869 120.75 207 221 255
121.657 115.624 109.639 214 225 255
141.412 7.81806 112.045 199 216 255
157.812 93.9194 119.387 212 224 255
88.5655 32.9964 102.263 214 225 255
109.477 146.126 102.636 255 193 143
121.175 95.5211 120.107 255 138 17
93.7238 173.461 110.915 255 246 237
73.7605 80.9662 124.37 207 221 255
93.8385 173.44 110.826 210 223 255
132.337 74.1024 110.829 188 209 255
106.924 108.483 115.258 229 234 255
93.7893 173.447 110.829 190 211 255
139.121 82.5825 126.708 255 251 244
68.9453 165.029 113.205 209 222 255
202.436 23.6284 103.448 191 211 255
106.721 100.587 111.583 239 240 255
121.601 103.738 114.923 218 228 255
129.715 195.611 94.5737 187 209 255
136.652 11.0754 119.38 194 213 255
103.628 122.776 107.185 209 222 255
92.9985 158.306 144.428 198 215 255
78.7832 126.715 93.8517 255 190 136
124.698 76.509 135.655 211 224 255
91.8111 142.496 110.412 255 253 248
94.2283 173.608 111.653 208 222 255
107.81 70.3018 102.935 183 206 255
152.871 108.21 109.189 255 246 237
167.308 106.323 146.733 208 222 255
93.838 173.416 110.822 200 217 255
39.9101 82.9854 110.79 203 218 255
114.985 147.15 106.664 213 225 255
144.737 86.0112 145.481 214 225 255
29.4642 207.942 113.915 210 223 255
139.118 129.709 115.452 227 233 255
104.439 124.897 119.079 203 218 255
145.852 90.7202 126.315 215 226 255
129.001 135.823 126.036 201 217 255
94.9344 173.217 113.575 255 182 120
121.17 120.507 109.783 255 223 197
110.771 193.086 98.9603 194 213 255
216.233 39.7889 119.001 191 211 255
106.93 156.545 110.556 207 221 255
41.436 29.6408 119.627 192 212 255
123.725 142.253 108.501 193 212 255
90.8599 180.201 110.052 208 222 255
127.013 156.061 115.97 255 242 230
94.2869 173.203 110.75 220 229 255
116.785 21.6706 106.451 208 222 255
93.7819 173.448 110.83 198 215 255
180.647 148.583 115.728 205 220 255
25.4155 145.398 110.016 207 221 255
96.6469 210.473 90.402 234 237 255
99.1745 181.102 115.507 255 206 166
91.6216 129.941 122.575 255 197 149
93.8913 173.43 110.827 216 227 255
124.339 114.593 111.863 248 245 255
121.609 110.773 120.01 255 254 251
120.079 139.738 114.45 255 213 179
141.445 100.32 82.3228 199 216 255
116.201 82.8569 117.699 255 235 219
102.1 105.345 108.381 227 233 255
93.8058 173.445 110.827 255 217 186
112.958 105.454 103.934 224 231 255
94.233 173.362 110.96 207 221 255
102.906 192.43 105.145 222 230 255
27.9182 43.7022 113.569 183 206 255
124.278 82.7831 111.261 180 204 255
9.29843 211.054 103.75 186 208 255
45.9742 34.59 97.1745 255 232 214
156.925 95.5042 117.374 182 206 255
144.135 79.5662 125.253 191 211 255
114.909 36.2579 113.793 188 210 255
128.498 114.42 121.785 255 228 207
211.14 115.671 112.418 188 209 255
93.8109 173.444 110.827 249 245 255
120.545 100.521 117.322 255 182 120
120.05 192.492 116.591 224 231 255
60.1417 99.5064 111.04 212 224 255
53.0552 182.85 37.4044 183 206 255
132.07 210.905 128.781 203 219 255
167.869 167.151 122.866 208 222 255
90.6641 138.942 108.929 204 219 255
128.587 79.1656 115.265 231 235 255
94.7461 172.937 110.851 212 224 255
171.355 122.732 114.059 185 207 255
90.8316 206.008 105.42 189 210 255
71.5735 207.363 111.83 215 226 255
86.7187 30.2742 218.873 255 181 118
36.3126 65.4025 110.736 187 209 255
132.274 98.9742 115.996 254 248 255
116.576 118.994 124.193 206 220 255
132.407 83.8612 112.926 196 214 255
118.591 108.029 119.489 204 219 255
131.955 88.5587 103.39 231 235 255
89.763 78.9548 104.946 198 216 255
122.054 121.61 117.853 255 246 237
150.191 122.529 101.435 185 207 255
44.3168 51.7151 121.348 193 213 255
93.7912 120.175 117.16 255 252 247
93.6993 173.611 110.693 255 231 212
120.772 107.218 119.472 255 242 230
76.7943 97.3301 112.632 211 224 255
93.9305 173.422 110.768 203 218 255
101.478 141.682 117.36 220 229 255
46.8211 80.8537 106.031 227 233 255
123.453 77.8635 134.516 201 217 255
92.1918 169.609 122.334 205 220 255
100.855 102.446 112.432 223 230 255
152.742 108.715 102.712 197 215 255
86.2282 165.513 110.334 190 210 255
78.7479 131.508 111.628 255 249 255
116.251 130.141 107.454 183 206 255
111.126 93.3219 110.795 240 240 255
195.98 169.304 111.172 190 210 255
164.215 133.732 112.583 202 218 255
102.093 148.471 111.144 255 251 255
104.131 146.318 119.422 252 247 255
57.8272 136.148 117.042 243 242 255
207.865 24.6626 106.156 199 216 255
96.3035 144.189 110.695 241 241 255
113.631 100.587 99.1443 194 213 255
67.2055 43.0344 99.7333 191 212 255
109.567 183.503 108.959 185 207 255
15.9929 78.7613 118.214 186 208 255
102.859 135.985 110.15 255 206 166
100.202 178.235 113.756 202 218 255
92.6944 23.3623 105.562 207 221 255
93.8558 173.437 110.826 255 250 243
98.8576 82.6079 100.666 255 239 225
104.352 120.254 116.956 231 235 255
116.723 129.367 104.43 210 223 255
101.557 111.143 112.939 255 218 189
146.764 75.5974 134.714 251 247 255
107.786 27.7427 100.412 221 229 255
93.776 173.547 110.866 200 217 255
147.55 118.237 115.229 219 228 255
93.9418 173.429 110.821 187 209 255
93.8331 173.441 110.826 207 221 255
140.271 34.3161 105.764 193 212 255
46.3971 150.368 113.019 210 223 255
69.9698 23.964 149.868 184 207 255
39.6041 113.384 112.118 235 238 255
121.765 141.067 102.364 227 233 255
84.6543 166.056 111.257 209 222 255
221.823 27.2182 117.805 184 207 255
159.355 109.584 150.389 187 209 255
104.895 90.1702 109.38 195 214 255
113.914 66.0828 123.143 185 208 255
204.82 20.1524 105.99 203 219 255
151.532 170.983 126.689 255 251 255
67.1162 118.366 108.233 211 223 255
111.862 111.354 109.401 255 174 103
93.813 173.444 110.827 208 222 255
93.486 174.105 110.816 229 234 255
125.715 105.414 115.03 212 224 255
158.022 34.3831 112.268 181 205 255
91.3457 129.04 107.715 255 236 220
158.217 31.2056 112.449 186 208 255
105.571 140.008 106.915 200 217 255
108.098 121.995 104.016 208 222 255
119.11 189.433 117.378 226 232 255
215.294 115.097 124.683 195 214 255
72.4632 190.279 100.493 212 224 255
110.825 37.1932 113.717 255 253 248
14.9065 100.285 108.853 185 207 255
94.6116 137.368 131.437 200 217 255
145.633 101.303 120.044 220 229 255
93.7927 173.446 110.83 255 250 243
99.0811 124.416 102.426 214 226 255
87.0739 202.182 132.495 255 234 217
93.855 173.437 110.826 193 212 255
111.004 191.114 97.916 191 212 255
153.963 91.6849 110.874 194 213 255
120.838 129.6 106.279 255 194 145
53.94 97.7762 108.327 244 242 255
100.74 181.631 116.597 197 215 255
7.5569 83.8893 105.91 191 211 255
116.435 125.121 99.8098 203 219 255
119.303 170.301 111.361 198 215 255
188.998 175.579 68.4384 199 216 255
72.9719 68.5382 117.341 201 218 255
66.8062 130.97 114.7 194 213 255
94.4735 173.356 110.893 220 229 255
13.6093 203.14 113.501 182 206 255
144.172 100.47 111.354 253 248 255
115.388 113.744 99.3938 255 226 202
119.689 114.22 111.12 255 197 150
181.349 178.524 124.175 203 218 255
65.3277 75.4198 114.159 194 213 255
83.8122 145.735 115.007 255 180 115
56.1941 55.4011 90.5588 184 207 255
119.771 135.643 106.289 235 238 255
62.0853 190.071 112.131 207 221 255
116.689 73.7848 118.017 255 254 251
117.837 156.443 103.074 216 227 255
104.711 132.675 109.625 197 215 255
93.9268 173.423 110.828 191 211 255
85.3248 136.7 115.11 201 217 255
132.838 191.481 122.279 200 217 255
46.8616 170.682 110.516 186 208 255
90.9107 167.141 115.669 255 212 178
29.5861 87.5619 111.718 199 216 255
120.013 128.915 114.037 255 235 218
154.531 174.443 104.712 200 217 255
146.714 75.8923 93.7775 255 251 245
102.834 101.234 130.127 255 254 250
94.0766 173.401 110.851 193 213 255
24.5842 195.635 108.569 187 209 255
42.6708 107.687 109.663 255 251 245
93.6625 173.427 110.819 219 228 255
90.7259 104.045 109.858 200 217 255
129.902 62.9261 114.536 238 239 255
87.3305 143.67 117.747 216 227 255
136.436 170.244 111.954 206 221 255
166.174 79.0947 91.0363 197 215 255
130.966 8.6021 106.377 199 216 255
113.354 17.1391 93.376 188 209 255
118.379 113.16 105.958 234 237 255
152.98 145.585 110.446 241 241 255
142.851 124.88 124.478 199 216 255
119.872 128.684 99.4506 255 217 188
126.741 170.586 108.772 183 206 255
73.0521 34.3124 115.546 207 221 255
118.599 132.021 113.232 255 156 62
142.498 85.4832 113.859 255 235 219
90.3117 158.732 113.487 255 253 248
96.3414 95.7959 115.708 215 226 255
122.194 83.6332 118.61 246 244 255
112.809 27.462 134.516 214 225 255
111.85 29.913 130.551 199 216 255
132.573 82.6752 100.419 208 222 255
132.421 93.0505 96.467 186 208 255
98.2576 51.8881 115.567 230 235 255
150.544 120.879 108.939 183 206 255
56.2864 21.9562 141.441 198 215 255
50.1838 189.348 111.421 191 212 255
94.0118 177.292 117.682 247 244 255
106.785 109.036 114.791 220 229 255
41.7626 89.2335 119.618 180 205 255
106.79 221.288 102.111 199 216 255
140.094 23.8511 111.969 184 207 255
127.425 149.14 100.012 197 215 255
56.7796 102.455 116.679 213 225 255
120.45 82.9828 112.753 213 225 255
112.101 91.0481 109.165 220 229 255
57.7024 130.704 90.4077 211 223 255
104.954 96.8774 124.196 198 216 255
106.931 102.125 113.36 255 175 106
127.407 118.594 104.117 255 255 251
139.799 102.195 113.985 255 192 141
121.588 125.931 111.874 255 255 252
126.302 186.136 119.165 187 209 255
117.442 102.273 107.268 255 145 36
93.8315 173.441 110.826 206 220 255
92.081 162.346 106.687 205 220 255
117.283 140.205 115.839 201 217 255
93.7703 173.485 110.761 246 244 255
90.8879 152.608 110.121 205 220 255
219.945 94.2441 113.599 189 210 255
123.584 97.7474 120.76 215 226 255
181.35 0.520706 107.374 183 206 255
63.5076 74.6038 111.295 240 240 255
143.861 81.2701 123.795 229 234 255
92.3298 178.755 111.588 255 181 119
104.63 130.053 103.239 241 241 255
39.0255 60.681 119.32 197 215 255
112.069 125.567 117.282 223 231 255
90.8902 174.783 109.673 215 226 255
149.377 106.731 105.609 239 240 255
45.4588 127.158 112.008 187 209 255
93.7589 173.454 110.84 201 217 255
93.8803 173.433 110.826 248 245 255
173.792 128.86 98.4798 183 206 255
69.0021 67.1794 114.508 181 205 255
109.537 176.563 124.824 204 219 255
123.847 194.829 109.672 190 211 255
56.5268 190.741 111.264 197 215 255
150.584 139.253 94.8385 208 222 255
148.365 95.4244 134.717 255 220 192
85.002 39.2874 93.2024 209 222 255
99.7279 5.63102 104.074 189 210 255
76.8753 66.6282 111.817 217 227 255
105.025 73.0676 133.576 255 252 247
106.693 84.9831 108.53 255 253 248
113.577 103.342 126.595 255 219 190
94.1661 142.555 112.603 255 242 230
89.4501 119.655 105.658 216 227 255
91.7488 124.132 126.945 255 115 0
119.096 129.587 108.346 213 225 255
104.24 108.221 118.552 255 229 208
127.66 95.7514 101.25 186 208 255
127.776 124.143 112.129 215 226 255
126.088 127.992 108.053 195 214 255
150.848 106.649 111.989 255 168 92
94.1688 173.49 110.728 212 224 255
30.0096 174.705 110.538 187 209 255
67.1444 141.539 106.427 195 214 255
126.978 128.957 109.102 255 228 207
118.453 83.218 133.385 255 231 211
41.3671 103.279 134.3 193 213 255
115.519 104.673 93.6769 255 247 239
88.8261 178.21 105.29 247 245 255
93.857 173.437 110.825 223 231 255
93.75 173.443 110.839 188 210 255
80.6668 128.741 115.265 232 236 255
93.8411 173.439 110.826 235 238 255
93.7982 173.446 110.828 193 213 255
106.065 91.3919 106.151 255 189 135
180.348 114.507 133.693 201 218 255
54.5851 84.0569 91.9713 209 223 255
97.3028 101.338 105.109 255 218 189
93.816 173.443 110.827 255 254 250
143.924 97.944 97.8001 255 249 255
93.8735 173.434 110.825 220 229 255
138.846 54.076 114.292 184 207 255
75.2827 27.6095 129.176 191 211 255
103.975 68.31 117.299 183 206 255
77.9957 163.079 109.283 201 217 255
104.64 78.6101 116.236 195 214 255
169.795 167.632 113.873 206 221 255
93.8657 173.435 110.825 193 213 255
193.575 37.6809 104.677 214 225 255
116.945 86.5073 110.15 192 212 255
93.8042 173.445 110.827 225 232 255
106.871 106.283 116.786 255 229 208
218.634 62.568 106.703 187 209 255
107.368 115.933 104.761 201 217 255
118.829 0.176399 110.407 205 220 255
169.36 86.3488 116.678 197 215 255
112.642 106.425 110.189 255 196 149
116.619 112.073 116.347 235 238 255
64.0813 108.852 112.285 193 212 255
188.485 115.569 160.327 210 223 255
62.5874 98.2676 109.73 193 212 255
119.021 85.674 128.019 205 220 255
183.692 159.812 110.445 197 215 255
93.8144 173.443 110.827 255 226 202
122.584 132.491 98.6643 255 248 239
94.0048 173.401 110.822 192 212 255
48.9809 34.9139 186.024 214 226 255
106.058 103.726 110.283 203 219 255
97.0133 2.13613 98.0031 191 211 255
3.79045 189.245 106.707 186 208 255
99.439 166.961 135.629 214 225 255
149.496 16.2932 108.296 180 205 255
109.171 113.106 121.63 255 222 195
108.662 59.1268 115.127 255 231 212
93.8336 173.441 110.826 225 232 255
108.485 101.026 102.674 255 251 255
120.056 106.44 101.15 227 233 255
108.308 119.603 103.11 236 238 255
122.779 118.413 101.174 240 241 255
116.348 194.275 104.674 189 210 255
189.87 91.4169 116.145 202 218 255
113.271 121.731 108.367 240 240 255
116.438 155.79 121.509 255 188 133
115.224 135.2 111.076 233 236 255
82.6486 137.355 109.574 202 218 255
119.835 149.829 119.374 218 228 255
118.494 190.14 112.448 189 210 255
55.9911 140.453 129.797 196 215 255
178.337 122.011 116.621 198 216 255
106.741 24.6562 96.2868 200 217 255
72.2056 122.529 110.643 255 209 172
167.395 105.236 119 195 214 255
119.69 116.832 111.422 253 248 255
152.032 82.6797 104.377 234 237 255
212.141 61.323 112.475 194 213 255
94.6674 143.825 110.78 186 208 255
127.617 59.2891 120.523 208 222 255
117.056 90.405 127.361 219 228 255
115.533 103.634 114.114 255 233 214
105.58 101.504 100.043 189 210 255
94.0115 173.414 110.833 201 218 255
93.8802 173.433 110.825 204 219 255
135.227 72.7254 102.869 255 222 197
95.7779 147.607 95.7021 215 226 255
84.7908 159.256 116.181 192 212 255
144.632 151.265 110.107 186 208 255
42.8929 205.384 114.373 204 219 255
147.081 99.7864 98.8127 215 226 255
93.8157 173.443 110.827 211 224 255
152.007 82.3847 110.17 195 214 255
127.611 135.683 103.085 239 240 255
88.1306 126.27 110.942 179 203 255
87.4441 192.235 115.281 241 241 255
101.605 103.508 125.555 255 246 237
113.444 120.286 99.707 225 232 255
77.0402 45.8897 108.273 209 222 255
134.462 158.442 107.899 239 240 255
177.929 122.159 126.628 213 225 255
64.1038 148.174 147.314 212 224 255
93.8211 173.442 110.827 212 224 255
93.7412 173.451 110.839 207 221 255
86.1676 172.32 110.746 217 227 255
93.8886 173.432 110.826 224 231 255
111.97 134.58 99.5835 255 252 247
186.829 93.1957 116.163 185 208 255
112.971 135.215 121.655 218 227 255
106.411 90.2772 115.468 225 232 255
110.403 105.393 113.423 246 244 255
107.307 87.8505 120.081 255 206 167
133.02 75.435 98.4663 255 233 215
101.494 132.712 118 255 251 255
92.0511 110.457 124.085 224 231 255
131.444 89.6136 106.981 194 213 255
56.1246 70.9451 117.036 231 235 255
95.1069 11.1625 98.4324 189 210 255
81.0436 52.9465 112.381 226 232 255
99.0535 126.81 105.866 239 240 255
60.495 59.9856 100.318 200 217 255
159.243 195.202 125.829 200 217 255
94.5442 131.413 93.9876 185 207 255
73.6181 136.044 107.621 192 212 255
93.7937 173.294 110.921 207 221 255
113.921 136.584 103.115 255 228 207
36.8482 206.751 112.413 185 208 255
122.48 146.62 111.722 255 203 161
93.7829 173.447 110.829 208 222 255
61.2974 94.8174 89.3341 255 249 255
65.2497 127.243 110.963 190 210 255
76.3597 117.925 107.782 212 224 255
115.95 176.656 114.756 186 208 255
76.1498 183.812 95.9968 207 221 255
93.7604 173.454 110.842 212 224 255
93.7986 173.446 110.828 208 222 255
119.653 108.088 94.14 255 214 181
113.039 86.2466 111.747 220 229 255
106.682 149.889 122.192 191 211 255
113.071 76.867 116.502 255 226 202
90.1462 192.713 203.271 218 228 255
202.176 80.1525 112.663 196 214 255
102.812 136.079 110.446 246 244 255
78.6525 130.298 112.923 224 231 255
79.8217 142.168 106.015 192 212 255
102.826 143.215 117.396 191 211 255
111.521 127.214 113.551 212 224 255
92.0573 174.617 109.884 220 229 255
144.982 92.5877 112.72 216 226 255
90.4181 193.062 112.517 209 222 255
111.532 160.169 98.9783 255 254 250
177.574 35.0677 110.646 206 220 255
138.594 107.457 118.764 255 249 242
118.213 94.7914 101.369 234 237 255
113.85 74.0254 121.428 255 238 223
63.6201 64.9644 106.483 187 209 255
108.182 158.034 125.157 200 217 255
93.822 173.442 110.827 202 218 255
192.923 101.503 147.742 255 215 183
65.757 115.164 113.202 255 213 180
113.411 168.499 115.704 255 181 119
117.708 96.1317 117.309 229 234 255
107.205 110.069 106.924 246 244 255
111.122 140.752 105.645 255 249 242
173.512 50.3746 109.383 200 217 255
110.475 118.439 111.63 255 216 184
114.134 128.338 92.7408 255 239 226
103.75 180.787 116.536 249 246 255
108.182 110.427 120.309 201 217 255
127.685 152.643 102.303 189 210 255
121.346 122.317 116.809 253 248 255
91.3403 97.0623 117.864 214 225 255
147.328 125.764 107.754 229 234 255
147.859 73.7379 117.174 202 218 255
82.3725 201.823 102.397 212 224 255
93.8103 173.444 110.827 227 233 255
131.314 127.317 112.52 250 246 255
103.606 104.63 110.281 255 202 160
118.101 208.736 111.179 183 206 255
85.279 152.019 112.174 236 238 255
100.173 107.552 123.299 208 222 255
116.412 128.144 110.696 255 254 251
113.189 104.006 115.003 254 248 255
117.4 87.9947 120.046 191 211 255
108.546 33.79 97.6637 203 218 255
131.613 88.7156 103.863 255 253 249
56.1684 83.5714 121.152 214 226 255
103.123 1.06154 106.605 180 205 255
108.025 111.012 111.59 211 224 255
70.6553 133.194 108.955 201 217 255
50.8367 93.5675 100.629 212 224 255
164.82 95.4409 111.616 255 243 231
202.55 44.884 110.518 185 208 255
37.3891 90.9223 109.343 190 211 255
125.875 136.085 103.477 206 221 255
99.3267 131.342 117.589 255 238 223
124.475 123.067 106.868 233 237 255
56.8602 82.5895 133.629 203 219 255
30.1258 192.242 116.283 185 208 255
124.271 137.51 101.201 225 232 255
129.028 80.3423 103.541 201 217 255
93.8526 173.438 110.825 199 216 255
119.106 79.045 107.973 255 250 255
111.216 111.075 128.587 255 245 235
167.665 156.452 116.033 193 212 255
116.548 111.784 116.369 244 242 255
93.8013 173.448 110.829 255 217 186
106.067 100.801 133.823 225 232 255
112.703 96.6634 113.488 255 125 0
63.1526 110.918 108.462 255 242 230
113.125 69.0583 122.044 194 213 255
126.508 120.158 108.321 213 225 255
94.9876 173.498 110.995 254 248 255
111.728 68.5414 119.946 208 222 255
110.262 111.173 117.783 204 219 255
45.3111 191.197 111.329 212 224 255
119.317 150.544 103.713 198 216 255
109.753 107.125 107.213 255 220 193
93.9118 173.427 110.821 242 241 255
114.71 121.777 119.54 255 212 179
93.2379 173.52 112.516 188 209 255
115.751 157.684 73.0798 255 249 255
89.334 201.233 116.96 196 215 255
176.391 176.797 131.595 187 209 255
137.132 121.467 108.299 255 218 188
10.1586 167.93 110.272 202 218 255
89.6622 178.062 112.022 255 249 242
125.354 86.3657 111.043 231 235 255
83.7016 38.9811 106.297 197 215 255
59.4779 114.46 114.687 200 217 255
93.8267 173.442 110.826 198 216 255
47.0894 62.0618 128.188 214 225 255
93.8538 173.435 110.813 218 228 255
4.46545 107.781 113.611 208 222 255
118.143 138.499 98.3566 255 223 197
54.3499 125.235 115.576 216 226 255
92.1451 146.426 81.3109 190 210 255
212.176 40.556 114.77 194 213 255
64.259 41.7413 112.128 207 221 255
115.921 123.551 112.204 219 228 255
95.9578 128.889 107.821 247 244 255
94.2353 173.371 111.399 242 241 255
187.832 17.9231 105.537 194 213 255
93.9567 173.406 110.826 229 234 255
131.721 136.068 114.366 255 224 199
144.944 91.882 109.857 192 212 255
63.5228 172.951 101.599 255 234 216
100.095 102.486 123.997 226 232 255
75.8915 54.9504 111.468 249 246 255
105.179 113.653 107.462 255 251 246
38.8628 44.5057 108.919 199 216 255
140.219 76.6724 126.823 224 231 255
103.318 115.608 213.795 236 238 255
47.5551 108.434 114.256 244 243 255
116.767 113.843 110.97 211 224 255
77.8416 149.509 107.766 255 247 238
98.5285 127.249 123.326 255 236 219
93.7701 173.434 110.847 206 220 255
61.4552 125.777 111.215 224 231 255
59.1529 69.9685 78.0731 208 222 255
75.3723 218.072 98.7768 182 206 255
58.0941 103.793 100.227 186 208 255
93.8122 173.444 110.827 207 221 255
45.315 111.871 102.352 199 216 255
93.834 173.44 110.826 219 229 255
134.005 109.184 118.987 200 217 255
108.887 125.154 112.171 198 216 255
42.2676 206.907 114.22 191 211 255
67.6773 78.9267 114.647 202 218 255
160.162 115.084 110.873 204 219 255
3.9338 81.5352 110.706 192 212 255
101.467 101.142 109.15 255 251 246
119.487 174.625 109.126 252 247 255
119.032 65.5372 119.983 203 219 255
114.162 107.433 114.702 255 228 206
1.26122 74.6023 112.699 216 227 255
94.4711 173.145 110.979 255 242 230
115.028 117.393 107.205 255 226 202
107.921 106.447 113.681 221 230 255
93.7016 173.488 110.875 255 163 79
89.8721 40.8319 107.134 207 221 255
104.303 108.296 123.413 255 215 182
111.987 86.7261 118.476 198 215 255
93.8228 173.442 110.826 255 239 225
193.544 17.1421 115.771 192 212 255
77.8357 128.715 114.734 220 229 255
76.3637 105.592 110.102 255 230 209
62.4094 9.81916 101.118 183 206 255
151.291 83.625 115.671 255 249 242
146.901 99.2213 101.536 204 219 255
104.072 114.906 113.864 243 242 255
167.819 156.785 125.86 228 234 255
118.418 152.399 112.082 255 239 225
144.296 180.485 134.952 198 216 255
66.4615 224.926 102.176 180 204 255
158.822 33.8461 114.085 191 212 255
89.7305 143.91 109.615 186 208 255
112.504 118.731 133.093 245 243 255
104.93 201.201 122.498 189 210 255
5.85979 169.153 111.333 190 211 255
143.136 171.181 117.603 219 228 255
102.162 122.414 121.41 250 246 255
127.907 174.15 113.615 182 206 255
24.0383 67.0505 115.901 193 213 255
110.092 114.735 104.174 209 222 255
67.5052 76.6155 112.313 216 227 255
107.5 113.825 122.147 255 41 0
111.439 124.518 105.709 255 239 225
115.847 167.257 112.446 192 212 255
93.8399 173.44 110.826 196 214 255
33.6348 51.4826 97.7281 219 228 255
114.746 120.984 104.699 182 206 255
95.5818 161.182 110.503 209 223 255
91.4402 75.5785 115.372 205 220 255
124.067 164.198 111.421 186 208 255
73.0535 137.435 135.166 217 227 255
73.3033 59.2499 101.281 190 211 255
93.83 173.441 110.826 255 199 153
93.8084 173.444 110.827 200 217 255
89.3226 172.906 121.728 233 236 255
118.003 128.54 104.25 255 252 247
119.547 73.3505 113.623 215 226 255
76.9547 85.9812 116.143 236 238 255
110.995 115.18 110.798 205 220 255
170.701 105.58 89.2723 207 221 255
71.7633 206.378 97.8002 211 223 255
97.0176 169.413 101.084 255 212 177
96.3963 137.155 107.001 255 248 240
122.193 217.568 121.034 196 214 255
104.71 211.115 117.34 208 222 255
93.8029 173.444 110.827 193 213 255
184.973 137.372 86.6509 209 222 255
93.8187 173.443 110.827 191 211 255
223.913 59.7218 106.806 187 209 255
122.36 48.3275 118.56 215 226 255
111.122 101.177 123.635 212 224 255
99.31 114.99 119.096 255 249 241
118.152 137.21 102.088 255 207 169
119.31 119.075 101.929 255 242 231
115.036 97.2137 118.821 232 236 255
67.5426 94.2462 106.7 194 213 255
30.1614 129.042 130.488 204 219 255
116.699 44.8983 113.965 198 216 255
120.903 115.974 117.164 255 241 228
64.8286 89.0533 105.111 214 225 255
44.7823 125.521 104.137 233 237 255
38.7035 80.3004 110.957 206 220 255
101.026 129.523 117.68 245 243 255
110.6 57.3563 119.478 211 223 255
93.8131 173.444 110.827 255 254 250
112.611 88.7197 115.446 211 224 255
59.586 42.4649 117.033 207 221 255
160.94 49.7843 117.136 227 233 255
114.379 143.062 111.161 200 217 255
78.6126 145.351 114.45 206 220 255
170.307 101.689 116.58 214 225 255
13.8427 200.479 106.23 216 226 255
45.9233 148.12 110.578 185 207 255
143.32 49.2634 113.095 189 210 255
99.7602 103.397 118.07 188 209 255
66.8678 83.61 110.972 199 216 255
126.705 109.304 108.001 255 224 200
42.4069 203.531 116.511 211 224 255
