ply
format ascii 1.0
element vertex 1342
property float x
property float y
property float z
property uchar red
property uchar green
property uchar blue
end_header
136.45 157.954 119.306 189 210 255
70.0681 11.7755 110.565 190 211 255
127.767 139.084 112.485 199 216 255
161.344 122.764 106.533 255 253 248
52.137 75.3917 112.979 199 216 255
50.8416 168.171 109.685 191 211 255
88.2918 128.534 101.268 255 248 241
145.663 7.17624 107.824 183 206 255
62.7821 95.015 115.73 205 220 255
124.164 101.614 104.316 255 253 248
186.16 109.713 116.717 191 211 255
104.802 118.013 101.009 255 106 0
124.378 41.6516 116.839 190 211 255
154.15 147.728 105.812 202 218 255
54.6773 93.8425 112.037 188 209 255
125.725 29.9441 114.765 186 208 255
203.785 55.9169 111.643 201 218 255
56.1348 76.3748 115.795 224 231 255
105.667 166.703 115.361 206 220 255
133.376 184.526 113.437 219 228 255
102.277 82.2205 109.824 219 228 255
116.284 132.336 102.788 255 250 255
113.92 114.943 135.544 199 216 255
161.598 92.2171 112.972 232 236 255
142.354 160.737 109.38 197 215 255
133.296 70.9669 107.881 199 216 255
89.1344 121.97 100.963 255 237 222
167.525 77.6891 113.472 202 218 255
142.85 123.232 124.122 255 190 137
155.91 111.081 107.207 235 237 255
95.7934 83.8443 106.376 228 234 255
159.507 160.327 108.121 255 247 238
90.2417 75.6389 107.032 197 215 255
57.7504 138.094 107.175 207 221 255
63.4879 168.76 111.398 203 219 255
75.4819 169.066 117.66 205 220 255
125.667 121.665 115.885 255 243 232
64.5604 61.9888 112.558 199 216 255
99.1454 193.521 113.462 182 206 255
170.358 106.225 111.092 205 220 255
151.129 74.349 112.314 199 216 255
106.753 79.2274 107.29 255 238 224
103.035 120.072 98.5564 255 231 212
150.675 21.7712 113.647 183 206 255
165.103 130.303 104.845 234 237 255
101.857 115.613 125.264 255 234 216
94.7447 120.045 106.792 217 227 255
67.1256 101.625 119.356 228 234 255
95.865 103.507 107.968 255 242 231
20.8157 123.497 112.165 197 215 255
65.4016 16.3817 109.981 203 219 255
139.67 70.6226 117.23 208 222 255
124.456 155.153 103.943 255 249 255
156.667 164.852 113.197 193 212 255
116.172 42.9838 115.798 209 222 255
107.239 93.751 97.3876 223 230 255
70.9943 154.838 106.266 216 226 255
127.329 121.25 115.085 255 190 137
119.893 123.124 103.988 199 217 255
75.4402 35.1938 113.569 193 213 255
122.762 168.214 118.468 208 222 255
160.092 48.7697 112.422 255 253 248
93.0526 174.952 111.604 207 221 255
157.503 54.3826 109.516 213 224 255
132.253 134.257 108.615 255 219 190
44.7834 99.618 110.189 212 224 255
90.9277 155.657 104.693 204 220 255
77.5886 73.7767 105.597 222 230 255
201.145 83.5839 114.578 200 217 255
64.8195 89.2173 115.759 255 255 252
49.5436 68.02 113.568 190 211 255
156.852 124.461 104.053 191 211 255
179.945 74.3538 112.149 188 209 255
92.4654 128.506 112.543 198 215 255
103.319 136.597 105.504 208 222 255
118.471 74.7564 109.968 255 249 242
147.931 138.271 105.283 255 247 239
150.489 174.793 111.254 210 223 255
109.326 165.875 117.019 204 219 255
115.122 110.639 123.215 255 243 233
91.7476 89.3032 122.553 230 234 255
106.747 152.77 111.446 201 218 255
110.207 126.394 127.016 255 200 155
96.9822 111.844 112.574 196 215 255
135.454 141.526 117.907 255 228 206
76.3639 13.0335 113.19 192 212 255
130.422 203.408 113.721 207 221 255
121.068 100.924 98.354 255 223 198
82.7427 8.53599 111.464 192 212 255
177.171 166.126 115.357 189 210 255
45.2379 57.0011 114.394 210 223 255
111.073 163.636 119.717 205 220 255
92.6588 174.822 111.598 203 219 255
107.547 88.6624 110.567 200 217 255
140.837 80.9954 108.805 249 246 255
159.736 77.0248 107.565 217 227 255
138.99 62.0151 111.087 230 235 255
155.148 101.993 115.852 213 225 255
73.2786 146.421 110.406 197 215 255
74.1799 99.8878 118.182 255 243 232
118.188 66.6177 113.375 212 224 255
118.204 109.335 122.791 255 247 239
95.8397 154.8 121.365 255 247 239
100.112 119.987 121.594 225 232 255
165.905 162.24 109.492 192 212 255
138.742 75.4501 111.933 206 221 255
136.963 88.8501 106.167 235 238 255
134.498 107.616 99.1513 198 216 255
177.001 201.662 113.19 186 208 255
116.72 97.7817 117.946 255 232 213
99.693 106.461 120.138 255 249 242
99.7359 82.5359 105.321 229 234 255
132.695 114.147 121.753 255 238 223
111.444 102.551 109.783 255 250 243
178.973 122.336 111.888 196 214 255
191.831 110.667 110.178 194 213 255
100.559 99.0646 123.486 255 226 202
131.362 124.746 98.0897 255 223 198
66.8199 120.854 113.921 189 210 255
66.3057 79.6371 116.78 187 209 255
137.03 97.9497 112.318 244 243 255
146.96 79.0022 116.126 255 231 212
91.3818 142.148 121.121 255 236 221
111.869 92.6988 96.5019 255 224 199
77.2574 135.224 104.506 255 219 191
126.298 157.899 113.458 186 208 255
90.0414 89.058 102.91 255 247 238
157.533 126.469 108.601 234 237 255
134.636 135.442 100.008 226 232 255
148.851 81.453 113.471 204 219 255
103.206 163.243 111.148 255 244 234
67.5726 78.747 118.484 211 224 255
177.494 141.306 111.091 181 205 255
98.2201 114.184 106.326 213 224 255
127.226 81.5247 104.942 255 190 136
79.226 28.1088 111.192 190 211 255
154.813 120.103 121.795 255 248 240
118.161 52.9944 113.667 203 219 255
78.7628 127.502 122.371 229 234 255
86.1924 146.658 115.171 227 233 255
121.52 142.745 108.136 255 229 209
62.8854 88.1641 104.821 196 214 255
50.3022 102.625 110.27 194 213 255
137.467 88.5916 101.293 235 237 255
147.484 153.632 116.936 205 220 255
104.729 114.138 126.598 231 235 255
165.368 197.056 112.823 202 218 255
142.151 193.577 113.789 187 209 255
117.288 141.795 109.114 230 235 255
141.504 128.564 104.292 255 250 255
141.984 208.725 111.491 182 206 255
60.6401 151.984 116.835 211 224 255
188.038 132.383 108.567 200 217 255
99.8123 157.202 116.644 234 237 255
128.79 60.4153 116.829 197 215 255
163.403 86.6943 117.358 208 222 255
57.076 68.2744 115.499 255 240 226
153.17 79.7192 112.407 219 229 255
172.099 98.1629 115.585 224 231 255
90.4651 101.838 112.205 242 242 255
96.8833 110.927 106.861 255 189 134
145.441 139.297 112.755 215 226 255
126.482 8.44577 111.918 205 220 255
75.4157 154.325 117.799 203 219 255
99.1578 65.9008 113.811 196 214 255
94.3894 113.557 124.875 255 245 236
73.7113 177.568 116.394 197 215 255
84.7769 46.6792 115.272 203 219 255
123.854 137.226 114.233 255 246 237
199.575 95.8214 110.368 196 214 255
14.1274 86.6743 112.23 187 209 255
112.351 104.677 122.713 255 226 202
17.1237 106.788 113.691 180 204 255
69.548 150.314 108.253 200 217 255
90.144 146.753 101.708 226 232 255
187.006 81.5992 110.683 191 211 255
201.678 113.528 114.352 191 212 255
86.9479 65.5885 112.442 201 218 255
158.246 111.908 115.131 206 220 255
117.554 125.901 106.647 255 204 163
85.7408 158.161 110.987 199 216 255
57.0399 154.232 112.429 232 236 255
89.9827 123.002 115.257 232 236 255
96.235 145.432 123.102 209 222 255
74.6561 165.695 112.91 193 213 255
119.769 87.2317 121.1 255 201 157
151.123 72.319 119.796 242 242 255
84.8793 120.335 105.926 255 244 234
30.3392 41.8311 112.332 178 203 255
61.7505 134.429 110.965 221 229 255
99.1101 80.4036 115.875 211 224 255
91.0381 86.5286 107.78 255 205 164
64.455 158.615 107.439 190 211 255
17.1476 93.9873 114.061 202 218 255
35.4485 186.228 110.825 185 207 255
106.972 18.19 110.946 191 211 255
112.647 192.439 111.29 222 230 255
44.3762 91.6812 112.924 217 227 255
41.463 150.634 112.416 199 216 255
67.2982 153.91 117.736 239 240 255
102.586 105.13 95.3441 255 237 223
140.057 21.7412 110.223 187 209 255
112.23 93.7244 114.866 255 213 181
109.155 192.082 112.198 202 218 255
184.293 186.264 111.661 191 211 255
94.9975 119.687 128.263 205 220 255
112.791 110.289 91.8063 208 222 255
79.8283 150.878 116.68 228 234 255
137.301 160.853 112.236 255 242 230
52.5864 86.7876 115.889 198 216 255
81.2136 130.277 123.468 198 215 255
91.5765 182.561 110.799 203 219 255
42.262 162.312 114.706 196 214 255
215.138 93.9967 111.927 201 217 255
91.681 176.651 110.174 196 214 255
105.619 79.5383 105.917 255 231 211
77.1486 81.0976 110.362 191 212 255
147.798 166.044 117.138 202 218 255
69.6073 152.911 118.894 224 231 255
63.2637 54.4682 108.237 184 207 255
146.328 35.7418 114.46 200 217 255
97.9802 213.983 112.356 184 207 255
140.241 181.438 112.088 188 210 255
106.005 103.083 110.711 255 254 250
127.551 115 95.8164 255 200 155
85.0671 87.9864 113.894 210 223 255
66.2846 103.349 104.781 222 230 255
121.563 104.931 116.238 255 180 117
106.839 144.809 125.003 229 234 255
47.29 89.7607 113.756 255 237 222
145.269 76.6584 119.206 255 252 246
61.7573 37.9434 111.594 191 211 255
85.4538 77.4967 111.301 198 215 255
74.6241 104.283 119.325 226 233 255
50.6536 121.233 113.767 211 224 255
76.2604 101.141 110.914 224 231 255
123.701 56.8227 118.395 197 215 255
109.095 76.4066 104.183 203 219 255
89.6399 109.309 104.861 255 246 236
191.683 73.1189 112.707 185 208 255
136.781 100.192 101.9 255 249 242
113.327 92.9875 113.383 212 224 255
89.0056 141.705 104.051 222 230 255
170.179 96.5223 105.648 210 223 255
94.9305 125.816 118.407 219 228 255
205.5 109.541 110.767 190 211 255
170.339 145.721 111.05 218 227 255
17.6079 67.7288 110.639 178 203 255
143.323 156.237 106.983 211 224 255
62.2872 163.566 108.231 187 209 255
80.0389 40.3576 114.324 193 213 255
135.663 124.32 104.613 255 231 211
114.823 126.669 120.716 255 236 220
151.686 90.7283 109.902 255 242 230
66.1144 127.559 105.43 217 227 255
100.198 117.116 128.149 255 230 209
28.8449 157.178 112.641 182 206 255
30.5055 102.971 113.349 191 211 255
99.8098 91.1899 107.951 210 223 255
128.94 116.753 119.691 255 211 175
78.5742 48.5309 108.793 222 230 255
70.2042 142.699 111.109 207 221 255
163.023 114.139 118.057 235 237 255
110.95 108.39 124.068 255 253 248
90.6533 102.85 123.568 255 215 184
53.6208 105.874 119.203 205 220 255
65.4808 73.4267 110.001 198 215 255
85.269 100.041 120.357 221 229 255
115.135 76.7893 103.732 203 219 255
67.0337 66.6608 116.414 208 221 255
49.1022 61.7971 113.287 183 206 255
77.7624 123.096 110.587 242 241 255
175.276 127.335 111.766 191 211 255
108.446 120.763 131.939 255 251 255
91.4742 159.336 118.893 201 217 255
98.1289 150.503 118.657 206 220 255
126.942 123.736 103.127 255 221 194
112.528 170.405 114.688 218 228 255
154.609 134.509 104.835 199 216 255
143.15 133.445 118.24 194 213 255
124.766 45.2088 110.025 220 229 255
97.3685 135.71 126.064 197 215 255
19.4802 56.254 111.268 176 202 255
123.53 186.737 116.356 255 250 244
131.204 133.862 117.277 255 189 133
191.235 176.634 110.179 189 210 255
104.153 134.295 108.718 255 182 120
116.306 92.0359 101.778 209 222 255
88.9178 138.369 116.06 226 233 255
167.09 50.6562 112.628 191 211 255
104.469 77.8627 118.79 210 223 255
59.1022 144.825 107.362 255 229 209
73.3012 72.9654 113.05 225 232 255
101.009 129.495 107.816 255 227 204
99.5022 107.811 118.876 255 143 31
129.317 119.343 117.602 242 242 255
113.767 86.8531 100.197 255 251 255
90.5168 111.691 98.0114 219 228 255
126.455 190.483 110.11 184 207 255
215.822 144.045 112.276 186 208 255
94.7361 172.809 111.75 197 215 255
193.081 135.401 114.07 201 217 255
133.018 147.621 113.641 255 247 239
68.3502 47.4385 113.074 191 212 255
197.191 59.7349 113.542 192 212 255
99.6822 115.341 98.8086 255 152 54
178.288 172.945 114.46 216 226 255
168.073 88.4188 115.515 207 221 255
145.682 52.1784 112.433 195 214 255
191.067 187.152 112.957 194 213 255
22.2124 120.473 113.015 199 216 255
181.721 101.304 112.764 234 237 255
129.138 136.558 101.579 210 223 255
93.323 120.879 126.97 219 229 255
73.3693 117.406 110.237 226 233 255
198.536 170.114 114.634 183 206 255
43.0654 37.7518 113.455 179 203 255
172.162 124.367 112.914 213 225 255
89.6863 161 118.218 203 218 255
128.475 81.0883 103.424 211 223 255
72.0533 71.4122 118.224 221 229 255
124.739 52.3877 114.892 193 212 255
139.561 70.8712 104.429 254 248 255
52.1906 98.7301 116.22 249 245 255
130.805 121.527 126.34 255 179 114
118.261 14.8249 111.155 187 209 255
162.151 52.6726 110.108 208 222 255
166.49 68.5608 108.023 208 221 255
131.066 110.057 118.111 255 244 234
129.091 133.542 99.3348 255 210 174
107.015 116.425 92.7914 203 218 255
134.975 106.931 126.391 255 227 205
135.902 72.0839 120.441 255 239 225
46.0185 87.2734 109.853 189 210 255
127.936 70.4955 102.692 207 221 255
145.332 53.476 110.344 255 227 205
65.3591 80.2882 117.752 206 221 255
178.631 78.1892 115.283 242 241 255
136.59 104.807 108.434 212 224 255
80.8185 75.6682 105.979 229 234 255
120.127 22.6405 113.596 182 206 255
168.98 166.517 109.809 190 210 255
81.1418 46.3883 115.552 203 219 255
62.9851 138.986 118.493 255 222 196
164.43 42.5587 115.078 187 209 255
186.463 61.6055 113.167 194 213 255
164.881 75.3438 118.521 202 218 255
103.694 164.683 109.564 197 215 255
115.797 130.502 99.1451 217 227 255
131.956 166.862 118.652 255 252 246
103.629 52.7623 108.222 184 207 255
46.6436 77.6956 108.406 212 224 255
98.1802 127.269 113.975 255 81 0
89.5721 181.392 113.441 188 209 255
216.345 120.472 113.819 195 214 255
107.783 137.15 124.237 255 199 154
109.128 157.594 121.849 255 242 231
75.4775 60.5408 117.058 198 216 255
162.476 73.4822 118.462 192 212 255
68.9211 201.455 112.556 198 216 255
81.1094 12.6362 114.242 218 228 255
94.4386 149.62 108.932 255 233 215
116.571 12.2413 112.073 196 214 255
116.584 101.373 118.617 255 155 61
150.268 50.3351 110.85 199 216 255
190.152 37.7713 113.333 198 215 255
155.5 154.914 115.288 255 252 247
132.346 73.8466 121.562 205 220 255
106.783 76.4167 115.505 255 234 217
91.3296 107.302 121.392 255 253 248
119.656 116.358 105.824 228 234 255
151.968 112.859 103.324 238 240 255
204.047 147.292 113.61 255 249 243
152.877 96.7198 120.449 226 233 255
99.61 123.936 117.14 255 221 195
89.2306 37.9894 112.267 200 217 255
67.164 141.73 117.247 204 219 255
89.6498 33.3814 114.942 192 212 255
90.442 98.3048 114.279 222 230 255
84.3633 173.021 110.518 205 220 255
128.621 132.407 100.612 199 216 255
113.908 78.417 119.294 255 214 181
136.606 107.633 105.853 255 244 233
120.352 49.0327 117.22 207 221 255
8.82573 87.6413 111.379 184 207 255
154.636 189.701 111.765 214 225 255
79.2795 127.274 112.936 206 221 255
109.433 34.2048 114.214 194 213 255
108.905 43.5112 113.753 194 213 255
93.6857 175.201 111.888 202 218 255
70.0409 198.941 110.125 187 209 255
18.5893 149.149 109.967 198 216 255
41.9807 110.156 115.283 201 217 255
70.3195 129.951 113.102 192 212 255
92.5002 130.975 117.431 236 238 255
36.1874 95.9845 108.975 191 211 255
140.52 117.568 107.411 197 215 255
88.0141 134.567 112.803 255 252 247
98.6536 47.0801 117.053 207 221 255
35.9882 85.1914 109.177 239 240 255
123.383 99.4795 112.838 255 224 198
97.9312 192.209 112.015 200 217 255
135.668 136.898 112.241 221 230 255
81.7996 114.128 104.04 222 230 255
92.0443 122.468 110.642 255 205 165
22.2749 144.296 111.565 193 212 255
84.7702 77.6665 102.214 210 223 255
126.217 149.961 115.84 239 240 255
78.6163 104.451 111.643 255 222 196
177.977 128.174 109.55 206 220 255
109.168 136.968 98.2093 255 242 230
123.303 102.64 115.997 255 226 203
26.0378 157.219 113.86 196 214 255
82.8977 216.319 112.137 193 212 255
122.385 32.7255 110.601 197 215 255
200.029 106.074 114.71 203 219 255
76.0526 133.274 115.738 214 225 255
100.7 55.152 116.052 227 233 255
57.1153 131.631 111.563 255 255 251
24.0553 157.898 112.626 196 215 255
133.693 153.492 120.551 200 217 255
106.642 98.3221 116.786 238 239 255
168.973 146.647 116.363 255 249 242
69.9755 14.6015 111.213 191 211 255
92.6155 173.426 111.147 200 217 255
41.288 68.5972 114.023 183 206 255
150.53 85.4039 113.934 229 234 255
89.4426 109.675 113.763 255 235 218
61.289 194.875 112.066 185 208 255
149.727 91.2204 102.975 219 229 255
93.0254 174.869 111.013 188 210 255
79.0096 80.5647 106.341 217 227 255
141.716 182.142 112.832 210 223 255
130.877 137.453 112.731 199 216 255
212.277 74.84 113.473 192 212 255
137.743 57.0379 116.757 203 218 255
95.2871 75.1032 115.082 215 226 255
34.1808 52.9373 111.92 185 207 255
124.414 114.803 96.2692 255 192 140
124.857 114.42 105.879 255 225 201
103.129 108.766 120.91 213 224 255
92.0544 127.979 114.883 255 203 161
201.29 123.931 112.201 189 210 255
173.446 196.252 112.122 185 207 255
81.3844 49.5027 116.494 255 206 166
141.079 103.472 111.312 255 237 222
59.1531 145.111 110.846 255 243 232
176.786 93.4672 108.269 216 226 255
142.762 166.209 113.108 196 214 255
163.097 167.877 111.29 214 225 255
113.797 154.164 103.079 240 240 255
115.678 77.4736 124.159 255 231 211
126.862 63.9359 115.864 255 202 160
96.567 105.626 126.859 235 238 255
108.937 162.242 106.896 189 210 255
134.89 54.6335 114.013 206 220 255
106.56 217.773 112.594 195 214 255
90.5046 56.7637 111.587 201 217 255
186.224 144.811 111.583 196 214 255
143.947 95.0353 115.845 255 235 218
84.82 134.449 107.091 224 231 255
89.2501 75.6832 115.791 227 233 255
144.769 210.313 111.839 175 201 255
132.555 97.295 120.624 254 248 255
103.699 85.371 103.451 194 213 255
113.023 125.099 92.7643 202 218 255
127.105 108.056 121.996 253 248 255
88.9178 110.236 112.057 255 215 184
100.029 70.6554 110.968 210 223 255
70.8191 120.769 101.892 255 231 211
100.719 98.1679 117.931 255 221 193
98.2411 132.743 110.22 254 248 255
129.875 143.776 113.01 255 220 193
115.512 47.3511 115.85 221 230 255
87.0639 148.379 108.093 237 239 255
109.013 124.575 104.16 255 248 241
103.626 68.5091 111.031 211 224 255
102.288 214.825 111.164 182 205 255
118.012 109.827 132.659 227 233 255
119.013 97.6412 102.858 221 230 255
107.618 84.9665 109.041 255 255 251
82.5413 60.2575 111.255 204 219 255
191.942 93.5349 110.039 208 222 255
80.2045 16.3411 111.85 177 202 255
141.253 127.254 102.934 255 232 213
114.82 36.0071 111.765 221 229 255
129.829 140.432 103.782 221 229 255
157.766 34.282 113.969 194 213 255
118.38 108.589 120.12 255 222 196
108.701 67.1079 117.99 220 229 255
70.5755 75.8124 109.765 213 225 255
151.503 59.2161 117.066 216 226 255
119.663 142.895 113.644 188 210 255
192.825 146.226 112.544 187 208 255
28.2324 126.471 116.154 205 220 255
116.802 167.714 106.801 199 216 255
106.501 24.9261 111.1 180 204 255
102.163 99.8864 98.2714 255 223 198
167.215 203.95 110.096 185 207 255
114.1 101.978 98.1535 211 224 255
117.62 138.654 116.282 255 235 219
98.8102 101.893 105.463 255 200 156
145.036 114.627 124.303 243 242 255
45.6177 32.0566 113.793 213 225 255
154.309 130.035 112.873 223 231 255
68.1006 146.451 114.463 211 224 255
114.683 34.5887 115.002 197 215 255
113.358 98.6457 118.15 217 227 255
94.5312 117.28 117.807 255 224 200
121.513 56.3197 106.175 255 243 231
139.78 150.661 122.285 212 224 255
66.5244 83.2415 108.947 210 223 255
163.299 57.8746 113.743 202 218 255
52.5745 108.065 112.044 216 226 255
57.4437 18.8775 112.145 195 214 255
60.2384 129.184 109.944 197 215 255
147.489 121.13 100.596 226 232 255
129.994 180.605 115.789 207 221 255
153.83 66.9632 107.649 255 249 241
120.386 173.517 110.401 195 214 255
134.407 78.653 119.375 196 215 255
195.935 91.23 112.189 181 205 255
126.777 107.016 115.957 255 187 131
147.543 170.029 112.769 192 212 255
104.34 201.38 111.771 187 209 255
121.34 157.173 107.808 229 234 255
87.2375 87.6466 118.98 218 228 255
132.28 87.6587 113.707 255 235 219
84.2788 173.282 108.502 191 211 255
51.7909 73.059 110.998 255 254 251
123.744 101.774 121.056 255 225 201
74.3008 43.0802 112.881 203 219 255
139.203 100.303 115.53 222 230 255
155.413 119.433 106.328 255 251 255
55.491 185.73 110.65 197 215 255
128.843 21.5443 114.216 209 223 255
167.712 64.4533 109.711 201 218 255
83.5874 103.018 126.927 215 226 255
83.4866 95.2581 121.188 255 238 224
127.359 143.01 105.836 202 218 255
78.7049 22.6208 113.983 207 221 255
177.067 120.728 111.439 200 217 255
132.985 101.819 97.8697 231 235 255
119.655 125.528 116.866 214 225 255
125.572 162.687 119.161 216 227 255
175.898 152.676 110.231 203 219 255
180.409 112.217 115.747 193 212 255
121.728 102.225 101.528 255 158 69
89.0407 107.587 108.295 231 235 255
105.335 217.153 113.755 182 206 255
103.346 141.718 114.756 218 228 255
165.712 93.1226 117.977 242 241 255
108.874 176.638 113.797 199 216 255
42.4281 127.755 110.997 255 247 238
123.534 94.649 106.15 255 228 207
187.073 150.923 113.483 180 204 255
39.8574 108.973 116.262 197 215 255
83.8955 57.4946 108.028 201 218 255
69.4404 120.74 118.069 194 213 255
78.6684 77.1592 112.971 255 250 255
129.976 177.472 117.684 196 215 255
81.9425 168.922 112.444 202 218 255
138.123 142.167 107.464 255 225 202
143.469 115.291 102.036 255 216 186
191.5 81.1805 110.597 190 211 255
136.883 38.6423 110.464 198 216 255
164.467 69.7626 115.007 207 221 255
46.8748 115.177 115.264 192 212 255
127.667 106.41 113.211 255 251 245
98.2449 77.4319 107.617 238 239 255
175.157 83.2661 108.137 224 231 255
67.2508 75.9444 108.499 208 222 255
177.79 75.0858 109.467 219 228 255
77.2189 169.281 109.113 222 230 255
41.9182 42.1626 113.319 205 220 255
167.063 207.56 114.585 188 209 255
122.758 140.161 125.607 210 223 255
127.185 70.5558 105.447 210 223 255
101.526 99.3062 120.531 255 241 229
98.0861 62.0066 105.383 222 230 255
118.617 150.771 103.02 229 234 255
128.587 20.4641 113.159 182 205 255
119.426 37.9738 117.037 226 232 255
147.48 72.5587 106.042 221 230 255
93.0925 108.142 125.525 203 218 255
62.6914 146.704 113.938 255 244 233
118.416 73.1946 112.55 202 218 255
175.13 137.667 114.252 195 214 255
133.614 103.002 117.679 206 220 255
107.619 74.1645 121.414 255 252 246
14.8801 118.251 111.182 186 208 255
86.485 153.447 121.345 255 196 149
65.3649 186.43 112.941 200 217 255
53.6141 55.8685 113.302 192 212 255
103.827 123.742 109.374 255 231 211
212.69 110.715 111.863 201 217 255
134.965 198.755 112.487 188 209 255
125.457 126.011 116.44 207 221 255
123.88 127.907 117.909 255 246 237
93.78 174.074 112.433 208 222 255
130.296 114.012 102.532 255 250 243
102.777 129.954 126.72 255 233 215
137.873 142.724 107.446 255 252 246
94.7141 28.5821 110.29 195 214 255
144.737 66.7756 116.341 219 228 255
102.409 147.283 106.186 216 226 255
8.08115 104.648 111.929 184 207 255
169.492 193.982 111.984 209 222 255
88.603 116.89 126.519 255 252 246
83.1147 14.1615 110.258 189 210 255
210.1 104.008 113.385 202 218 255
98.9316 158.655 117.322 245 243 255
147.916 130.927 109.351 255 253 248
151.98 35.5358 114.862 201 217 255
110.799 191.288 113.107 207 221 255
183.772 81.6787 108.001 189 210 255
99.9854 150.335 104.313 230 235 255
209.008 75.5088 109.503 192 212 255
150.991 176.367 111.806 193 212 255
55.3991 141.693 108.426 206 221 255
70.6603 113.92 123.29 246 244 255
142.665 108.65 122.605 255 223 198
116.393 193.237 115.693 199 216 255
147.576 100.007 120.892 255 255 252
116.511 166.093 110.983 190 210 255
67.0827 131.639 104.512 244 243 255
101.989 63.7676 115.58 195 214 255
130.095 117.053 104.174 255 227 204
217.747 123.184 111.923 195 214 255
161.079 39.9025 109.876 197 215 255
195.46 66.0585 110.272 185 208 255
129.363 171.814 109.759 191 211 255
105.097 95.3053 106.845 237 239 255
174.01 27.0414 110.781 221 229 255
37.9248 90.201 111.346 198 216 255
59.5815 94.0853 109.791 205 220 255
63.5143 70.2525 116.597 202 218 255
115.359 215.275 110.257 198 216 255
51.8291 79.6317 116.779 220 229 255
123.95 105.372 97.9873 255 250 243
195.827 173.437 111.447 185 207 255
113.917 25.0827 110.893 217 227 255
96.198 93.7388 100.527 255 248 241
216.57 137.629 110.407 206 221 255
140.471 169.313 107.737 218 228 255
117.469 175.578 113.839 255 239 225
81.7408 68.2959 119.041 203 218 255
84.3237 169.89 112.329 203 219 255
119.62 115.132 129.356 217 227 255
152.877 119.166 104.471 236 238 255
126.345 103.975 98.2178 225 232 255
84.1733 101.89 126.064 217 227 255
45.0148 72.1336 109.874 192 212 255
163.817 134.299 118.283 227 233 255
173.491 173.326 114.231 255 255 251
109.338 94.5344 109.674 255 198 153
119.37 214.688 110.894 205 220 255
49.2911 112.146 111.574 184 207 255
141.201 158.806 103.7 193 213 255
121.96 107.287 133.389 220 229 255
82.507 123.275 99.7183 230 235 255
49.1467 96.5896 113.043 199 216 255
140.694 129.018 121.809 210 223 255
124.584 205.968 106.017 194 213 255
195.999 76.4366 114.563 202 218 255
84.3943 149.783 120.968 215 226 255
83.6638 110.118 106.809 255 226 202
140.852 124.875 100.278 208 222 255
126.801 126.515 104.206 255 248 240
60.8975 70.1132 108.694 206 220 255
89.6846 118.019 107.358 242 241 255
117.385 133.876 119.819 255 253 248
75.8287 89.6558 114.668 207 221 255
158.032 138.698 110.856 192 212 255
91.7374 66.5506 107.971 255 252 247
68.7164 122.282 119.028 211 223 255
81.8055 58.6287 106.978 195 214 255
129.657 125.006 98.962 198 216 255
145.363 177.9 112.763 199 216 255
129.268 159.162 106.179 201 217 255
98.1624 117.491 95.125 223 231 255
99.6958 52.4526 109.576 208 222 255
160.031 114.786 120.52 211 224 255
135.953 16.4257 110.191 178 203 255
97.7218 139.466 99.1527 255 251 246
165.161 125.223 117.909 206 221 255
119.249 164.287 111.1 235 237 255
74.63 106.876 100.745 206 221 255
216.738 106.642 110.304 194 213 255
125.25 7.85848 112.025 185 207 255
67.7001 87.6819 119.96 255 251 255
159.291 84.554 109.077 199 216 255
125.747 81.1262 125.207 211 223 255
112.043 135.936 107.57 255 224 199
123.658 174.442 115.041 195 214 255
110.253 103.922 102.966 223 231 255
51.079 110.528 106.901 197 215 255
43.4423 121.669 109.392 193 213 255
182.293 118.747 111.38 185 207 255
144.135 66.2812 108.279 205 220 255
103.912 123.408 108.234 240 241 255
12.8047 151.202 111.414 195 213 255
160.564 100.744 104.785 217 227 255
151.194 164.214 107.308 255 200 155
105.78 57.4135 109.211 248 245 255
156.529 112.462 119.688 203 218 255
97.2388 91.1176 116.605 255 205 165
123.472 30.5391 109.76 218 228 255
117.579 30.2584 110.53 209 222 255
43.9983 101.89 107.424 192 212 255
163.433 202.933 113.011 194 213 255
126.002 11.1114 110.117 187 209 255
42.3656 163.196 110.482 190 211 255
72.3103 121.965 103.744 231 235 255
107.643 177.013 110.698 234 237 255
38.8715 185.981 111.455 192 212 255
84.9223 121.241 108.82 255 235 218
71.5611 107.061 113.749 235 237 255
128.577 100.8 99.039 255 240 227
126.755 25.6091 110.417 188 209 255
138.811 87.5389 111.558 223 230 255
110.233 121.653 120.63 255 231 211
178.955 137.136 109.431 197 215 255
198.861 84.0091 114.358 230 235 255
133.696 110.606 113.736 255 218 189
29.9533 90.9188 110.107 192 212 255
87.3716 98.1244 107.271 207 221 255
113.396 15.9233 112.156 194 213 255
103.292 157.481 105.317 244 243 255
42.382 109.541 116.581 194 213 255
90.2423 212.796 112.933 179 204 255
124.424 168.751 111.47 219 228 255
205.124 171.33 113.547 204 219 255
106.603 154.215 116.459 255 237 222
71.4925 29.3511 113.252 188 209 255
137.459 129.4 98.5961 255 249 255
111.044 80.9763 113.68 255 239 225
78.4736 63.2575 111.437 195 214 255
124.084 151.48 113.209 187 209 255
79.1394 208.696 113.971 196 214 255
46.2157 123.799 107.468 210 223 255
64.1959 119.576 109.888 196 215 255
116.087 117.364 123.494 227 233 255
57.9386 130.425 112.125 255 235 219
120.525 129.294 112.39 255 236 220
162.082 164.167 111.748 202 218 255
107.851 131.39 116.992 214 225 255
161.055 72.2283 114.052 205 220 255
57.8481 130.486 114.679 245 243 255
151.84 99.3517 110.979 207 221 255
76.18 141.184 117.432 220 229 255
115.76 130.421 120.217 205 220 255
146.068 88.3901 119.114 215 226 255
100.345 167.695 106.941 209 222 255
102.364 119.55 95.1166 229 234 255
164.593 146.209 106.793 206 220 255
85.5946 148.071 113.42 246 244 255
44.8964 100.438 109.028 203 219 255
176.399 142.448 112.005 192 212 255
152.99 70.4802 105.936 213 224 255
205.977 85.5073 111.02 206 221 255
95.8925 19.6214 113.825 188 210 255
170.473 49.814 112.035 187 209 255
122.746 50.9887 116.78 211 223 255
67.071 25.5741 109.917 184 207 255
167.128 120.124 104.267 244 243 255
99.2764 191.037 114.39 188 209 255
176.291 134.65 108.035 198 215 255
178.655 43.0768 112.461 190 211 255
107.539 161.488 119.743 194 213 255
115.653 48.1207 118.009 255 237 222
115.266 135.692 118.291 255 220 192
131.925 133.002 111.816 231 236 255
85.4056 120.049 108.118 254 248 255
54.0489 119.067 116.271 199 216 255
203.699 132.141 114.038 182 206 255
95.5439 83.9572 119.422 255 235 219
212.003 85.3656 113.764 192 212 255
152.294 54.7918 115.316 197 215 255
127.416 108.479 108.462 255 240 227
80.8576 137.331 120.644 255 234 216
93.0152 134.585 122.08 216 226 255
126.758 82.0479 121.579 236 238 255
148.031 112.834 102.925 196 215 255
61.9587 161.609 107.839 214 225 255
170.197 100.285 116.312 214 225 255
108.906 116.063 126.322 255 242 231
68.6537 118.727 118.16 255 243 233
115.615 3.06784 110.015 179 204 255
87.454 121.266 109.529 255 237 221
100.305 35.8936 115.135 217 227 255
112.817 145.198 123.027 255 238 223
193.931 166.392 115.574 184 207 255
66.1169 117.648 119.981 217 227 255
128.964 117.243 113.659 255 244 234
31.9356 138.228 112.674 190 210 255
65.7439 157.053 115.212 255 249 255
140.077 74.9811 106.324 201 217 255
111.172 122.734 95.571 217 227 255
124.107 114.984 103.864 210 223 255
100.9 190.713 115.027 212 224 255
15.6585 128.867 112.223 192 212 255
6.47655 111.619 110.702 185 207 255
104.734 124.702 117.732 255 233 215
93.6641 46.8898 109.559 193 212 255
99.4124 104.615 102.275 255 218 189
159.502 57.8839 117.075 208 222 255
190.26 108.564 114.852 194 213 255
172.285 87.2226 108.901 224 231 255
24.3345 136.517 113.419 196 214 255
113.373 73.7523 103.674 200 217 255
108.606 137.618 105.666 215 226 255
116.47 181.79 116.421 226 233 255
131.45 148.201 121.86 206 220 255
177.431 69.6569 111.49 194 213 255
62.9771 80.663 109.398 255 226 203
110.924 138.686 111.443 255 196 148
63.2554 68.3622 116.48 217 227 255
149.894 144.544 117.069 213 225 255
50.8559 84.6762 116.124 234 237 255
92.1138 157.537 104.341 220 229 255
87.7237 147.767 123.338 223 231 255
135.407 159.226 113.935 246 244 255
118.762 121.882 98.051 255 231 212
93.5218 91.8904 115.841 255 251 245
127.733 92.8103 105.943 214 225 255
151.971 98.2039 103.277 232 236 255
78.719 80.1672 105.32 188 209 255
100.843 76.9709 111.778 233 236 255
126.737 18.3615 110.659 208 222 255
118.832 99.5363 97.988 248 245 255
12.0979 142.651 112.636 182 206 255
91.0807 126.127 105.88 255 210 174
97.1832 29.6178 115.423 193 212 255
142.877 52.7318 109.615 208 222 255
18.2608 80.4213 111.565 195 214 255
192.023 118.671 112.588 186 208 255
184.963 100.85 109.117 190 210 255
145.305 97.6184 117.409 243 242 255
61.4904 86.6734 110.839 246 244 255
171.322 100.241 108.627 197 215 255
136.937 136.539 109.003 209 222 255
51.8295 87.9954 110.004 190 211 255
99.3188 85.0548 125.352 215 226 255
122.535 68.9567 111.903 207 221 255
156.71 22.976 113.669 187 209 255
118.956 130.773 114.907 220 229 255
155.91 102.453 115.873 255 137 16
111.065 170.758 105.714 205 220 255
126.992 59.6817 114.067 197 215 255
207.258 166.959 112.377 196 214 255
151.157 46.1112 111.229 228 234 255
75.1719 118.311 108.904 212 224 255
114.938 124.052 132.678 255 249 242
136.573 106.115 105.129 198 216 255
90.9985 64.6023 109.025 206 221 255
104.815 113.77 120.661 255 235 219
135.681 84.5289 106.596 255 242 230
90.7047 27.2334 110.129 196 214 255
96.8352 145.438 113.184 255 250 244
135.77 182.508 112.391 201 217 255
161.129 15.6902 112.583 192 212 255
66.2176 141.257 118.466 243 242 255
212.957 118.236 111.945 195 214 255
21.1466 149.334 112.725 236 238 255
144.31 103.699 113.062 255 239 225
48.2577 118.622 116.111 202 218 255
124.946 91.5214 108.54 229 234 255
116.479 112.318 98.7059 243 242 255
204.362 145.522 111.545 186 208 255
131.076 85.4325 113.71 255 181 117
20.1992 74.0332 115.107 201 218 255
135.404 110.108 116.261 255 170 95
83.1534 144.086 105.377 244 243 255
101.34 163.305 112.226 212 224 255
162.775 197.34 111.655 183 206 255
152.953 120.11 117.686 199 216 255
151.505 101.566 117.709 255 245 235
145.365 55.9576 117.818 197 215 255
127.71 177.859 113.076 215 226 255
172.866 80.2501 110.509 255 239 224
97.2013 72.6848 117.914 204 219 255
107.285 116.041 102.607 255 246 236
155.243 149.519 109.029 188 209 255
144.845 94.2784 116.2 216 226 255
158.734 127.373 110.576 224 231 255
185.254 138.843 115.781 209 223 255
140.026 54.7799 112.259 211 223 255
205.066 121.314 114.946 181 205 255
103.615 105.393 94.4056 255 173 103
171.777 52.3373 114.154 183 206 255
100.487 56.7426 119.66 220 229 255
95.5782 88.483 105.004 255 243 232
211.461 82.2348 110.185 192 212 255
54.1275 95.8221 108.892 188 209 255
40.5765 100.375 114.288 207 221 255
188.68 49.9883 112.725 250 246 255
97.5926 123.451 127.883 255 245 235
185.652 64.3066 112.33 194 213 255
28.5005 87.3861 112.694 177 202 255
149.422 137.401 122.952 255 243 232
129.296 146.181 112.015 245 243 255
161.9 89.4006 111.994 230 234 255
114.83 26.8435 109.208 195 214 255
96.3451 124.671 108.917 237 238 255
160.306 92.9668 110.552 206 220 255
77.0127 181.699 114.695 225 232 255
108.191 86.9067 101.429 210 223 255
204.63 57.5189 112.241 187 209 255
103.492 162.482 108.067 233 237 255
93.5727 148.446 105.406 201 217 255
109.306 175.935 112.864 255 253 248
38.2685 122.191 108.413 207 221 255
40.8945 87.409 110.561 207 221 255
110.953 5.77257 111.834 188 209 255
108.903 124.433 128.878 255 249 255
161.344 71.1826 117.267 202 218 255
68.4943 92.6025 106.609 197 215 255
79.8644 125.94 112.994 200 217 255
101.706 128.602 125.801 255 222 196
132.378 9.91693 111.481 182 205 255
59.7485 155.701 108.264 198 216 255
153.469 86.8671 104.076 217 227 255
181.814 73.364 108.974 207 221 255
107.098 57.1658 105.177 223 231 255
134.013 79.8928 115.201 196 214 255
128.787 136.207 104.971 215 226 255
95.3037 15.67 112.387 184 207 255
84.4383 134.107 113.199 255 225 201
92.202 129.723 106.863 255 251 255
111.229 49.6736 116.424 214 225 255
65.892 154.93 106.978 190 211 255
101.962 43.7426 113.886 193 213 255
88.2575 122.01 123.853 255 213 180
157.41 67.8449 110.186 188 210 255
88.5336 137.313 116.252 193 213 255
71.7496 17.2613 111.538 177 202 255
78.6334 71.0913 105.362 201 218 255
102.788 112.006 107.933 255 231 211
95.5946 167.04 109.616 210 223 255
47.5112 120.549 109.833 183 206 255
109.793 160.724 107.449 209 222 255
114.596 105.196 104.496 255 171 98
81.0125 35.8138 111.796 189 210 255
60.7544 120.859 111.261 198 216 255
159.532 152.106 107.65 201 217 255
157.826 145.277 110.419 229 234 255
101.971 118.993 117.488 255 195 147
87.8708 24.4728 113.231 198 215 255
77.2753 43.0977 114.261 208 222 255
145.692 86.9801 108.035 255 255 251
164.929 90.9914 110.352 207 221 255
90.073 93.6016 125.338 233 236 255
177.551 116.081 114.658 248 245 255
80.3609 81.774 110.633 240 241 255
59.2124 130.484 119.044 219 229 255
206.047 122.134 114.105 200 217 255
220.17 127.166 109.099 192 212 255
88.3569 120.964 109.197 255 250 255
86.9031 97.5943 108.375 255 253 249
107.403 100.011 98.7859 222 230 255
171.191 116.463 119.25 202 218 255
93.2695 150.344 119.832 215 226 255
76.9662 103.652 114.374 201 218 255
196.111 134.646 109.118 199 216 255
185.634 190.405 110.634 181 205 255
108.607 57.6192 118.333 211 224 255
129.383 159.714 106.014 205 220 255
52.7775 122.626 115.936 196 214 255
208.913 137.034 110.229 186 208 255
196.587 42.0591 110.993 183 206 255
210.096 67.4191 111.989 198 216 255
109.008 85.725 121.142 255 191 139
84.1684 99.1913 107.806 255 236 221
82.4223 187.49 111.358 184 207 255
174.873 157.492 114.902 193 213 255
175.081 130.18 113.969 221 229 255
181.507 176.982 112.87 182 206 255
128.39 98.155 123.775 255 250 243
120.326 115.2 104.399 255 189 134
208.456 107.128 113.839 198 216 255
125.199 80.9888 112.053 229 234 255
80.3213 23.2362 111.743 191 211 255
105.43 48.2952 114.74 195 214 255
91.8154 106.119 111.232 255 254 251
114.841 209.109 113.155 190 210 255
82.3963 42.87 112.408 184 207 255
32.4588 151.569 110.675 204 219 255
161.857 151.85 110.713 205 220 255
118.319 159.16 112.327 216 226 255
144.897 166.225 118.785 209 223 255
20.1754 99.338 112.121 207 221 255
211.299 152.234 113.508 212 224 255
115.313 98.2375 122.888 222 230 255
52.4597 148.145 112.446 199 216 255
74.7465 144.935 114.204 226 232 255
163.821 150.83 109.537 212 224 255
49.15 134.369 112.439 192 212 255
171.467 40.8174 113.404 192 212 255
56.7288 67.9397 113.312 194 213 255
138.722 57.9165 112.355 255 252 246
107.871 115.003 133.276 222 230 255
79.4174 129.506 111.348 255 240 227
97.4537 182.62 113.192 199 216 255
131.134 91.4273 111.84 255 254 249
83.4376 79.7502 103.195 255 251 255
127.786 210.782 111.215 186 208 255
113.851 164.402 104.851 255 247 238
128.391 52.2078 115.848 199 216 255
37.0403 192.415 109.25 195 214 255
145.252 30.9889 110.568 203 219 255
128.677 45.597 107.31 234 237 255
173.684 83.1559 107.428 191 212 255
148.479 106.93 102.436 238 239 255
34.1376 106.837 111.127 220 229 255
86.7961 171.851 114.239 192 212 255
93.2668 174.696 112.094 207 221 255
106.682 129.525 120.715 244 243 255
149.643 51.767 108.607 208 222 255
107.64 65.4812 104.075 237 239 255
54.8671 122.676 116.402 187 209 255
122.758 93.7324 99.5115 255 245 235
120.475 101.212 116.778 230 235 255
44.169 171.953 112.088 198 215 255
105.23 121.014 116.623 255 227 204
76.8403 189.978 112.176 188 210 255
82.955 115.237 123.071 220 229 255
96.9178 94.2609 100.849 255 243 231
156.943 47.6086 114.188 224 231 255
141.812 190.368 115.496 199 216 255
111.938 160.726 117.696 193 213 255
31.1872 181.419 113.801 213 225 255
133.787 126.239 110.684 255 243 232
210.77 107.952 112.309 186 208 255
86.861 86.2404 102.678 232 236 255
170.377 90.7229 107.151 219 228 255
78.478 51.0845 111.077 195 214 255
71.5836 130.807 122.545 202 218 255
102.952 106.366 133.748 255 250 255
103.576 107.046 133.604 240 240 255
58.3497 103.849 111.503 208 221 255
60.6711 69.9837 115.071 203 219 255
129.274 125.212 119.445 216 227 255
50.6291 97.9726 111.515 255 230 210
190.224 33.8722 113.246 180 204 255
170.917 142.991 112.34 192 212 255
142.104 134.731 102.781 255 245 235
78.9483 65.0449 114.434 200 217 255
132.573 48.3689 112.717 202 218 255
68.0705 138.507 107.755 255 205 165
150.99 78.9806 110.823 210 223 255
132.701 89.0187 110.1 255 213 179
153.74 55.7859 110.911 197 215 255
133.033 6.03817 113.449 194 213 255
50.3939 78.5519 114.911 207 221 255
92.7191 125.159 103.074 255 240 227
46.6167 111.268 113.838 203 218 255
157.757 126.75 106.672 208 221 255
67.2378 148.979 111.678 219 228 255
126.288 61.5207 120.151 207 221 255
77.8393 136.987 115.019 255 249 241
140.765 101.968 109.326 255 230 210
122.291 108.708 124.554 255 194 144
154.73 91.4961 116.022 255 248 241
94.3799 108.777 108.239 255 229 208
88.2304 158.197 111.44 201 217 255
148.144 100.188 103.737 206 221 255
148.623 188.412 112.01 202 218 255
85.166 127.047 114.915 247 244 255
97.6082 119.745 129.211 255 245 236
47.9093 200.162 109.221 196 214 255
172.946 139.553 114.701 208 222 255
14.6599 160.827 110.182 197 215 255
175.079 88.7619 114.056 190 211 255
113.257 126.337 131.339 209 222 255
94.7039 164.068 105.54 216 227 255
133.643 180.896 111.404 214 225 255
32.5173 43.1421 114.404 189 210 255
123.924 49.3562 111.789 255 212 179
84.7838 70.1901 117.364 207 221 255
78.6935 170.672 107.623 191 211 255
163.823 105.714 116.958 211 223 255
141.547 74.2264 105.195 183 206 255
136.588 81.9012 120.342 208 222 255
177.886 122.949 111.621 200 217 255
186.92 176.79 112.69 182 205 255
77.5009 123.583 112.428 196 215 255
77.6195 147.259 119.62 255 243 232
132.596 73.3755 111.714 221 229 255
144.574 72.7003 111.226 195 214 255
19.0052 162.424 114.536 203 219 255
58.8014 135.407 115.237 228 233 255
153.144 99.777 116.161 196 215 255
114.135 103.463 99.4321 240 240 255
100.245 119.107 95.8714 255 76 0
66.3488 99.9158 112.862 203 218 255
185.162 32.1492 112.364 188 210 255
131.966 173.888 109.567 210 223 255
114.169 94.3379 121.398 200 217 255
102.633 135.531 100.861 224 231 255
85.3326 139.665 109.763 204 219 255
113.607 162.947 114.976 224 231 255
143.068 162.714 107.912 194 213 255
160.001 27.4716 111.474 201 218 255
22.3968 104.651 110.482 199 216 255
119.385 107.973 94.208 219 228 255
53.1093 159.858 110.73 196 214 255
85.6662 144.54 118.217 255 243 232
93.1541 174.728 111.394 205 220 255
84.6447 108.724 119.662 222 230 255
16.0739 85.3705 112.347 183 206 255
107.491 97.7578 94.9651 255 216 185
73.1239 85.2318 114.025 204 219 255
115.699 132.408 127.933 227 233 255
79.1306 160.658 117.598 255 229 208
175.139 34.0342 112.537 193 213 255
140.236 112.281 106.099 255 245 235
217.289 101.563 111.394 190 210 255
78.4455 197.914 112.893 185 208 255
97.7739 115.536 122.823 241 241 255
109.238 108.817 121.453 255 241 229
81.6486 139.86 104.31 218 228 255
78.8053 173.476 109.391 201 217 255
50.3711 72.8708 112.929 201 217 255
139.204 164.338 110.349 197 215 255
179.55 69.0735 111.48 186 208 255
124.318 46.8128 110.854 202 218 255
96.5536 110.222 97.8257 255 217 188
194.497 101.003 113.896 209 223 255
36.2798 165.298 112.381 190 210 255
190.335 161.398 112.417 192 212 255
146.659 125.321 110.745 255 230 210
148.871 88.7628 104.365 255 251 255
109.307 204.395 110.227 200 217 255
102.225 140.747 104.201 202 218 255
115.488 142.726 104.077 253 247 255
71.877 99.4158 105.526 224 231 255
178.763 172.416 112.393 183 206 255
144.356 139.504 118.361 213 225 255
119.067 78.9531 107.688 215 226 255
41.8412 147.321 116.354 207 221 255
160.784 125.925 119.069 255 234 216
128.964 59.5548 110.35 219 228 255
142.641 190.248 113.801 193 212 255
57.6775 85.4768 113.259 255 249 255
64.9926 145.347 106.82 199 216 255
156.155 151.198 116.888 255 239 225
144.474 141.559 103.12 255 244 234
86.3665 138.027 117.434 217 227 255
87.1923 102.785 105.685 227 233 255
48.1867 103.771 110.748 218 227 255
142.101 94.6585 116.34 208 222 255
144.015 200.842 111.971 200 217 255
138.762 52.6529 107.669 211 223 255
51.9616 122.096 111.612 228 234 255
142.97 29.0872 110.091 196 214 255
87.0339 101.335 103.655 255 202 160
125.353 136.506 101.527 255 205 164
76.6372 171.577 116.249 193 212 255
154.468 102.428 116.22 245 243 255
71.9882 48.1325 115.425 197 215 255
200.108 54.2314 115.35 194 213 255
105.068 87.754 107.952 242 241 255
96.3882 100.036 119.939 255 235 219
148.949 125.946 118.245 215 226 255
67.1223 163.211 114.735 202 218 255
78.584 35.8792 114.245 199 216 255
139.676 165.939 107.593 192 212 255
120.556 117.9 101.232 213 225 255
36.2637 99.1444 109.616 207 221 255
21.0144 132.973 112.398 192 212 255
145.245 72.5961 116.412 200 217 255
110.734 109.923 101.427 255 202 159
101.47 111.511 108.244 255 249 255
127.25 128.5 119.531 255 238 224
112.129 133.82 105.861 221 230 255
121.029 86.3043 106.109 251 247 255
80.1054 169.084 107.075 209 222 255
177.162 168.494 111.016 202 218 255
158.182 40.4848 108.982 185 207 255
175.3 195.692 113.194 207 221 255
149.066 125.069 105.563 213 225 255
162.145 109.7 109.298 255 247 238
90.7714 152.803 112.011 218 228 255
102.281 171.539 111.885 203 219 255
80.3625 99.4341 100.903 197 215 255
189.556 53.6398 110.659 189 210 255
204.034 110.756 113.049 195 214 255
27.1212 103.413 115.002 201 217 255
95.9272 122.312 120.145 255 254 250
120.746 144.759 114.957 220 229 255
150.27 145.725 120.369 201 217 255
61.1672 120.602 118.633 211 224 255
137.689 119.243 110.997 255 233 215
131.788 174.883 112.695 195 214 255
137.938 121.065 107.294 255 250 243
39.2338 114.451 111.674 187 208 255
26.5894 156.323 110.508 193 212 255
139.65 124.959 99.3721 255 253 249
137.974 197.084 111.798 206 221 255
198.154 148.667 112.506 203 219 255
168.115 107.1 116.349 213 225 255
161.344 106.989 120.375 194 213 255
108.261 20.1604 110.677 191 211 255
55.3712 122.522 111.574 201 217 255
66.0726 93.9039 108.13 206 220 255
90.332 64.9027 116.469 213 225 255
97.8589 114.945 123.895 255 236 219
135.596 88.9863 124.13 255 242 231
69.1001 193.405 112.125 188 209 255
98.8326 105.311 125.263 255 207 168
73.0637 117.018 103.285 255 217 187
113.546 142.33 108.597 255 240 228
117.816 54.8271 106.877 212 224 255
61.3456 127.658 110.637 255 247 239
108.441 89.4015 106.728 255 233 216
100.906 145.874 115.863 194 213 255
102.886 96.3811 119.807 219 228 255
135.188 89.3755 118.985 199 216 255
80.1481 145.911 122.286 216 227 255
73.3403 127.318 117.005 199 216 255
140.546 83.3253 122.861 255 215 183
135.493 62.5909 108.012 188 210 255
57.8525 53.0606 111.655 215 226 255
97.7536 168.851 107.975 219 228 255
26.8847 58.8206 113.099 181 205 255
65.6023 41.3254 112.216 206 221 255
107.438 39.2507 110.374 196 214 255
104.726 98.5042 105.243 255 171 97
69.5429 158.432 117.966 219 228 255
125.545 123.241 104.742 255 235 218
172.081 141.251 116.183 227 233 255
179.056 116.748 112.998 201 217 255
219.071 116.589 111.42 184 207 255
126.576 147.783 102.859 245 243 255
115.629 87.3777 109.944 213 225 255
141.558 104.835 121.983 255 231 211
93.4404 174.533 111.512 226 232 255
183.672 156.536 111.301 187 209 255
72.649 104.849 111.044 227 233 255
118.211 165.54 108.127 199 216 255
109.273 131.991 128.106 255 244 233
174.629 116.401 112.872 192 212 255
77.4146 148.844 109.831 202 218 255
66.2698 181.054 110.51 191 211 255
152.04 188.081 112.716 191 211 255
12.9357 143.842 112.28 195 214 255
61.4078 171.758 112.936 198 216 255
102.651 103.11 126.21 218 228 255
103.829 89.2363 104.602 255 207 168
191.486 101.195 109.551 238 239 255
173.373 191.723 113.914 190 210 255
113.523 109.114 122.512 200 217 255
64.2328 130.482 105.895 201 217 255
21.2072 88.2378 111.578 189 210 255
24.2309 106.36 111.92 191 211 255
83.1426 115.362 101.833 255 239 225
155.714 126.906 112.055 218 228 255
113.497 56.6369 108.357 203 219 255
147.124 171.286 117.714 189 210 255
97.8419 125.852 100.214 219 228 255
130.948 79.6345 123.733 194 213 255
117.043 115.43 101.039 255 189 134
164.005 32.74 112.556 191 211 255
36.6384 145.41 113.118 255 254 250
84.8952 93.6731 109.328 220 229 255
40.3152 187.048 113.227 183 206 255
126.311 146.596 104.645 255 243 231
30.6142 76.7593 112.622 195 214 255
49.2253 181.091 114.749 190 210 255
141.153 104.685 104.518 226 232 255
160.521 31.1389 111.858 209 222 255
92.4827 186.301 111.465 203 218 255
110.421 117.127 127.853 255 244 234
141.811 80.4969 108.454 255 232 213
114.064 115.198 96.0411 223 230 255
37.2896 79.8183 112.282 200 217 255
59.6309 118.225 108.25 255 211 177
109.574 146.01 101.69 196 214 255
75.2229 165.553 108.351 255 248 241
102.391 55.2647 104.813 201 217 255
80.9814 111.975 117.134 215 226 255
166.929 113.914 106.815 195 214 255
105.476 143.789 106.368 212 224 255
176.793 40.2447 110.442 200 217 255
118.775 155.323 118.263 255 237 222
165.459 149.031 113.788 206 221 255
200.13 83.5273 111.834 187 209 255
134.125 112.502 119.684 236 238 255
112.08 146.028 118.434 253 248 255
91.0492 115.942 123.782 213 225 255
167.045 50.2205 115.161 184 207 255
35.5514 132.971 109.721 201 217 255
115.046 135.254 122.083 204 219 255
106.302 55.9112 119.096 195 214 255
72.6046 41.4106 114.712 192 212 255
38.3137 135.59 116 189 210 255
137.923 122.253 105.814 228 233 255
152.068 58.6968 108.288 204 219 255
127.209 101.887 107.093 255 139 21
204.06 63.3787 113.938 191 211 255
156.669 94.0759 112.303 209 222 255
149.132 164.887 112.264 220 229 255
145.984 140.603 107.565 204 219 255
106.106 123.011 93.7444 255 224 199
110.982 106.04 121.18 255 215 183
212.249 78.4041 111.935 200 217 255
188.834 184.308 114.637 186 208 255
150.355 137.119 117.695 208 222 255
141.766 75.385 119.725 209 222 255
77.146 166.762 107.907 194 213 255
90.7765 40.3776 108.009 206 221 255
94.3497 68.2158 118.919 226 232 255
95.7222 99.9299 112.572 248 245 255
141.575 136.879 110.824 190 211 255
86.6918 69.8106 118.704 216 227 255
42.4867 121.959 108.636 213 225 255
150.902 178.08 110.579 198 216 255
103.177 21.783 112.094 190 210 255
23.5942 169.293 112.978 189 210 255
57.1149 111.978 110.051 215 226 255
89.7329 130.225 126.597 207 221 255
53.9852 165.126 115.483 194 213 255
166.466 77.2374 118.205 204 219 255
139.429 153.37 104.239 184 207 255
174.348 148.056 112.23 255 247 238
85.5957 113.668 120.381 255 222 195
138.134 51.3532 116.905 201 217 255
73.5271 144.397 110.572 207 221 255
127.137 85.0378 106.048 255 234 217
186.697 107.771 109.962 202 218 255
58.6261 119.174 112.844 216 226 255
45.1935 89.2757 115.396 186 208 255
107.978 121.997 102.243 255 205 164
87.8689 126.83 124.751 253 248 255
59.0165 94.292 105.795 244 243 255
22.9313 173.798 114.2 186 208 255
185.986 71.0836 111.757 189 210 255
113.178 205.06 114.08 179 204 255
129.238 97.4711 115.959 212 224 255
130.476 74.699 119.514 226 232 255
44.688 105.107 112.456 231 235 255
