ply
format ascii 1.0
element vertex 1342
property float x
property float y
property float z
property uchar red
property uchar green
property uchar blue
end_header
122.491 209.892 118.635 196 214 255
142.396 170.383 110.239 190 211 255
167.644 125.118 117.681 209 222 255
168.638 197.275 113.34 187 209 255
211.258 106.811 111.648 188 210 255
126.439 155.668 113.391 243 242 255
159.157 149.63 119.333 207 221 255
89.9368 113.204 103.405 255 247 238
133.899 175.105 116.752 206 220 255
89.2605 89.525 102.882 255 229 207
118.05 110.919 90.6106 207 221 255
92.444 174.757 110.182 255 231 212
115.608 71.7717 117.054 216 226 255
81.0834 139.103 113.286 228 234 255
133.593 114.943 110.127 255 197 150
110.963 31.5815 112.647 187 209 255
31.9269 139.067 113.141 194 213 255
53.5692 62.5836 115.3 207 221 255
74.7035 89.4391 102.671 195 214 255
56.8569 133.657 118.691 255 253 248
96.7725 176.385 110.586 206 221 255
155.751 146.518 112.309 201 218 255
132.94 122.192 110.693 255 238 223
27.1674 55.9856 114.902 179 204 255
158.126 79.5368 106.472 216 227 255
118.976 113.939 97.5212 246 244 255
82.565 127.651 125.035 192 212 255
123.783 110.636 92.9414 219 228 255
126.709 99.5304 104.216 255 242 230
94.2932 137.087 111.463 206 220 255
71.8352 90.7058 118.538 255 247 238
76.0993 63.6191 112.907 198 216 255
100.635 150.072 120.546 205 220 255
91.892 135.252 117.788 248 245 255
80.8785 62.1601 113.24 197 215 255
88.5075 46.643 111.266 191 211 255
107.376 100.068 114.183 255 156 64
142.892 158.799 110.811 197 215 255
101.475 175.203 110.559 192 212 255
60.7716 98.9561 119.556 253 248 255
106.437 129.694 107.72 197 215 255
115.144 147.422 122.107 198 215 255
49.9359 74.7605 110.806 212 224 255
153.499 59.4384 108.791 255 242 230
111.652 109.658 101.429 255 167 88
87.2698 20.2742 111.669 189 210 255
191.939 60.1765 110.544 188 209 255
180.722 100.053 109.665 192 212 255
146.549 19.5599 112.688 188 209 255
46.657 88.1845 112.411 219 228 255
92.9696 174.697 111.428 198 216 255
162.958 93.3949 118.396 227 233 255
158.786 203.656 112.811 182 205 255
127.727 116.017 94.9087 255 241 229
114.35 15.1638 114.395 184 207 255
143.916 129.757 116.529 215 226 255
102.099 96.9061 103.728 255 223 198
140.739 107.442 118.519 235 238 255
52.5949 80.128 112.542 193 212 255
90.0664 67.579 111.98 212 224 255
51.9199 205.208 110.072 203 219 255
128.822 108.821 119.546 255 193 142
61.5529 163.714 112.991 203 219 255
143.161 87.2219 109.768 225 232 255
106.794 114.172 93.4723 255 234 216
126.182 185.705 113.84 193 212 255
92.9954 174.903 111.448 204 219 255
43.0008 47.7001 114.069 193 212 255
77.7527 114.327 102.643 209 223 255
81.0435 70.3679 110.584 204 219 255
103.615 102.196 121.175 228 233 255
93.7139 181.78 110.277 215 226 255
109.655 142.788 111.731 255 237 221
98.9232 121.192 125.828 230 235 255
120.512 9.03086 112.281 186 208 255
175.094 38.2195 111.402 183 206 255
67.7052 72.4544 112.397 194 213 255
85.4241 99.4064 120.613 229 234 255
132.086 162.373 113.132 206 221 255
149.953 77.3517 109.005 194 213 255
89.9451 140.744 122.421 208 222 255
143.346 110.787 112.885 216 227 255
145.286 104.482 105.332 245 243 255
150.15 132.694 111.246 208 222 255
88.1353 107.51 100.132 224 232 255
61.1596 130.874 112.293 216 226 255
61.9679 182.143 114.7 205 220 255
50.9606 64.8217 109.211 197 215 255
141.949 176.256 115.644 187 209 255
65.4723 83.0285 120.494 213 224 255
135.054 166.453 108.674 255 241 228
148.376 44.3668 115.347 205 220 255
127.679 127.573 113.964 255 235 218
108.122 94.7 110.07 255 234 217
102.997 136.675 105.411 186 208 255
73.8611 154.426 108.622 210 223 255
125.584 31.1305 108.766 204 219 255
117.547 90.0145 104.886 207 221 255
101.329 35.1786 111.169 197 215 255
187.821 90.1925 113.015 206 220 255
135.934 217.276 110.281 189 210 255
100.17 119.656 96.6167 229 234 255
112.303 218.96 110.88 184 207 255
160.861 119.344 107.515 204 219 255
143.982 92.2195 121.039 255 208 170
47.2948 116.857 113.47 209 222 255
108.995 21.3331 112.416 191 211 255
157.701 20.2331 115.473 203 219 255
64.2712 63.835 115.397 198 216 255
202.32 173.634 111.608 186 208 255
98.8276 113.694 97.7406 255 183 123
85.721 79.7758 105.921 217 227 255
159.941 26.8057 111.741 199 216 255
139.078 72.014 112.041 210 223 255
191.53 188.657 112.401 178 203 255
162.002 14.7151 114.056 213 225 255
168.753 111.121 110.949 198 216 255
59.9179 102.404 117.655 189 210 255
150.44 64.1381 111.231 235 237 255
167.315 100.095 111.546 231 235 255
104.418 124.507 112.032 254 248 255
162.556 68.4446 116.155 191 211 255
42.3281 45.9967 113.188 220 229 255
82.7227 207.957 110.405 180 204 255
69.7542 69.2178 109.779 224 231 255
89.0968 98.8627 121.876 221 230 255
167.203 122.948 105.589 198 216 255
130.879 89.9688 118.813 206 221 255
187.923 82.5724 109.626 198 215 255
97.7459 147.939 109.502 198 215 255
148.205 163.473 115.678 190 211 255
23.5487 112.893 111.675 186 208 255
74.4262 128.797 117.719 236 238 255
90.4535 169.626 114.325 215 226 255
23.6792 139.851 110.753 194 213 255
92.0435 141.874 114.409 255 242 231
114.929 100.935 131.872 255 250 244
42.9676 138.401 113.532 193 213 255
180 130.334 107.316 255 250 243
123.81 165.755 119.44 217 227 255
109.704 220.211 111.008 180 204 255
106.885 162.532 113.376 230 235 255
105.278 38.179 117.122 238 239 255
77.1944 81.252 109.007 201 218 255
101.516 77.0049 108.505 255 250 243
85.2248 79.5955 110.309 218 228 255
175.688 105.539 117.295 208 222 255
32.2858 95.9529 110.891 190 210 255
99.7629 120.518 104.013 221 229 255
90.3591 136.393 120.057 225 232 255
104.832 76.6475 111.177 255 236 221
171.522 132.628 108.396 217 227 255
44.6758 124.874 116.128 199 216 255
84.5475 64.1521 104.393 210 223 255
120.289 55.52 108.005 185 207 255
160.702 44.8031 109.335 199 216 255
81.7591 142.595 118.764 208 222 255
40.2846 72.4915 111.29 223 230 255
170.176 146.258 115.864 212 224 255
70.3689 109.369 122.292 224 231 255
145.232 118.724 111.201 221 229 255
71.613 172.82 114.913 255 227 205
97.0456 70.6194 113.118 218 228 255
111.881 67.8277 105.463 255 248 241
127.606 140.718 121.998 255 252 246
67.3938 86.083 110.707 255 229 208
18.9617 133.218 112.404 210 223 255
33.7292 96.8794 112.625 202 218 255
41.1458 193.019 114.093 194 213 255
120.833 137.072 104.639 255 246 237
142.134 22.9048 111.393 193 212 255
187.285 106.506 116.45 191 211 255
128.817 214.88 106.967 188 209 255
146.045 135.768 105.449 251 247 255
177.532 168.932 114.954 189 210 255
100.189 64.4519 107.825 203 218 255
120.627 148.148 112.816 255 244 234
103.435 150.22 107.513 255 250 255
133.914 155.664 106.745 255 254 250
95.6465 98.7251 105.313 241 241 255
146.325 34.1031 108.739 205 220 255
216.113 105.911 112.061 198 216 255
122.229 130.499 122.754 230 234 255
153.188 150.538 111.918 241 241 255
82.25 175.973 110.605 220 229 255
113.776 131.991 119.134 222 230 255
164.027 88.1954 115.147 195 214 255
85.3761 150.003 117.065 198 216 255
151.776 55.9829 116.276 197 215 255
119.767 112.437 94.9591 240 240 255
160.495 135.428 117.508 213 224 255
85.9863 80.7969 107.021 219 228 255
189.165 124.839 115.839 213 225 255
84.3532 76.3897 104.314 230 235 255
118.283 127.061 101.361 255 229 208
120.616 149.843 121.578 202 218 255
74.4418 115.029 102.4 212 224 255
111.769 88.3793 105.806 213 225 255
119.272 163.95 108.84 250 246 255
25.654 79.271 113.098 203 219 255
105.612 80.9198 124.376 238 239 255
31.1228 147.19 111.331 181 205 255
107.393 61.6662 119.516 255 235 218
105.517 99.0162 98.4343 255 249 242
119.807 171.904 106.301 205 220 255
173.997 117.913 117.921 216 227 255
4.94838 98.196 114.567 194 213 255
200.924 108.622 113.193 188 209 255
96.7256 135.932 108.645 255 248 240
83.1473 187.585 110.155 196 214 255
112.456 46.4527 118.444 238 239 255
104.331 177.552 109.859 195 214 255
127.907 67.4251 107.053 202 218 255
122.45 55.1031 116.674 192 212 255
149.898 141.491 114.66 197 215 255
137.751 186.046 105.283 191 211 255
126.97 113.255 127.443 211 223 255
82.6312 66.112 114.576 255 237 222
91.8109 128.773 114.216 255 250 255
145.134 122.242 107.164 255 206 168
144.591 159.256 114.577 206 220 255
91.9249 125.808 99.3924 210 223 255
111.116 31.2701 112.315 185 207 255
87.152 160.91 112.485 255 225 200
63.6393 134.101 111.41 191 211 255
131.867 152.702 111.492 245 243 255
114.01 195.196 115.224 190 211 255
70.4992 171.809 111.093 202 218 255
81.6631 107.161 109.918 255 157 66
112.079 118.951 123.738 255 124 0
33.6043 72.6763 115.004 193 212 255
128.275 47.2367 113.646 255 233 214
84.5817 132.805 115.512 238 239 255
177.88 73.922 114.071 192 212 255
45.4499 87.6776 110.899 194 213 255
130.34 117.125 127.732 213 225 255
111.712 125.395 127.311 255 231 212
202.02 69.1679 114.06 184 207 255
88.8823 48.9629 113.246 201 217 255
168.051 203.463 112.958 177 202 255
148.515 161.54 108.335 238 239 255
78.9018 154.784 114.8 220 229 255
74.4073 66.8435 113.614 226 232 255
129.847 70.0207 109.681 214 225 255
103.145 100.859 112.764 255 245 235
104.311 173.386 115.649 203 219 255
154.267 136.013 110.872 255 180 116
81.0654 97.4789 122.294 224 231 255
151.177 147.679 116.5 209 222 255
149.599 106.872 108.943 208 222 255
210.118 130.752 112.399 190 211 255
120.463 115.439 91.952 248 245 255
72.7938 154.406 119.326 254 248 255
116.263 133.271 107.561 210 223 255
60.75 145.739 112.248 218 228 255
108.194 79.3826 109.334 255 209 172
80.8201 46.7273 111.161 198 216 255
106.639 111.892 97.5297 255 233 216
103.845 135.635 103.875 255 241 229
101.492 183.66 111.718 194 213 255
158.614 120.949 105.482 255 255 251
50.0528 96.0445 109.109 210 223 255
160.389 47.3851 111.761 223 230 255
111.83 215.868 110.177 183 206 255
167.14 166.948 111.62 189 210 255
140.889 161.523 106.629 240 240 255
12.649 77.7877 113.801 177 202 255
124.819 112.207 119.796 255 225 201
63.597 127.854 112.157 185 208 255
70.7499 107.007 101.927 255 250 255
104.334 89.1495 106.743 255 243 233
153.379 101.255 103.352 203 218 255
109.096 99.0632 100.937 220 229 255
58.584 102.493 120.459 188 209 255
201.037 165.164 113.363 198 216 255
121.406 110.026 126.777 196 214 255
159.009 93.2164 105.98 250 246 255
98.483 103.641 99.0522 255 232 213
78.0195 9.36882 111.974 188 209 255
82.1738 87.3281 120.247 225 232 255
92.7451 36.7456 108.449 210 223 255
117.789 109.435 102.783 255 195 145
82.5016 35.681 114.182 212 224 255
70.6779 111.715 123.285 205 220 255
87.2148 99.5586 118.378 206 221 255
200.65 51.2325 111.866 183 206 255
111.096 105.042 134.098 217 227 255
162.946 174.724 110.9 187 209 255
143.038 16.8456 113.922 181 205 255
94.9488 104.322 123.224 201 218 255
83.9297 58.0558 110.25 204 219 255
139.274 172.068 112.539 216 226 255
99.1342 126.14 109.022 213 225 255
118.847 152.663 113.911 243 242 255
61.9883 77.2822 109.5 204 219 255
147.481 124.407 110.488 227 233 255
136.069 80.9307 106.855 255 245 235
73.5181 92.3212 103.165 245 243 255
149.38 136.916 108.099 214 225 255
97.8329 168.14 110.594 212 224 255
85.2306 69.9241 118.919 205 220 255
55.2709 142.471 106.894 197 215 255
126.363 100.007 102.81 221 230 255
108.861 102.224 116.053 255 242 230
167.524 201.538 111.883 181 205 255
61.4456 121.878 117.9 255 251 246
164 136.153 112.493 231 235 255
172.451 78.5402 107.28 187 209 255
147.275 65.5075 108.355 211 224 255
218.347 92.0464 110.777 186 208 255
110.996 87.0608 105.096 210 223 255
146.402 91.7387 107.463 205 220 255
124.921 86.9555 103.764 215 226 255
26.8386 106.251 114.434 198 215 255
66.4313 116.489 105.219 255 252 247
116.574 39.9529 110.83 186 208 255
106.335 13.0758 109.849 185 207 255
138.534 96.3439 104.784 255 170 94
108.139 131.299 102.38 218 228 255
124.538 215.535 114.043 192 212 255
95.8916 81.9355 124.974 220 229 255
127.359 69.36 118.839 209 222 255
91.8012 150.474 109.453 192 212 255
117.829 160.906 112.124 186 208 255
75.0475 219.272 113.747 191 212 255
54.5233 57.5792 112.62 206 220 255
75.6456 119.775 123.817 243 242 255
153.682 52.3125 109.309 196 214 255
123.7 101.851 129.623 255 252 247
72.0973 36.3063 112.695 181 205 255
103.84 70.4983 112.875 205 220 255
52.8994 122.71 107.225 193 212 255
94.3868 65.6389 115.923 214 225 255
104.229 188.058 111.292 193 212 255
143.553 67.8292 105.532 206 221 255
110.458 97.0056 98.1622 255 252 247
107.917 196.076 110.979 203 219 255
15.9783 135.532 112.137 196 214 255
151.079 85.2183 117.056 195 214 255
134.753 154.771 117.92 226 232 255
179.194 157.662 115.4 189 210 255
121.968 130.783 107.865 230 235 255
79.4233 199.296 114.493 196 214 255
110.006 120.567 119.361 248 245 255
187.055 48.4901 114.6 194 213 255
57.1442 155.383 109.993 196 214 255
128.89 52.5355 108.004 191 211 255
72.5604 148.426 113.73 218 227 255
78.6483 123.937 113.759 255 253 249
132.687 203.208 112.573 176 202 255
60.6298 22.7656 113.735 184 207 255
160.277 142.442 117.504 207 221 255
175.875 167.843 115.48 185 208 255
208.023 116.577 113.91 179 204 255
45.0471 104.49 109.16 194 213 255
79.6353 43.1166 113.372 197 215 255
41.8542 131.985 114.282 201 217 255
14.1825 92.3103 115.201 192 212 255
111.383 99.2765 100.031 205 220 255
150.54 117.546 124.093 255 255 252
79.2949 109.339 100.397 199 217 255
87.177 55.1369 114.988 194 213 255
96.073 122.484 107.191 223 231 255
129.591 95.8328 105.275 214 225 255
141.428 84.4286 112.898 255 213 180
138.275 105.08 102.63 255 248 241
157.288 134.189 109.763 233 236 255
119.344 114.612 128.532 255 195 145
72.3621 110.556 108.45 200 217 255
101.968 79.4055 110.92 202 218 255
179.033 117.967 112.285 255 250 243
115.94 109.383 102.471 255 242 231
100.565 67.0969 109.95 240 241 255
106.336 136.108 117.099 255 239 226
116.369 109.9 134.71 198 216 255
112.481 154.887 118.152 200 217 255
90.3852 71.0828 114.039 235 237 255
107.481 102.722 120.926 235 238 255
173.224 94.5679 107.901 245 244 255
92.8458 80.0281 104.595 194 213 255
60.1022 117.127 105.106 255 253 248
16.695 106.835 112.912 189 210 255
217.224 107.64 115.402 194 213 255
124.02 46.5575 112.948 255 248 241
17.7625 104.057 111.468 196 215 255
77.7001 80.9723 117.11 255 246 237
105.828 128.795 99.3134 222 230 255
181.876 173.708 112.777 191 211 255
116.086 106.525 119.634 255 219 190
90.4963 212.651 113.751 190 210 255
140.159 126.775 117.185 219 229 255
137.847 154.183 115.845 211 223 255
2.80961 118.081 112.501 180 204 255
130.092 65.4745 111.964 255 229 207
158.872 127.649 115.443 210 223 255
66.0114 48.8485 112.351 187 209 255
151.902 134.884 102.647 220 229 255
65.5156 171.556 109.049 180 204 255
69.9446 97.6134 106.275 247 245 255
88.9677 88.5093 108.509 234 237 255
124.07 120.085 110.26 255 221 195
105.469 115.051 120.621 223 231 255
109.537 167.093 118.573 205 220 255
118.756 58.6457 120.042 255 249 242
92.4863 153.849 112.97 211 223 255
90.1642 78.5327 113.16 255 242 230
96.0742 60.8569 111.672 194 213 255
143.133 157.585 114.147 186 208 255
159.7 86.2328 106.78 207 221 255
197.187 114.582 115.281 222 230 255
166.422 135.728 105.666 210 223 255
83.0409 101.842 124.997 219 228 255
114.686 167.945 107.811 202 218 255
136.695 137.308 117.666 212 224 255
143.2 105.584 122.365 255 207 169
111.452 87.4066 114.78 239 240 255
128.529 9.10947 110.884 184 207 255
127.066 143.033 123.587 255 245 235
66.4159 90.7289 113.482 233 237 255
134.817 122.277 111.291 255 240 227
60.6566 109.793 118.775 192 212 255
53.388 102.487 110.763 193 213 255
96.744 135.134 107.437 231 235 255
119.665 135.116 103.687 215 226 255
111.462 6.77598 114.004 191 211 255
111.184 174.412 112.984 182 205 255
83.9808 15.0447 112.399 189 210 255
104.439 59.0831 104.45 200 217 255
84.5129 102.641 124.203 207 221 255
105.401 40.4084 110.515 184 207 255
98.0603 68.586 109.102 255 246 237
105.78 188.983 111.428 198 216 255
175.967 136.275 112.965 200 217 255
94.3299 120.096 109.902 224 231 255
52.4969 57.839 113.457 254 248 255
130.525 145.932 122.379 201 218 255
104.676 93.9071 98.2795 255 239 226
153.105 166.942 115.49 241 241 255
53.5337 64.7099 114.282 209 222 255
163.463 148.653 105.987 236 238 255
40.5557 148.356 112.995 206 221 255
102.28 106.493 92.9939 255 240 226
103.025 149.471 106.26 208 222 255
135.519 137.085 102.25 230 235 255
142.355 178.479 111.411 196 215 255
101.23 134.008 126.902 255 245 235
98.0389 93.8041 112.742 255 220 192
120.339 114.504 122.975 255 240 226
141.582 136.138 117.973 255 226 203
129.681 178.252 110.098 202 218 255
106.386 53.672 106.078 199 216 255
105.901 158.53 107.611 255 240 226
155.331 117.827 115.594 220 229 255
128.639 155.239 106.093 255 250 255
200.527 89.944 113.427 207 221 255
131.619 70.1003 109.638 202 218 255
102.185 117.988 93.9949 218 228 255
64.6457 48.5463 111.411 187 209 255
101.402 149.939 111.337 209 222 255
163.372 65.8665 115.306 223 231 255
171.026 67.3123 112.987 194 213 255
190.888 138.17 110.863 255 253 249
24.9573 45.4504 112.511 188 210 255
107.53 99.2053 93.8185 255 219 190
142.384 121.584 115.24 255 239 225
201.676 151.62 112.465 188 209 255
131.565 117.503 98.456 215 226 255
54.9425 126.247 107.552 204 219 255
46.733 90.7612 111.671 194 213 255
89.1856 74.0502 121.973 204 219 255
67.9014 182.544 109.373 202 218 255
80.2985 167.273 112.415 199 216 255
103.939 124.988 101.505 214 225 255
158.433 142.952 106.026 255 215 183
71.6673 210.619 112.009 192 212 255
154.279 142.036 110.826 239 240 255
53.0249 97.1807 116.113 205 220 255
180.363 120.306 110.866 255 239 226
53.104 155.125 115.121 203 219 255
99.4687 72.0114 120.091 255 236 220
141.521 180.615 110.315 201 217 255
100.631 41.8949 111.623 211 224 255
138.28 148.039 105.295 228 234 255
78.4991 156.353 108.835 210 223 255
88.5778 21.3041 111.429 200 217 255
218.306 92.5315 110.36 187 209 255
97.4925 127.56 102.318 255 251 245
49.679 52.5005 116.066 181 205 255
122.855 81.8953 118.012 240 240 255
71.0672 138.242 117.3 201 218 255
140.75 118.85 103.055 255 195 146
103.522 197.63 111.754 189 210 255
64.2745 85.2177 119.103 229 234 255
131.821 155.093 109.2 217 227 255
156.754 108.691 115.767 255 226 203
119.224 29.6037 111.437 198 215 255
89.3258 114.47 100.415 255 218 188
153.989 74.6293 110.999 199 216 255
108.834 40.8174 109.322 255 251 246
100.773 14.8237 110.926 188 209 255
94.2663 154.047 110.167 212 224 255
100.188 167.725 114.887 231 235 255
50.9554 41.2854 115.609 196 214 255
117.697 92.8713 118.938 248 245 255
199.094 141.065 111.06 204 219 255
55.9735 55.5291 111.593 204 220 255
67.0634 176.735 110.737 185 208 255
104.619 156.6 106.023 203 219 255
111.856 110.413 127.366 224 231 255
99.4615 113.411 114.7 255 242 230
123.661 109.641 111.848 224 231 255
96.4763 176.243 110.213 187 209 255
69.184 140.551 112.432 255 230 210
133.999 105.201 125.224 244 243 255
86.8069 87.9756 106.763 245 243 255
116.718 154.443 111.345 255 252 248
24.1649 179.007 113.861 255 254 251
99.8232 39.6896 114.834 193 213 255
124.274 71.3321 115.54 208 222 255
39.3268 134.158 110.479 192 212 255
180.5 93.0195 115.605 212 224 255
83.9323 120.928 109.844 255 246 237
102.594 121.796 103.137 255 224 199
124.108 85.2125 101.028 220 229 255
161.619 192.693 110.819 189 210 255
200.702 60.2982 114.409 199 216 255
146.113 75.8717 107.063 215 226 255
128.389 142.116 101.796 191 211 255
97.6938 163.442 110.489 217 227 255
42.7419 155.694 109.205 189 210 255
28.5144 54.0884 112.062 182 205 255
28.7634 78.5137 115.057 193 212 255
53.2039 172.055 111.773 189 210 255
70.3562 60.6148 115.694 255 248 241
130.046 138.856 120.167 255 237 222
112.122 94.1369 104.859 247 244 255
49.5851 194.589 111.83 185 208 255
106.503 80.9911 117.625 226 232 255
197.135 97.9218 116.521 255 247 239
129.588 107.89 101.562 255 246 237
132.072 171.144 105.889 235 238 255
129.068 79.2615 108.688 239 240 255
176.344 171.591 112.411 184 207 255
151.947 122.251 107.548 255 254 251
150.478 104.826 101.816 255 251 245
146.982 129.064 121.583 231 235 255
132.157 132.66 114.494 205 220 255
154.029 133.767 114.682 203 218 255
72.2012 119.154 106.416 212 224 255
197.176 95.8162 110.247 197 215 255
169.233 167.485 110.655 184 207 255
78.3927 138.158 114.905 192 212 255
49.4155 25.1626 111.395 181 205 255
186.75 81.4694 116.524 191 211 255
103.243 212.308 111.601 213 224 255
147.992 114.921 110.775 242 242 255
161.996 126.546 109.37 230 235 255
79.0769 77.7912 114.769 208 222 255
112.899 70.3012 110.446 183 206 255
38.2288 65.7823 114.735 190 210 255
150.029 132.224 119.325 255 243 231
159.096 94.6134 111.812 234 237 255
93.2769 174.478 111.339 207 221 255
146.803 105.07 108.912 189 210 255
157.273 73.7829 106.076 195 214 255
93.5295 96.7233 103.855 255 254 250
63.9666 110.422 115.455 194 213 255
127.978 110.508 118.013 255 249 255
131.86 83.5445 108.34 255 212 177
185.373 61.0303 112.469 207 221 255
92.5364 174.639 111.26 206 220 255
51.6909 36.5411 112.903 179 203 255
64.1426 211.879 113.045 182 206 255
111.99 124.414 107.198 255 220 192
44.8791 78.6111 115.018 219 229 255
186.74 161.479 110.424 193 213 255
109.126 145.526 111.209 207 221 255
146.894 163.042 113.475 193 213 255
111.261 148.69 121.986 231 235 255
104.168 213.601 111.705 181 205 255
172.282 112.573 112.228 199 216 255
134.356 146.569 115.308 213 225 255
65.8674 106.234 115.1 217 227 255
118.887 92.3592 117.142 255 205 164
92.328 175.167 110.802 207 221 255
76.3801 143.261 105.762 191 211 255
174.549 97.9868 107.999 198 216 255
131.351 92.0029 120.682 255 246 237
157.169 94.63 118.27 241 241 255
135.469 66.4613 112.908 236 238 255
71.5236 120.028 110.553 250 246 255
101.547 64.9366 110.822 240 240 255
192.826 175.679 111.622 182 206 255
139.521 123.233 109.86 197 215 255
124.932 133.936 112.749 255 220 192
120.314 166.416 106.946 255 248 240
122.381 143.605 104.785 217 227 255
77.8706 186.323 112.026 194 213 255
66.7912 133.809 115.929 198 216 255
138.657 146.312 103.635 203 219 255
175.963 182.847 114.759 182 205 255
115.551 109.666 89.7142 231 235 255
129.769 152.402 112.77 255 238 224
117.929 100.008 124.219 255 187 131
101.678 107.477 124.613 206 220 255
98.9165 133.82 123.295 183 206 255
121.341 36.2164 114.683 218 228 255
93.2172 174.923 111.153 255 196 147
143.428 90.9326 112.792 255 235 218
140.743 200.81 106.375 207 221 255
121.748 69.693 120.558 255 253 248
171.031 107.699 112.634 255 241 229
109.582 52.4927 113.174 197 215 255
51.5815 58.8495 109.715 194 213 255
85.2581 111.579 103.42 253 248 255
35.1738 92.4455 109.439 192 212 255
126.068 49.7149 116.827 228 234 255
189.365 73.6323 114.365 198 215 255
139.391 77.6441 118.536 237 239 255
121.921 106.821 107.905 235 238 255
130.201 111.293 121.573 237 239 255
28.6182 65.2646 114.664 187 209 255
113.07 72.9248 105.241 199 216 255
98.4671 105.148 116.837 255 182 121
7.64984 139.027 113.518 191 211 255
71.6705 215.093 114.072 183 206 255
105.94 117.042 103.015 192 212 255
21.4798 86.1471 114.1 198 216 255
135.258 93.6024 104.265 201 218 255
129.466 185.381 116.163 195 213 255
68.9756 107.554 109.704 229 234 255
119.078 134.195 107.17 255 244 233
93.0034 174.733 111.402 199 216 255
43.9472 95.4024 112.158 253 247 255
110.218 63.799 107.13 242 241 255
162.151 103.907 116.523 197 215 255
38.3004 141.216 111.611 192 212 255
125.622 96.7238 118.237 218 228 255
106.525 40.5825 111.627 208 222 255
57.4973 155.729 110.921 189 210 255
73.7589 45.3034 115.804 193 212 255
173.496 125.168 110.185 215 226 255
99.6151 98.8124 127.792 201 217 255
92.4264 115.327 113.936 232 236 255
102.038 70.2929 118.825 224 231 255
123.77 135.157 103.878 197 215 255
99.6794 176.28 111.277 212 224 255
101.887 96.9469 98.0876 235 238 255
133.132 28.1951 115.346 191 211 255
136.122 65.799 114.716 200 217 255
82.662 120.767 116.622 244 243 255
112.803 90.0248 103.561 201 217 255
141.235 48.884 109.644 205 220 255
108.458 103.481 121.421 255 223 198
161.082 187.29 112.41 195 214 255
98.6409 148.323 120.097 212 224 255
146.897 121.507 105.546 196 214 255
162.489 157.266 114.691 230 235 255
133.993 205.293 112.398 182 206 255
92.8851 174.597 111.289 214 225 255
54.8287 75.0943 114.172 196 214 255
117.336 115.468 90.6233 255 216 186
122.301 108.045 118.36 255 223 198
89.2063 139.344 109.38 207 221 255
63.8158 63.2944 107.816 195 214 255
81.5955 97.7492 111.701 219 228 255
72.3972 108.247 106.877 242 241 255
167.641 179.652 112.878 189 210 255
26.5242 119.247 110.916 188 210 255
89.3712 39.5132 116.08 201 217 255
141.357 136.771 121.95 201 217 255
52.8363 121.36 115.604 205 220 255
170.039 49.1213 110.748 198 215 255
105.009 71.4368 108.432 198 216 255
71.5608 136.339 112.733 222 230 255
83.7756 76.319 113.799 213 225 255
121.764 142.382 101.945 255 249 242
110.958 203.27 112.736 189 210 255
111.272 113.073 130.387 255 192 141
173.456 154.7 112.295 204 220 255
49.1758 104.248 112.615 196 214 255
198.419 66.1212 111.532 178 203 255
109.805 126.484 119.475 255 221 194
147.98 102.435 115.57 211 223 255
167.898 206.756 112.506 185 207 255
131.034 80.084 106.721 192 212 255
107.64 145.739 119.797 226 232 255
158.279 201.583 111.606 192 212 255
194.721 118.984 113.797 189 210 255
27.1342 144.213 109.959 194 213 255
23.5719 95.6938 111.878 205 220 255
51.6131 118.468 110.637 193 213 255
76.4933 114.874 117.673 218 228 255
98.3122 178.644 110.603 219 228 255
184.403 50.3127 112.561 187 209 255
131.731 105.965 97.5542 255 210 175
147.914 154.12 114.543 215 226 255
130.444 159.459 112.92 195 214 255
69.1761 170.222 115.904 211 223 255
121.502 112.548 120.273 221 229 255
86.2948 35.46 110.164 200 217 255
84.732 85.657 111.04 216 226 255
136.954 157.979 116.667 181 205 255
25.6076 110.777 114.758 194 213 255
95.5976 147.279 123.738 238 239 255
91.6934 58.9127 114.021 222 230 255
131.835 138.093 113.593 255 240 227
24.5689 178.856 112.49 193 213 255
121.172 16.0699 112.404 186 208 255
104.982 101.264 96.7399 218 228 255
92.8937 174.325 111.461 192 212 255
52.1115 51.1568 113.701 196 214 255
125.658 184.716 111.386 185 208 255
125.608 29.6392 111.793 184 207 255
76.6347 122.178 124.051 221 229 255
170.93 87.7377 111.829 186 208 255
101.921 99.4476 119.703 255 250 255
109.711 120.146 96.8159 255 251 245
177.07 104.472 112.664 208 222 255
77.8167 56.882 108.689 211 224 255
89.3522 180.613 110.363 198 215 255
130.101 219.542 113.4 177 202 255
53.2436 100.561 108.388 200 217 255
184.682 160.188 114.503 184 207 255
102.777 82.358 102.712 233 237 255
159.803 70.8767 106.278 209 222 255
96.1903 136.947 107.56 242 242 255
93.2798 40.1521 111.054 199 216 255
144.858 111.344 102.676 206 221 255
8.4363 99.1673 112.224 198 216 255
18.7818 76.0831 111.932 188 209 255
123.32 136.296 115.221 242 242 255
31.2244 107.605 112.482 194 213 255
101.348 158.803 116.039 255 194 144
178.407 126.057 109.667 208 222 255
125.079 159.998 117.609 223 230 255
108.97 71.253 106.141 221 230 255
16.3132 88.3229 111.91 188 210 255
65.188 149.635 113.558 244 242 255
56.1754 108.389 108.628 255 253 249
82.0707 81.4144 102.967 229 234 255
123.12 85.0369 103.839 215 226 255
167.378 88.1769 111.542 216 227 255
123.224 115.387 111.783 255 209 173
131.04 123.506 112.774 255 243 231
142.36 128.931 102.099 208 222 255
94.5148 85.5005 123.164 226 232 255
45.4652 91.2514 112.651 218 228 255
98.6039 190.675 113.521 188 210 255
158.795 144.558 113.584 234 237 255
110.539 47.1632 116.235 192 212 255
152.525 77.8424 110.201 188 209 255
9.30578 137.162 112.896 197 215 255
112.412 94.9054 103.037 239 240 255
119.001 146.586 101.498 235 238 255
70.986 144.056 106.808 252 247 255
42.0672 161.635 113.761 195 213 255
116.257 191.844 115.307 187 208 255
109.947 210.299 111.666 191 211 255
136.072 74.7872 107.872 212 224 255
59.1322 91.8504 106.39 255 251 255
91.9893 210.184 110.215 200 217 255
98.4267 118.796 104.982 239 240 255
104.79 107.061 105.92 255 196 149
90.8575 139.974 111.5 255 249 255
147.691 168.62 117.282 194 213 255
115.321 115.825 97.9741 255 201 158
100.587 86.322 124.596 208 222 255
187.535 71.3432 114.976 202 218 255
86.3748 92.3092 120.418 237 239 255
141.965 146.793 102.531 203 219 255
205.162 119.515 112.19 200 217 255
61.2902 137.608 118.177 221 230 255
91.3094 72.2815 117.836 255 250 255
215.583 126.756 111.313 190 211 255
133.499 128.163 122.772 200 217 255
57.0415 147.221 111.874 193 213 255
84.9577 111.71 107.205 245 243 255
65.0518 211.435 111.53 184 207 255
60.5867 90.8225 111.994 215 226 255
24.5372 80.5622 115.009 210 223 255
126.801 99.6682 107.794 240 240 255
127.506 147.721 102.898 255 248 240
199.915 144.985 112.579 204 219 255
3.55079 113.941 111.064 179 204 255
21.8066 173.239 109.599 177 202 255
102.765 153.75 110.701 255 253 248
149.494 108.168 124.02 216 226 255
133.792 26.2741 110.068 179 204 255
120.609 154.898 103.353 255 230 210
117.14 101.72 121.072 255 239 226
122.713 92.938 105.494 255 139 21
107.692 83.8272 120.619 255 207 168
72.5961 72.7805 110.799 230 235 255
105.713 174.89 110.856 217 227 255
138.068 124.803 124.582 255 217 188
95.1062 175.972 110.568 203 219 255
99.9735 62.5358 114.58 207 221 255
206.043 115.91 112.456 183 206 255
188.485 51.9622 112.937 184 207 255
135.456 31.2222 110.64 189 210 255
80.6325 45.005 110.434 202 218 255
135.06 131.687 100.193 255 230 209
74.6393 123.378 113.541 255 254 250
77.1197 182.626 114.052 241 241 255
54.9183 70.3187 109.727 222 230 255
137.117 90.3481 106.176 255 244 234
69.7955 210.607 112.732 181 205 255
164.64 68.3125 114.025 214 225 255
188.533 128.438 112.873 192 212 255
35.3181 142.352 109.842 194 213 255
148.119 88.017 106.445 196 214 255
9.59568 118.777 112.875 176 202 255
47.3613 59.322 112.846 198 216 255
185.266 149.61 110.448 197 215 255
100.699 136.925 125.053 208 222 255
91.2782 156.774 115.214 212 224 255
147.049 115.997 107.653 239 240 255
29.2539 64.0142 110.224 182 205 255
173.339 137.067 108.219 224 231 255
128.111 131.296 107.146 255 236 220
108.872 126.271 108.725 255 220 193
194.586 134.571 111.814 206 220 255
172.413 126.003 117.453 200 217 255
90.0091 116.842 104.334 236 238 255
30.1121 111.589 110.863 195 214 255
80.2492 79.0662 104.556 208 222 255
115.041 74.7209 109.656 237 239 255
84.148 111.643 120.576 250 246 255
145.205 65.8607 105.456 215 226 255
96.871 65.326 105.463 209 222 255
49.7459 133.991 115.913 229 234 255
87.866 103.24 120.068 202 218 255
124.403 125.385 114.552 255 145 38
95.2705 139.615 122.45 198 216 255
70.31 59.2892 114.183 199 216 255
129.123 202.759 114.348 184 207 255
145.017 126.419 107.63 255 237 221
84.3046 93.8285 111.934 203 218 255
169.233 168.383 113.487 188 209 255
170.509 174.125 112.967 177 202 255
175.27 125.376 113.018 255 216 185
80.7872 66.2176 119.799 198 215 255
65.5799 30.9395 110.435 194 213 255
73.8808 71.8235 106.9 218 227 255
146.496 183.075 114.503 199 216 255
134.077 82.6587 120.457 210 223 255
100.155 118.512 97.9122 255 206 167
101.847 143.745 116.488 242 241 255
160.36 115.204 110.782 206 221 255
79.1994 90.273 116.422 255 164 83
87.6435 108.566 106.668 255 203 161
77.8636 55.827 108.786 230 235 255
96.8263 60.2498 112.769 235 238 255
111.82 18.1893 111.485 191 211 255
18.3327 128.877 111.375 191 211 255
120.683 87.9307 101.921 255 251 246
119.974 173.814 113.385 196 214 255
171.129 189.835 113.513 194 213 255
171.036 158.425 114.275 201 217 255
53.9889 28.261 110.128 188 209 255
125.924 116.167 102.438 255 221 193
104.071 119.878 114.088 255 174 104
148.176 147.61 104.664 255 226 202
98.5338 96.2528 118.162 255 -2147483648 0
89.807 32.1626 113.629 198 216 255
152.997 114.115 117.705 204 219 255
126.974 131.071 108.13 208 222 255
86.3776 184.725 111.901 187 209 255
212.952 93.7303 115.033 182 205 255
112.916 169.266 108.924 221 229 255
96.9545 118.446 95.9234 217 227 255
84.4175 141.499 114.354 212 224 255
82.4206 73.7498 109.304 198 215 255
76.3863 110.196 107.607 186 208 255
75.7495 153.89 118.043 237 238 255
115.281 86.0547 106.237 219 228 255
81.1561 197.392 110.884 195 214 255
81.5028 47.5279 108.279 255 246 237
124.718 110.596 116.967 245 243 255
103.776 64.5074 106.435 255 253 248
39.0842 73.4964 116.185 212 224 255
205.352 63.348 111.879 193 213 255
123.085 146.66 112.114 195 214 255
93.023 174.627 111.436 186 208 255
70.1475 143.984 105.939 193 213 255
161.84 107.581 117.937 220 229 255
71.6297 76.1981 109.136 202 218 255
68.4203 111.397 113.802 212 224 255
135.306 132.836 124.188 255 245 236
93.0254 174.727 111.24 237 239 255
69.7377 154.417 105.977 229 234 255
122.835 136.607 98.9035 240 241 255
64.8246 21.9185 113.938 185 207 255
85.628 73.4885 111.38 213 225 255
179.202 61.7885 112.844 188 210 255
115.649 84.2378 107.661 255 231 211
106.63 190.834 112.798 230 234 255
58.346 132.003 112.062 255 240 226
72.4005 134.011 105.917 205 220 255
123.533 86.0851 120.138 230 234 255
212.765 75.467 112.14 188 209 255
54.4408 110.828 111.708 188 209 255
25.8476 101.225 111.037 199 216 255
103.142 33.2353 114.217 225 232 255
172.132 50.1222 114.358 193 213 255
186.071 92.9073 113.216 205 220 255
53.0893 179.224 109.94 193 212 255
147.907 170.388 110.417 201 217 255
177.865 120.474 114.496 242 241 255
76.2248 165.727 112.773 226 232 255
84.12 79.3717 120.768 195 214 255
76.0982 130.36 118.139 255 252 248
85.908 137.884 113.74 216 227 255
44.99 151.266 111.796 199 216 255
25.5068 53.1203 114.191 180 204 255
131.754 101.427 123.989 211 224 255
159.665 24.0467 110.282 191 211 255
92.5935 176.802 109.382 184 207 255
116.152 125.74 95.3149 255 232 214
123.084 165.106 117.101 255 227 205
172.744 69.8627 113.992 204 219 255
75.2173 186.867 112.6 193 213 255
132.32 44.5675 115.889 213 225 255
138.496 123.688 114.995 255 209 172
119.052 121.504 131.18 254 248 255
58.8631 61.2299 111.782 198 216 255
110.198 144.574 121.952 255 175 107
159.627 137.192 120.278 255 243 232
206.271 109.487 112.501 195 214 255
202.924 101.129 110.821 203 218 255
120.478 116.737 96.6708 213 225 255
72.0756 95.0625 103.754 196 215 255
125.914 17.049 113.698 204 219 255
81.527 170.968 115.426 191 211 255
99.4004 91.6934 120.968 255 238 223
82.9362 125.362 123.453 186 208 255
98.6323 14.8931 113.771 218 228 255
128.287 74.1219 102.348 255 236 219
144.745 120.272 116.098 229 234 255
122.71 151.19 109.917 250 246 255
158.523 93.88 105.389 231 235 255
138.299 161.697 112.558 212 224 255
160.114 104.613 103.534 199 216 255
117.483 102.944 103.188 246 244 255
97.302 111.67 123.416 227 233 255
67.4001 147.138 112.597 255 238 224
156.167 121.094 114.807 191 211 255
128.665 140.618 104.483 243 242 255
110.534 153.993 116.593 199 216 255
126.323 143.056 112.471 255 254 250
62.5968 136.149 114.657 200 217 255
95.4992 182.318 110.822 186 208 255
171.607 103.165 109.811 203 219 255
176.646 136.842 112.652 201 218 255
71.3415 67.3374 115.769 208 222 255
173.652 118.768 112.988 210 223 255
93.0214 174.698 111.435 191 211 255
158.175 136.172 115.475 199 216 255
85.7182 81.9608 111.083 255 191 139
74.7999 148.95 111.827 199 216 255
79.0831 207.958 112.1 193 212 255
147.484 52.0054 110.294 201 218 255
173.007 55.7567 116.442 201 217 255
111.816 123.498 108.334 255 241 229
86.9026 73.8916 104.274 201 217 255
176.022 48.0368 110.384 205 220 255
128.442 70.1807 103.497 215 226 255
125.036 113.732 117.61 255 211 176
123.958 123.425 103.497 204 220 255
148.194 77.9304 112.632 207 221 255
62.5354 135.274 111.48 215 226 255
75.405 145.093 111.58 255 244 233
156.167 194.098 111.653 187 209 255
126.732 205.795 112.729 186 208 255
123.263 110.175 121.698 255 142 29
37.718 53.0031 115.502 193 212 255
129.594 77.6647 115.049 210 223 255
135.207 106.138 106.674 217 227 255
93.0761 174.511 111.437 212 224 255
159.888 127.265 106.182 179 204 255
142.731 74.2148 119.295 255 242 230
136.019 78.1309 115.719 208 222 255
129.793 109.126 96.5245 209 222 255
151.003 88.0652 108.504 255 238 224
151.195 43.4007 115.627 186 208 255
160.092 80.7954 116.652 211 223 255
58.6764 53.4958 112.335 182 205 255
128.459 52.7384 112.071 255 243 232
93.632 129.339 120.303 212 224 255
117.518 183.19 112.342 183 206 255
111.651 90.2639 114.042 255 251 255
123.83 113.669 111.021 255 232 214
121.737 78.4661 120.322 255 226 204
107.756 100.931 130.905 212 224 255
146.059 77.3878 118.241 255 234 216
83.7559 98.6916 116.106 243 242 255
80.5685 191.783 112.781 183 206 255
108.649 192.021 115.305 219 228 255
94.1742 111.34 97.5547 255 204 163
159.372 92.4819 117.1 208 222 255
127.967 128.568 110.595 255 217 187
137.46 65.3315 115.691 200 217 255
108.207 130.115 115.74 255 225 201
208.854 155.203 111.925 185 207 255
103.835 121.011 119.717 255 199 153
94.6831 106.19 117.104 239 240 255
117.945 145.72 124.383 207 221 255
169.982 39.4606 110.509 244 243 255
113.645 113.388 123.584 255 222 197
168.811 115.229 108.121 194 213 255
137.59 147.25 112.13 255 179 114
71.9103 107.803 122.456 255 219 190
60.5767 57.9719 114.597 181 205 255
47.2864 132.577 112.798 198 216 255
126.258 194.087 111.574 206 221 255
139.196 195.627 113.567 199 216 255
68.6137 164.318 115.849 195 214 255
69.9332 140.148 104.131 195 214 255
107.712 98.6844 110.557 213 225 255
163.43 133.859 106.503 255 243 233
191.622 148.251 111.378 182 206 255
150.246 90.2018 114.902 225 232 255
214.252 84.6407 111.626 180 204 255
161.079 89.0829 112.374 255 251 246
159.03 17.1821 112.903 192 212 255
130.983 100.151 99.9525 200 217 255
120.473 93.173 119.164 207 221 255
157.178 75.1452 109.01 214 225 255
53.6244 21.876 113.713 182 205 255
138.401 146.535 113.904 241 241 255
100.592 110.788 116.567 255 201 157
180.386 52.3279 114.284 199 216 255
154.079 79.5731 107.253 222 230 255
168.292 135.347 108.945 217 227 255
65.3758 163.789 115.825 237 239 255
104.69 211.536 111.348 185 208 255
120.657 114.808 124.271 255 219 190
100.328 63.8024 119.269 210 223 255
138.695 125.825 101.015 201 217 255
70.8007 126.669 106.534 213 225 255
57.0653 114.779 109.762 204 219 255
119.968 82.9473 122.628 238 239 255
90.7135 108.283 110.593 255 252 246
126.077 186.132 113.964 209 222 255
96.0194 155.271 112.593 202 218 255
195.243 144.867 110.546 191 211 255
208.063 141.871 110.869 191 211 255
148.737 67.6311 120.228 239 240 255
136.264 49.5866 112.97 183 206 255
116.393 122.374 94.3512 213 225 255
53.7906 156.795 115.932 193 212 255
150.549 123.407 116.426 255 250 244
175.701 147.326 111.659 230 235 255
110.878 94.5 121.868 213 225 255
76.5182 202.567 114.455 186 208 255
122.994 88.0744 105.66 200 217 255
195.275 126.246 110.757 213 225 255
139.365 107.168 116.999 255 208 170
92.9076 174.839 111.448 228 234 255
152.241 132.465 106.024 203 219 255
164.018 94.4056 112.189 191 211 255
177.026 137.415 108.51 194 213 255
177.009 190.925 110.944 189 210 255
62.8662 86.0243 116.947 203 219 255
102.237 89.1895 103.073 255 224 199
104.854 117.126 106.125 255 186 128
76.9148 172.215 114.753 197 215 255
116.619 101.106 124.596 255 250 244
127.395 21.0265 114.508 203 219 255
71.7118 175.369 109.306 191 211 255
34.7488 105.559 112.376 199 216 255
164.869 80.9257 116.093 196 215 255
93.59 175.004 111.529 202 218 255
144.785 86.2743 106.889 255 218 189
69.623 23.9087 114.033 199 216 255
57.422 39.9927 110.146 192 212 255
145.496 209.679 114.325 180 204 255
121.671 160.789 113.396 209 222 255
114.204 151.042 123.984 225 232 255
119.219 191.536 112.616 206 221 255
116.194 75.1919 115.179 255 221 195
95.7436 98.7628 118.225 255 244 233
40.5198 48.9388 113.354 185 207 255
142.568 124.06 110.937 218 228 255
166.444 167.591 111.644 255 247 239
117.833 134.403 116.128 255 252 248
53.61 71.6246 114.053 233 236 255
4.21582 92.9372 111.379 179 204 255
145.129 173.915 111.573 194 213 255
129.486 12.3477 112.246 177 202 255
69.9962 135.739 112.522 255 250 255
138.043 140.037 109.667 243 242 255
136.042 88.995 114.407 214 226 255
122.064 120.663 104.704 255 225 201
128.067 168.975 111.115 202 218 255
211.758 158.785 113.738 204 219 255
84.8959 218.204 111.151 191 212 255
171.701 111.274 107.482 236 238 255
26.351 161.427 112.077 179 204 255
102.262 59.8448 113.479 191 211 255
190.352 38.7895 110.626 189 210 255
95.1791 58.3465 117.094 223 231 255
118.095 105.06 103.314 255 223 198
41.0294 139.611 110.249 200 217 255
113.727 104.914 102.415 201 218 255
93.3824 146.965 119.205 255 218 189
74.9677 129.425 115.793 202 218 255
171.307 172.108 112.289 192 212 255
180.86 47.6907 111.007 190 211 255
81.3271 133.545 120.708 236 238 255
124.297 32.6319 113.337 194 213 255
55.2368 203.121 113.224 188 209 255
180.913 60.7976 114.581 186 208 255
92.1454 162.204 113.047 214 226 255
89.869 29.4947 112.747 187 209 255
140.832 154.835 119.632 198 215 255
126.695 124.169 119.398 221 230 255
156.397 210.316 113.155 193 212 255
176.551 170.138 115.044 202 218 255
72.6089 98.6257 109.089 224 232 255
149.434 32.8 110.505 255 255 252
169.306 111.827 118.139 202 218 255
145.596 82.6773 109.935 228 233 255
107.691 104.962 105.3 213 225 255
84.6213 99.5435 112.443 209 222 255
91.7799 111.706 126.346 225 232 255
98.4766 112.475 116.14 255 187 130
217.369 94.9054 112.18 185 208 255
147.756 44.0855 109.231 184 207 255
171.627 108.756 111.224 206 220 255
98.374 128.777 115.09 246 244 255
90.4917 73.0703 106.914 219 228 255
136.584 77.197 111.208 255 239 225
78.4668 114.383 109.71 226 232 255
117.378 112.21 95.3444 255 231 212
132.329 120.67 121.553 232 236 255
57.9839 106.807 107.38 255 225 201
137.058 38.8466 111.452 225 232 255
120.378 60.0048 110.583 255 253 248
151.954 169.108 114.041 232 236 255
85.4577 52.7636 108.63 202 218 255
185.084 43.4636 109.917 186 208 255
117.901 52.5561 108.363 255 205 164
124.558 178.246 110.113 202 218 255
156.187 45.6167 113.653 206 220 255
117.792 186.627 108.477 255 251 255
71.0867 87.5288 116.645 208 222 255
79.3679 60.4451 110.599 255 250 243
80.8291 57.818 110.27 216 227 255
131.933 112.53 110.68 255 201 158
93.0579 174.695 111.585 194 213 255
93.4478 174.795 111.107 212 224 255
221.519 128.534 110.909 188 209 255
35.3619 92.5032 112.952 194 213 255
156.578 65.3271 115.371 255 229 207
105.848 68.3375 111.491 255 252 247
62.7423 164.686 113.922 219 228 255
210.399 70.7138 110.038 195 214 255
113.658 70.4503 112.301 226 233 255
101.115 108.652 94.5288 210 223 255
174.398 105.856 109.953 195 214 255
113.694 28.6735 115.47 193 213 255
74.0257 63.0589 113.393 193 213 255
214.82 117.541 114.221 200 217 255
50.3908 48.8068 112.796 192 212 255
154.832 131.095 120.396 208 222 255
159.73 25.0503 112.59 191 211 255
170.626 101.778 114.844 226 233 255
179.519 86.4317 115.276 196 214 255
121.221 139.528 117.941 211 224 255
200.115 83.487 112.803 214 225 255
178.724 199.112 110.552 193 213 255
113.094 102.065 102.264 255 212 179
66.6257 93.8681 116.216 195 214 255
146.529 144.297 104.303 211 223 255
68.7642 186.281 113.327 207 221 255
119.332 112.121 100.138 244 243 255
68.4174 62.8833 111.092 186 208 255
62.0182 22.9677 112.39 196 214 255
140.312 144.813 111.431 207 221 255
90.1129 118.898 98.286 255 231 211
90.4445 102.764 110.992 234 237 255
118.036 47.7568 116.63 190 211 255
88.6992 159.456 117.202 215 226 255
155.309 117.05 119.699 255 166 87
93.2531 115.847 123.986 238 239 255
110.739 119.547 130.323 253 248 255
90.2181 103.669 110.601 233 237 255
116.356 128.415 125.27 215 226 255
155.266 142.413 118.124 217 227 255
103.253 99.2322 127.122 255 243 232
87.5523 60.561 108.467 202 218 255
201.393 105.741 112.849 202 218 255
151.61 103.493 114.608 255 193 142
99.3572 49.7881 107.815 223 231 255
125.528 136.362 106.541 255 237 221
185.205 151.598 112.658 190 211 255
95.4176 85.6138 109.295 255 242 231
21.3814 127.405 112.435 189 210 255
147.942 113.13 109.81 255 254 249
117.406 136.394 121.439 255 231 212
147.169 86.5258 109.111 255 226 203
62.5878 154.895 113.431 207 221 255
88.1887 150.268 116.278 218 228 255
146.435 87.5091 105.965 205 220 255
171.05 139.907 108.966 198 216 255
79.7054 111.595 110.619 203 218 255
38.473 32.2638 113.779 187 208 255
135.913 74.6983 119.4 204 220 255
93.6857 104.089 118.885 255 229 208
131.613 74.0989 111.161 208 222 255
152.564 162.466 107.84 200 217 255
174.872 85.8353 109.672 226 232 255
110.629 170.667 117.503 242 242 255
129.725 179.765 108.086 197 215 255
39.2337 100.827 113.676 228 233 255
220.846 117.436 112.383 199 216 255
132.066 127.881 103.083 255 176 108
88.0987 74.1522 119.45 212 224 255
124.962 218.82 112.328 187 209 255
110.079 76.8918 110.911 193 212 255
155.697 154.958 118.425 191 211 255
109.541 109.306 96.0094 255 250 243
178.312 84.6752 112.366 191 211 255
109.273 165.325 114.875 207 221 255
142.156 154.857 109.548 221 229 255
121.961 200.57 112.756 204 219 255
95.2745 142.203 118.542 237 239 255
59.3898 95.9864 105.231 193 213 255
71.0764 97.8058 114.665 199 216 255
70.1277 102.71 112.965 199 216 255
153.859 93.3392 103.952 219 228 255
131.044 174.855 113.57 212 224 255
43.1737 83.0686 111.879 190 211 255
171.363 19.8511 115.034 189 210 255
136.144 134.17 124.167 207 221 255
131.846 143.448 111.445 226 233 255
91.8536 175.211 110.238 236 238 255
175.517 133.762 110.171 211 223 255
107.07 125.562 114.424 255 177 110
213.014 79.1639 111.892 193 213 255
89.8252 97.0321 101.062 255 239 226
89.4654 95.7344 101.731 205 220 255
122.165 121.491 128.037 255 246 237
175.887 53.4984 111.357 200 217 255
126.094 212.037 110.823 185 207 255
178.553 124.439 114.303 190 211 255
85.5843 84.3366 105.922 255 252 248
47.5973 115.691 114.195 255 252 248
57.3555 111.724 112.252 202 218 255
161.182 157.969 116.397 214 225 255
75.7007 196.212 113.22 189 210 255
118.051 69.6593 121.35 255 250 243
39.5937 64.96 111.082 216 227 255
43.2006 143.359 108.653 212 224 255
77.0844 142.786 122.193 242 242 255
116.584 68.9627 112.139 208 222 255
152.113 119.17 105.312 255 225 200
121.489 161.576 114.977 255 251 245
122.212 204.006 115.034 209 222 255
65.0703 79.5955 106.105 241 241 255
117.445 124.638 122.099 210 223 255
131.146 85.5279 104.085 247 245 255
118.186 131.423 98.2868 236 238 255
48.0975 115.834 112.961 216 226 255
157.246 88.9892 105.816 255 192 141
153.06 169.125 115.83 189 210 255
120.744 116.485 101.519 255 234 216
41.0236 153.541 113.308 184 207 255
122.214 216.363 114.927 180 204 255
172.072 196.424 111.4 181 205 255
151.631 95.1029 114.834 195 214 255
85.3887 20.0424 111.747 175 201 255
133.173 84.8311 123.013 199 216 255
98.6833 68.4567 120.99 197 215 255
100.163 159.133 118.575 224 231 255
121.019 164.459 108.863 205 220 255
163.661 128.632 120.589 250 246 255
105.048 6.81963 113.055 213 225 255
132.722 202.346 112.339 188 209 255
67.0356 83.1658 116.184 227 233 255
119.543 33.3705 115.562 213 225 255
169.26 88.7991 111.034 195 214 255
165.801 142.27 107.961 197 215 255
116.417 171.914 106.814 200 217 255
35.8005 155.471 112.926 240 240 255
181.275 78.3624 109.596 198 216 255
184.55 153.14 112.687 185 208 255
60.033 128.278 117.083 200 217 255
126.78 184.758 111.698 202 218 255
92.3835 136.751 115.803 215 226 255
177.217 127.783 112.408 181 205 255
86.6576 119.877 109.47 255 253 249
2.18961 110.986 112.292 178 203 255
120.051 108.171 127.984 230 235 255
92.8728 22.1704 112.208 215 226 255
108.936 117.388 101.16 255 186 128
137.362 150.311 105.695 191 211 255
140.039 78.2636 119.225 255 231 211
111.498 45.5663 108.415 227 233 255
148.43 96.2476 118.04 255 242 231
218.065 104.965 112.41 203 219 255
118.766 71.5032 114.124 227 233 255
175.269 105.588 107.793 200 217 255
89.5618 154.461 112.229 220 229 255
94.211 157.522 119.785 255 223 198
157.28 58.6251 116.137 216 226 255
71.2657 174.969 112.547 194 213 255
190.014 74.1343 111.905 197 215 255
152.196 73.8861 108.996 217 227 255
136.751 100.58 118.051 255 217 188
51.0938 87.4993 115.036 198 215 255
38.7038 145.902 112.459 255 254 250
161.475 26.8611 112.588 187 209 255
178.163 88.4455 109.325 196 214 255
167.184 157.472 110.548 183 206 255
86.1709 107.599 119.256 255 251 255
99.6406 109.52 104.374 255 227 204
79.5225 72.0441 117.644 222 230 255
196.004 123.209 114.599 186 208 255
143.253 101.099 124.674 255 175 106
78.4427 156.98 111.486 200 217 255
125.673 67.9215 106.721 186 208 255
46.5909 166.649 112.57 207 221 255
73.8886 130.64 106.794 196 214 255
122.669 57.9758 116.579 213 225 255
164.398 121.431 113.667 217 227 255
74.4943 117.126 105.755 213 225 255
89.6959 93.288 110.678 255 232 214
106.672 155.74 103.199 255 235 218
174.648 90.7325 111.605 184 207 255
101.47 93.8498 107.985 255 206 167
131.281 191.535 114.529 232 236 255
120.337 89.6053 116.874 206 220 255
31.8775 90.263 109.871 187 209 255
47.9803 161.36 115.868 200 217 255
52.4088 64.3611 112.777 199 216 255
120.224 155.505 111.909 244 243 255
4.61811 132.019 114.708 192 212 255
131.574 141.449 106.154 255 221 193
112.808 184.507 113.055 207 221 255
