ply
format ascii 1.0
element vertex 1343
property float x
property float y
property float z
property uchar red
property uchar green
property uchar blue
end_header
141.946 164.08 117.043 207 221 255
27.1077 110.782 111.381 229 234 255
115.751 108.932 104.778 255 186 129
179.126 104.499 111.842 196 215 255
139.317 99.9215 106.238 206 220 255
57.6178 168.738 112.098 181 205 255
126.36 131.457 111.512 218 228 255
112.476 108.175 104.525 255 240 228
41.7873 192.641 110.192 187 208 255
116.942 118.519 105.301 255 197 151
172.208 86.207 113.005 223 231 255
106.173 177.113 111.574 186 208 255
33.8424 104.107 112.179 234 237 255
148.105 151.694 115.479 193 213 255
111.198 223.446 99.7919 186 208 255
125.698 188.596 110.418 196 215 255
83.1541 83.5658 116.885 198 216 255
77.2227 138.54 114.704 255 210 174
54.104 106.621 110.33 212 224 255
36.6184 74.0786 113.466 207 221 255
121.607 128.305 106.043 255 239 226
120.639 113.09 105.412 213 224 255
36.3543 109 114.586 246 244 255
113.774 110.222 99.9516 201 217 255
94.8109 142.145 116.5 248 245 255
113.627 37.5322 110.925 255 241 229
127.577 89.924 115.239 255 255 252
161.227 164.068 115.521 186 208 255
93.1339 175.556 110.852 206 221 255
118.796 109.007 101.297 255 220 192
149.189 163.655 115.502 203 219 255
93.3464 175.504 111.343 205 220 255
131.187 154.385 113.44 192 212 255
78.0472 90.419 103.964 224 231 255
84.3651 25.2661 131.285 201 218 255
118.842 151.934 114.692 255 251 255
77.3975 61.0467 106.93 255 248 241
91.0512 47.9542 113.527 201 217 255
41.0826 182.618 109.374 190 211 255
172.924 132.286 111.482 200 217 255
28.1975 166.024 113.592 192 212 255
114.468 89.2557 111.584 255 240 228
187.122 120.407 113.593 186 208 255
152.988 151.567 115.321 206 220 255
148.449 8.10817 109.542 192 212 255
148.947 103.745 118.61 218 228 255
191.532 83.1253 109.615 213 225 255
93.38 175.718 111.249 255 236 220
96.3186 171.377 113.177 179 204 255
165.051 118.677 107.685 255 237 221
83.2319 131.065 105.935 255 201 158
81.4274 114.748 115.928 187 209 255
115.424 83.0866 121.323 205 220 255
153.166 75.9332 112.652 198 215 255
82.8764 58.8201 117.029 203 219 255
93.4275 175.631 111.229 198 215 255
89.0938 168.505 114.616 197 215 255
183.061 61.937 107.77 200 217 255
101.594 107.171 102.4 203 218 255
109.573 116.429 124.29 255 229 208
174.043 52.6162 114.648 206 220 255
145.493 51.2767 113.383 198 216 255
215.183 117.21 110.299 183 206 255
81.9392 125.99 110.867 255 240 226
103.202 83.8992 118.396 255 255 251
133.836 148.993 108.574 255 244 234
157.773 96.7853 111.761 207 221 255
171.446 139.163 112.382 197 215 255
63.3443 99.7541 112.123 208 222 255
126.013 74.9075 112.784 236 238 255
80.4949 146.218 111.351 196 214 255
208.621 168.888 113.626 186 208 255
129.075 131.876 111.285 255 239 225
135.113 82.0282 113.23 226 233 255
5.1512 114.286 110.493 177 202 255
131.466 102.981 111.053 239 240 255
148.339 92.8111 120.75 250 246 255
144.486 119.215 109.21 212 224 255
66.734 136.405 110.77 227 233 255
74.7606 190.615 110.207 194 213 255
120.259 116.822 107.796 255 183 123
74.3609 155.167 116.887 202 218 255
118.289 109.58 120.577 255 238 224
61.4628 175.627 115.351 203 219 255
73.3636 167.385 116.499 200 217 255
71.0358 144.979 111.383 207 221 255
78.3786 41.2423 112.607 196 215 255
93.5731 175.758 110.815 204 219 255
47.6068 28.2918 107.856 198 215 255
103.108 193.994 112.18 245 243 255
118.793 97.8703 119.327 255 207 170
143.678 8.16275 119.889 190 211 255
86.1912 73.1107 113.895 212 224 255
109.891 101.307 111.198 208 222 255
173.327 43.5345 110.422 183 206 255
149.032 80.9173 111.453 210 223 255
93.248 102.861 107.91 255 240 227
95.1595 140.285 108.835 255 254 250
84.6784 134.186 108.759 255 239 225
79.3915 85.4501 110.933 255 244 233
32.2592 111.458 109.208 224 231 255
216.246 72.4642 110.956 186 208 255
66.6542 28.2181 113.101 192 212 255
117.413 110.826 104.873 255 222 196
52.9009 154.417 110.043 234 237 255
99.76 73.6314 106.029 224 231 255
99.0089 92.0128 104.783 211 223 255
186.721 114.776 109.934 184 207 255
192.19 79.8577 116.368 199 216 255
119.488 114.052 107.613 231 235 255
160.086 89.9075 113.465 187 209 255
157.916 194.991 113.712 190 211 255
93.2972 175.835 111.323 210 223 255
19.3738 178.844 112.692 179 204 255
89.8354 208.802 115.825 208 222 255
162.954 88.8533 114.861 227 233 255
64.5384 132.16 109.732 255 244 233
65.5738 94.2128 114.951 220 229 255
123.508 98.3999 117.06 220 229 255
110.565 35.7793 109.169 205 220 255
115.062 120.028 113.835 255 228 206
55.2465 83.4022 112.322 210 223 255
75.2059 114.957 110.581 255 244 234
103.259 124.356 107.054 255 200 155
116.449 105.361 106.534 255 218 188
110.96 112.907 122.579 255 254 251
21.6429 118.658 114.054 183 206 255
64.4886 115.99 116.074 191 211 255
19.0887 65.5986 107.924 183 206 255
135.623 186.036 111.301 195 214 255
107.074 178.175 109.36 204 220 255
38.4439 92.405 114.905 205 220 255
136.991 97.4046 113.251 255 236 221
59.1203 116.523 117.708 240 241 255
113.481 122.605 120.678 255 255 252
125.471 176.847 109.321 209 223 255
149.617 178.137 109.56 179 203 255
64.595 99.4079 110.381 189 210 255
175.279 170.651 113.473 187 209 255
98.95 158.526 114.05 255 254 250
196.831 174.112 114.768 221 230 255
93.3785 175.745 111.254 206 221 255
93.399 175.626 111.242 208 222 255
78.6535 153.637 112.57 220 229 255
59.9748 135.078 112.795 194 213 255
119.064 91.3082 112.183 215 226 255
115.389 202.434 111.769 183 206 255
162.973 183.496 113.207 181 205 255
93.3952 175.703 111.207 185 208 255
68.2113 197.526 114.226 207 221 255
114.423 91.2505 113.147 235 238 255
80.3481 83.9596 111.171 255 224 200
65.745 72.329 115.73 212 224 255
116.416 122.969 110.628 255 250 255
37.1604 58.42 111.393 181 205 255
61.9821 125.653 115.769 234 237 255
123.664 147.459 111.061 210 223 255
165.743 135.47 113.064 255 234 217
44.9724 119.491 112.9 218 228 255
70.3563 103.768 117.354 255 234 216
97.8015 60.202 113.702 202 218 255
74.9849 56.1767 112.525 191 211 255
76.1347 77.0994 117.856 205 220 255
182.605 62.9016 115.161 194 213 255
203.544 103.276 111.629 189 210 255
211.558 160.513 110.16 213 224 255
61.97 137.716 112.064 204 219 255
103.139 101.01 119.693 243 242 255
108.404 137.481 115.173 255 224 199
92.5072 107.82 109.378 255 244 233
122.665 200.189 107.715 190 210 255
136.391 154.793 118.313 195 214 255
160.009 98.8084 102.624 220 229 255
56.4025 128.843 117.435 234 237 255
97.8017 114.085 121.719 255 252 247
54.8281 97.2189 111.907 189 210 255
36.7515 133.536 112.371 186 208 255
136.04 100.808 110.003 211 224 255
111.471 118.527 120.16 208 221 255
30.3287 113.547 110.05 190 211 255
131.678 71.76 110.103 255 196 147
83.2223 94.6686 116.341 212 224 255
118.358 99.7432 113.898 255 253 249
145.32 39.6543 115.736 197 215 255
91.3838 54.369 114.709 206 221 255
88.6526 79.9377 109.967 220 229 255
57.9828 75.0337 113.508 203 219 255
145.731 157.188 113.674 223 231 255
118.199 105.323 115.014 213 225 255
98.9844 55.1343 117.649 240 240 255
10.0662 100.483 115.34 181 205 255
84.9185 146.364 106.987 201 217 255
102.67 105.225 104.441 255 248 240
53.982 185.079 113.162 183 206 255
112.148 137.667 114.982 211 223 255
59.1314 63.0285 110.441 217 227 255
82.7772 151.857 111.378 255 194 144
16.6426 152.69 111.417 178 203 255
131.667 143.532 108.33 215 226 255
84.7912 97.0893 114.87 234 237 255
138.037 80.4863 117.059 216 227 255
72.3512 25.2112 110.886 185 208 255
125.894 116.301 106.918 220 229 255
97.9515 150.19 108.669 255 240 227
99.7328 137.96 118.784 198 216 255
159.358 148.25 114.872 199 216 255
66.3545 216.746 111.886 187 209 255
79.5761 68.8791 114.261 188 209 255
124.957 13.6305 116.228 192 212 255
213.781 96.8201 111.932 204 219 255
166.68 133.499 115.186 191 211 255
100.781 164.543 114.377 216 226 255
121.402 114.352 116.35 226 232 255
146.864 65.1985 111.829 202 218 255
195.778 128.642 114.581 215 226 255
125.919 105.593 120.657 255 234 217
147.97 96.6196 115.205 255 228 206
76.3809 73.7157 111.433 221 229 255
166.048 95.7309 113.858 216 227 255
106.605 3.86152 104.435 189 210 255
101.035 92.2011 111.3 255 236 220
185.674 71.107 109.407 195 213 255
59.3998 106.691 113.988 255 254 250
109.164 66.6661 109.565 227 233 255
101.615 95.1938 110.216 234 237 255
115.583 109.018 116.342 255 255 252
114.694 113.292 119.933 214 225 255
131.26 104.579 112.011 202 218 255
140.325 27.9176 113.824 191 211 255
70.0421 150.345 114.852 238 239 255
176.819 136.791 112.922 194 213 255
126.578 98.7654 106.862 219 228 255
50.3709 59.7681 110.76 185 207 255
118.315 111.92 116.52 255 204 164
76.5789 131.392 113.532 255 249 241
70.4555 64.7314 109.88 202 218 255
166.508 53.2465 111.32 188 209 255
67.9631 140.312 116.971 210 223 255
56 115.148 113.198 255 190 137
149.395 136.73 112.631 207 221 255
81.3676 82.6494 111.816 229 234 255
69.4998 124.875 116.271 255 244 233
97.0386 25.0611 111.927 183 206 255
126.997 193.736 112.771 202 218 255
107.961 71.9372 108.502 255 235 218
145.126 70.8491 113.373 196 214 255
175.675 83.8484 117.727 219 229 255
132.002 211.355 110.404 218 227 255
52.287 99.8534 112.487 227 233 255
153.411 83.2574 113.265 227 233 255
173.534 84.8765 111.341 228 233 255
123.384 173.547 113.428 251 247 255
83.6693 158.276 114.681 217 227 255
73.3947 150.028 112.018 215 226 255
88.9591 28.9655 111.997 193 213 255
12.2889 156.52 109.505 189 210 255
12.3573 98.3502 113.213 187 209 255
79.0916 79.4192 111.114 255 232 213
142.921 40.7888 112.87 193 213 255
164.2 104.963 111.867 255 232 213
163.291 111.545 114.454 255 251 245
122.873 102.388 104.209 255 240 227
58.0573 127.106 110.398 255 249 255
83.0574 81.0879 107.273 255 226 203
135.115 192.779 112.035 175 201 255
136.312 81.0624 109.617 221 230 255
140.92 132.655 106.387 201 217 255
120.635 145.738 110.128 253 248 255
35.1927 138.21 111.959 196 214 255
92.2278 97.9861 110.388 255 233 214
162.27 151.318 112.093 200 217 255
157.388 124.189 114.173 255 252 247
206.31 158.811 111.79 187 209 255
190.069 41.7197 113.873 191 211 255
90.7099 50.0736 115.536 198 215 255
103.037 111.091 118.139 255 133 5
155.121 203.614 112.851 182 206 255
129.521 190.982 117.36 189 210 255
149.537 137.008 116.978 205 220 255
130.154 126.825 113.831 255 235 219
102.692 163.366 119.045 209 222 255
70.4243 109.199 115.52 186 208 255
53.7578 135.275 114.992 189 210 255
30.78 56.9997 111.974 182 206 255
142.802 18.5005 110.323 188 210 255
123.795 112.786 114.109 232 236 255
151.967 83.8043 113.128 255 248 241
181.032 11.8992 110.974 186 208 255
113.205 118.09 122.538 214 226 255
93.3915 175.683 111.249 205 220 255
187.031 134.126 113.267 255 245 235
149.467 139.819 111.157 198 215 255
93.4813 175.63 111.026 202 218 255
108.421 131.935 107.619 255 212 177
62.0368 128.921 112.678 228 234 255
135.971 66.6376 121.26 255 250 244
173.326 133.543 112.792 246 244 255
95.4511 200.19 111.718 190 210 255
138.858 149.87 110.559 192 212 255
66.7694 110.627 108.731 199 216 255
101.21 219.677 104.251 203 219 255
103.198 111.004 124.899 255 204 163
133.75 162.596 114.617 211 223 255
123.396 124.395 106.025 255 165 85
141.641 71.8837 123.693 206 220 255
93.3693 175.719 111.248 200 217 255
161.847 37.9699 112.294 191 211 255
105.51 94.805 109.5 255 239 226
123.583 106.82 122.426 207 221 255
90.0013 113.1 101.868 198 216 255
118.192 214.758 119.852 199 216 255
47.5602 23.7501 113.686 188 209 255
61.1304 40.4851 115.24 210 223 255
80.893 95.782 110.079 213 225 255
129.481 46.1428 107.971 199 216 255
110.407 107.138 104.688 213 225 255
188.807 27.6408 112.036 189 210 255
54.1136 110.758 109.873 191 211 255
93.6515 175.299 110.929 186 208 255
111.777 116.24 98.1889 255 220 193
104.127 115.741 107.399 201 218 255
107.491 120.522 109.016 255 255 251
119.507 80.6659 113.189 255 254 250
92.9193 175.736 111.311 199 216 255
171.386 88.2193 109.291 237 239 255
65.6429 16.6899 110.485 186 208 255
124.918 177.21 110.983 213 225 255
84.7239 214.78 114.116 181 205 255
168.624 2.78607 111.516 183 206 255
154.779 83.4949 112.639 196 214 255
64.2585 66.8583 118.231 219 228 255
145.01 195.829 124.361 187 209 255
52.4346 163.931 114.799 187 209 255
131.311 71.5087 118.579 200 217 255
162.473 58.1624 110.748 199 216 255
71.2946 63.4335 112.751 199 216 255
124.049 97.406 108.978 196 215 255
58.501 85.6095 112.565 206 221 255
89.3915 153.648 124.586 220 229 255
202.559 108.347 110.602 199 216 255
93.5557 175.997 112.305 202 218 255
106.6 198.02 110.807 200 217 255
179.927 68.7998 114.974 185 207 255
94.54 81.2053 116.563 240 241 255
84.3891 67.7889 107.38 248 245 255
171.577 112.296 116.073 201 217 255
93.4131 175.669 111.245 205 220 255
98.282 86.2797 112.958 255 194 144
15.8545 78.0784 112.867 204 220 255
163.86 119.95 114.391 218 228 255
177.615 114.805 112.56 187 209 255
37.0071 84.582 112.024 187 209 255
57.8267 35.654 129.148 205 220 255
69.292 40.3826 121.866 189 210 255
53.538 69.4214 114.397 255 249 241
20.3624 155.322 113.765 197 215 255
105.297 133.046 113.884 242 242 255
178.62 122.195 114.912 255 234 217
178.539 97.3571 113.825 189 210 255
129.958 79.3269 113.422 255 249 242
124.917 122.912 110.208 255 239 225
164.93 157.373 111.559 212 224 255
91.5027 98.7755 111.163 215 226 255
112.777 39.3312 112.823 191 211 255
150.229 77.56 110.2 206 221 255
114.349 127.005 110.951 255 214 182
22.3422 104.5 112.151 195 214 255
156.908 122.878 112.544 240 240 255
83.0609 57.1568 115.608 195 214 255
156.091 97.4166 114.381 217 227 255
105.588 44.3915 114.111 255 251 245
125.087 24.8309 113.49 186 208 255
106.628 80.2365 108.077 194 213 255
150.568 96.5601 106.606 216 226 255
144.924 141.005 107.577 199 216 255
81.0936 90.5295 106.442 221 230 255
182.787 61.3288 110.416 198 216 255
12.8643 142.17 112.296 223 231 255
177.42 40.632 110.066 193 213 255
95.6531 104.017 118.704 241 241 255
64.7263 98.8213 108.128 188 210 255
173.466 197.31 115.725 181 205 255
172.835 196.423 113.805 184 207 255
83.8001 149.434 116.454 255 222 196
74.3676 71.6925 107.459 189 210 255
142.46 148.57 109.92 255 250 244
148.936 51.0975 112.273 199 216 255
118.068 132.91 108.3 214 226 255
96.3697 85.9251 119.627 220 229 255
131.53 77.0536 115.13 197 215 255
120.215 101.099 112.949 255 219 191
58.5688 46.0714 112.828 196 214 255
151.132 78.2095 115.825 219 229 255
118.29 69.0051 105.237 255 244 234
96.4745 160.168 108.476 199 216 255
117.664 117.148 114.083 254 249 255
179.932 122.537 109.237 208 222 255
37.799 80.611 112.525 192 212 255
44.8334 55.6561 112.11 202 218 255
55.5086 149.265 109.943 179 204 255
165.894 141.581 113.769 203 219 255
91.569 126.414 119.696 196 214 255
83.6875 181.302 112.253 195 214 255
137.854 74.593 115.339 196 214 255
173.629 112.048 112.441 197 215 255
161.401 165.56 101.052 255 246 237
104.872 86.8123 104.948 219 228 255
21.2251 60.7762 114.15 186 208 255
123.011 122.748 112.736 255 239 225
78.5455 131.139 109.008 255 247 238
101.566 179.269 111.056 216 226 255
147.336 123.87 114.179 225 232 255
93.9184 98.5434 110.994 196 215 255
99.5701 77.6142 120.215 232 236 255
173.13 24.6417 113.183 179 204 255
141.027 180.441 109.297 203 219 255
64.479 83.446 107.603 197 215 255
107.072 98.5321 110.657 255 202 159
104.205 174.924 110.161 197 215 255
93.1584 175.657 111.325 225 232 255
92.0302 57.2096 107.869 194 213 255
195.827 47.3495 112.415 190 211 255
115.394 113.988 121.67 255 253 249
73.2253 49.1053 113.264 187 208 255
32.5538 47.1273 114.712 193 212 255
98.2912 134.586 112.172 191 211 255
97.0844 174.991 111.575 202 218 255
144.741 76.4864 123.886 195 214 255
88.0125 91.4714 110.008 232 236 255
93.3938 175.706 111.231 204 219 255
64.0597 134.282 110.97 207 221 255
104.581 164.01 111.065 238 239 255
191.118 136.861 120.386 202 218 255
136.526 204.288 110.785 189 210 255
114.247 49.2535 114.579 212 224 255
31.6282 181.897 110.137 194 213 255
117.892 60.0965 114.285 200 217 255
130.815 4.05823 111.273 212 224 255
136.318 50.8269 107.872 193 212 255
117.939 117.216 115.009 255 130 0
112.084 123.639 113.029 201 217 255
51.2109 107.011 111.229 208 222 255
162.652 83.0806 103.247 194 213 255
174.514 113.696 111.031 196 214 255
126.108 127.968 112.558 237 239 255
36.3794 111.15 110.522 228 234 255
106.901 74.0127 114.382 223 231 255
183.212 132.711 111.494 191 211 255
51.4715 121.901 97.4086 191 211 255
118.764 145.588 109.913 255 248 240
149.288 101.293 104.331 206 220 255
112.994 119.614 105.508 242 242 255
97.7632 56.5003 114.669 202 218 255
182.363 119.553 125.118 203 219 255
100.34 139.088 119.39 203 219 255
198.752 130.126 111.038 195 214 255
96.6412 20.5582 111.8 214 225 255
128.465 93.1407 116.903 255 157 66
93.377 175.744 111.255 185 207 255
113.115 59.3869 113.937 192 212 255
101.724 133.431 114.193 204 220 255
106.058 139.666 107.564 227 233 255
53.6874 65.1422 110.147 188 209 255
122.597 113.18 104.273 255 246 238
197.855 61.4063 111.825 187 209 255
92.9364 99.9558 111.207 205 220 255
93.3824 175.73 111.251 202 218 255
102.9 91.1451 137.332 206 221 255
93.3801 175.73 111.252 217 227 255
30.1604 78.0018 113.496 221 230 255
155.556 92.9267 111.022 212 224 255
85.0124 105.532 105.951 209 222 255
93.3839 175.712 111.25 194 213 255
93.902 175.601 111.776 231 235 255
96.0583 79.8753 110.495 255 236 221
128.114 114.84 103.469 216 226 255
134.652 80.6603 109.933 255 247 238
77.4354 141.08 111.268 231 235 255
121.178 117.005 123.353 231 235 255
144.043 202.462 112.016 192 212 255
76.7371 36.5388 112.364 202 218 255
81.9283 151.315 110.903 218 228 255
40.8656 71.3908 115.199 205 220 255
114.931 151.219 112.645 255 224 199
183.822 108.587 128.525 255 244 233
93.3981 175.665 111.243 245 243 255
45.0833 131.15 114.154 196 215 255
73.3672 132.403 115.814 249 246 255
113.086 81.1042 112.142 206 221 255
186.872 66.0382 111.676 185 207 255
158.508 96.8575 110.48 201 217 255
97.7374 85.5698 110.136 239 240 255
109.838 175.49 110.216 200 217 255
65.4736 135.293 113.982 189 210 255
121.534 75.6072 116.949 255 243 231
98.5196 123.498 105.735 224 231 255
39.2935 199.859 112.77 197 215 255
80.5196 56.0657 111.285 229 234 255
208.687 112.66 112.571 190 211 255
112.804 34.1408 114.274 203 219 255
93.3513 175.502 111.3 208 222 255
102.404 123.243 116.314 220 229 255
47.3655 82.5359 111.157 204 219 255
116.075 136.828 111.933 255 228 207
137.078 81.2753 112.796 255 238 223
138.956 88.8102 107.396 224 231 255
76.5365 122.478 102.579 200 217 255
159.004 110.627 114.05 250 246 255
88.1996 103.084 120.507 227 233 255
90.8631 51.7115 110.095 229 234 255
48.2768 119.267 113.261 255 251 255
94.732 148.836 113.102 255 234 217
95.5029 176.831 111.212 202 218 255
209.576 140.797 111.362 194 213 255
145.01 151.494 111.596 199 216 255
168.127 8.3988 109.809 185 207 255
209.236 76.5311 114.183 189 210 255
121.984 50.915 109.345 217 227 255
107.779 104.974 124.344 255 236 221
122.768 97.1632 101.88 255 224 199
98.0514 132.543 122.227 194 213 255
82.3378 152.245 110.481 226 232 255
120.666 104.185 108.812 206 221 255
117.715 113.302 103.647 255 249 242
85.5335 81.3121 107.764 199 216 255
97.3401 12.0922 114.212 186 208 255
93.5254 175.708 111.192 203 218 255
109.579 121.66 106.25 255 244 234
109.38 77.1133 110.38 255 239 225
81.1192 76.305 113.672 199 216 255
92.1944 27.0633 110.392 195 213 255
118.761 68.3004 113.509 214 225 255
85.0397 147.154 119.047 254 248 255
163.662 134.85 116.304 218 228 255
132.175 106.246 113.915 206 220 255
55.9712 93.6639 110.785 216 226 255
105.709 46.9572 119.328 199 216 255
93.5052 175.41 111.015 219 228 255
113.006 76.3153 112.821 201 218 255
206.65 140.802 113.861 195 214 255
200.564 73.6631 110.866 184 207 255
121.327 161.057 107.829 255 250 244
102.531 111.358 112.261 255 208 171
78.9811 80.1098 105.468 255 230 209
30.6885 67.906 112.208 197 215 255
61.087 133.105 112.897 186 208 255
147.186 127.976 120.148 247 244 255
125.102 120.756 108.706 255 235 218
141.642 176.347 113.399 218 227 255
114.812 118.593 109.834 223 230 255
88.7461 80.0314 114.968 208 222 255
103.268 215.826 106.709 178 203 255
94.3914 98.7419 113.247 251 247 255
102.386 52.4477 114.22 196 214 255
116.897 110.099 105.717 246 244 255
153.015 13.5094 111.573 218 228 255
61.253 138.012 116.99 214 225 255
191.337 99.3874 112.45 189 210 255
158.097 118.86 107.497 199 216 255
100.344 131.726 107.193 198 216 255
156.923 158.723 112.37 202 218 255
150.338 85.6148 108.838 219 228 255
199.384 97.7594 113.419 189 210 255
116.753 126.225 111.057 209 222 255
133.414 152.294 112.812 199 216 255
86.1344 120.735 120.329 246 244 255
93.3448 175.802 111.254 202 218 255
93.3775 175.695 111.258 255 225 201
105.291 103.242 123.247 218 228 255
118.589 135.423 119.831 255 127 0
73.5924 144.395 115.745 220 229 255
185.411 150.694 113.799 181 205 255
124.538 127.976 110.327 242 242 255
93.4184 174.997 110.45 229 234 255
117.846 143.443 105.317 255 247 239
102.416 128.735 114.022 255 231 211
128.8 187.821 111.862 194 213 255
150.168 164.893 116.235 213 225 255
44.5339 27.5731 115.39 185 207 255
74.3149 78.4611 114.758 193 213 255
150.734 140.1 106.351 213 224 255
49.3402 128.558 113.349 187 209 255
123.702 110.435 111.655 241 241 255
68.044 41.4185 107.569 194 213 255
112.925 36.3424 114.058 192 212 255
144.774 81.0984 112.608 209 222 255
65.7705 86.1101 118.248 199 216 255
177.238 32.2732 116.917 188 210 255
93.3581 175.757 111.27 230 235 255
117.859 113.77 107.94 206 220 255
108.479 100.68 103.086 238 239 255
92.1569 99.4378 112.023 255 247 238
132.089 48.4321 109.306 202 218 255
74.5373 183.415 112.476 191 211 255
78.0683 203.213 112.52 206 221 255
93.3934 175.676 111.248 187 209 255
31.7827 97.0741 110.51 207 221 255
158.205 139.751 107.992 255 223 197
89.6773 107.259 101.872 255 251 246
93.2562 175.65 111.481 213 225 255
104.953 97.6485 119.605 214 225 255
132.046 77.2208 112.863 213 225 255
94.8867 112.699 115.145 255 251 245
157.338 130.125 116.354 255 248 241
128.27 82.9908 120.389 213 225 255
109.867 111.032 101.372 255 211 175
167.717 158.787 108.566 228 233 255
59.8842 80.1311 107.713 192 212 255
138.189 158.979 116.029 197 215 255
146.283 34.7378 111.859 201 217 255
104.89 116.972 126.712 251 247 255
118.746 112.428 106.166 255 244 234
22.5456 82.7148 112.363 199 217 255
87.4772 34.3162 109.86 207 221 255
67.5991 112.701 118.002 255 230 210
79.9437 97.7645 111.714 224 231 255
41.7181 52.1738 109.28 184 207 255
130.454 150.695 114.104 211 224 255
113.995 68.0282 117.166 194 213 255
87.5923 91.0265 104.671 227 233 255
10.7205 133.686 113.081 183 206 255
109.395 49.185 108.522 204 219 255
122.916 87.8014 109.147 255 238 223
168.958 130.47 117.138 255 255 252
132.205 120.659 122.633 214 226 255
134.852 184.16 113 215 226 255
105.186 98.6478 113.07 206 220 255
161.86 85.682 113.658 198 216 255
33.9707 64.7373 109.399 197 215 255
120.686 117.783 112.715 255 198 152
72.5118 133.045 112.311 255 251 245
107.706 89.1255 116.549 199 216 255
104.54 96.1023 108.215 255 234 216
93.1954 175.614 111.256 200 217 255
153.345 131.027 112.473 202 218 255
142.685 5.49823 111.625 212 224 255
147.125 122.274 108.415 229 234 255
110.503 118.335 118.666 224 231 255
146.597 167.317 112.74 248 245 255
121.707 105.72 117.915 232 236 255
129.547 121.424 114.733 255 211 175
163.584 166.709 112.849 182 206 255
131.252 78.6339 107.887 255 231 211
102.727 168.726 112.667 211 224 255
129.469 93.082 119.585 224 231 255
109.895 146.577 119.23 255 219 190
164.137 106.764 108.851 224 231 255
143.068 75.8987 115.427 241 241 255
117.505 91.5031 119.806 202 218 255
160.082 147.981 116.413 216 227 255
128.798 83.6308 105.291 211 223 255
154.135 127.571 117.225 255 203 161
13.487 79.6185 110.665 182 206 255
93.3875 175.704 111.248 192 212 255
199.196 118.179 108.652 191 211 255
171.716 139.927 107.746 189 210 255
90.6769 130.712 105.372 217 227 255
86.0791 124.623 122.026 255 182 121
20.0483 127.405 112.005 190 211 255
153.656 53.4526 114.796 185 207 255
95.4203 49.9815 117.888 239 240 255
34.6592 62.6036 110.218 216 226 255
85.6801 112.913 105.736 255 237 222
120.32 99.5904 116.603 255 230 209
83.3193 156.791 115.736 201 218 255
103.373 92.689 110.769 255 238 224
80.5717 215.387 109.465 184 207 255
86.1908 60.6037 117.104 194 213 255
152.164 126.984 120.667 211 223 255
128.498 86.7176 103.525 187 209 255
153.863 84.7001 114.547 225 232 255
96.1264 139.952 111.835 225 232 255
79.4885 33.5047 113.253 190 210 255
47.1863 83.0351 111.798 197 215 255
93.3713 175.735 111.258 198 215 255
97.6658 107.909 121.339 209 222 255
120.988 144.602 112.195 255 242 229
111.778 103.084 111.223 255 245 235
134.501 77.4363 106.187 255 251 244
66.2833 90.0394 108.494 213 225 255
93.2524 175.937 111.146 195 213 255
122.626 138.711 110.502 255 247 239
186.213 110.457 113.221 229 234 255
153.157 23.1146 111.899 203 219 255
70.698 57.4776 111.565 210 223 255
115.757 111.393 116.594 211 223 255
57.9959 127.338 111.654 223 231 255
116.153 102.169 103.923 255 234 217
94.5095 136.747 110.151 231 235 255
102.088 79.2128 116.679 255 253 248
109.059 71.2918 107.626 204 219 255
64.2282 144.293 113.479 190 211 255
118.744 125.149 116.508 255 246 236
87.8293 29.5141 98.378 189 210 255
123.778 152.581 113.129 213 224 255
93.3614 175.754 111.25 199 216 255
141.586 85.4604 121.025 255 182 121
4.6085 91.6881 112.856 198 215 255
181.052 195.666 112.216 198 216 255
81.5101 145.791 111.414 255 245 236
147.066 186.163 123.916 204 220 255
76.8213 135.392 114.193 213 225 255
154.787 124.259 115.008 237 239 255
121.269 85.1721 106.368 208 221 255
111.827 103.614 115.635 209 223 255
95.8319 135.619 118.066 255 246 236
6.45422 111.423 110.885 182 206 255
145.631 172.116 113.176 192 212 255
192.377 26.2378 104.904 191 211 255
148.833 180.844 115.669 202 218 255
116.667 101.282 105.978 225 232 255
98.9696 97.4918 105.279 224 231 255
174.43 124.88 114.616 188 209 255
54.0549 175.971 111.366 187 209 255
31.7876 106.733 113.294 191 211 255
64.6096 107.918 117.05 255 215 183
130.737 95.4847 112.947 255 239 225
161.896 51.2787 113.362 226 233 255
75.8172 65.363 113.283 193 213 255
135.75 89.286 116.28 255 247 239
183.971 134.845 114.72 196 214 255
85.9005 61.7896 110.524 197 215 255
141.051 4.56277 114.771 194 213 255
2.8313 118.799 109.532 190 211 255
107.443 80.4007 112.046 221 229 255
44.3084 36.9858 111.82 236 238 255
188.583 73.6662 112.476 191 211 255
159.868 52.1304 116.421 191 211 255
129.067 78.5757 120.053 242 242 255
135.17 75.555 117.219 255 247 239
93.3758 175.748 111.261 220 229 255
10.8168 145.857 111.068 255 245 236
65.735 112.705 118.492 231 235 255
112.705 89.2352 116.075 255 241 228
164.923 137.584 118.327 212 224 255
80.6566 144.309 112.793 211 224 255
78.7465 144.894 111.65 208 222 255
115.384 111.963 115.117 226 233 255
140.645 5.10591 111.248 189 210 255
93.42 175.641 111.189 255 253 248
170.83 128.701 109.677 207 221 255
79.1674 160.497 112.154 255 245 236
106.919 81.594 119.922 202 218 255
133.018 86.9177 120.521 255 215 184
118.393 108.966 117.08 242 242 255
132.44 96.7202 104.75 255 210 174
166.628 161.236 111.773 198 216 255
137.278 159.087 116.538 205 220 255
117.238 142.384 108.178 208 222 255
138.196 100.406 121.634 255 249 255
156.315 149.513 109.264 222 230 255
130.77 120.822 117.879 255 244 233
138.23 75.2784 112.868 188 209 255
97.8952 176.392 113.042 222 230 255
109.457 69.4527 111.463 225 232 255
143.467 77.1058 112.027 193 213 255
66.2148 162.108 111.926 255 252 247
166.485 199.05 110.392 189 210 255
69.6846 124.18 112.563 214 225 255
46.9543 82.0992 112.766 202 218 255
71.031 59.408 110.328 209 222 255
57.3912 115.089 115.151 200 217 255
145.957 133.686 103.993 215 226 255
146.17 121.394 105.783 232 236 255
58.2109 152.658 111.606 255 250 243
52.3124 117.762 111.425 255 251 255
93.4434 175.609 111.227 192 212 255
93.3881 175.697 111.249 198 215 255
58.2155 124.91 108.536 217 227 255
138.704 131.514 116.11 255 204 163
92.3183 131.936 110.703 232 236 255
135.019 11.6711 111.039 191 211 255
83.9632 131.165 109.155 255 251 255
94.2524 113.207 121.087 255 234 216
21.4119 58.9362 113.644 185 207 255
179.419 123.873 138.534 255 240 226
87.7922 121.878 114.8 223 230 255
129.668 115.559 119.234 255 241 229
82.7969 146.286 113.489 227 233 255
90.3126 115.374 124.051 197 215 255
205.601 141.768 110.169 191 211 255
108.054 144.49 112.029 255 231 212
140.476 29.446 114.073 201 218 255
137.339 73.7523 115.574 193 213 255
164.6 106.349 108.584 255 236 221
14.4023 106.558 111.186 200 217 255
152.1 87.5669 118.885 204 219 255
117.829 39.2781 111.168 186 208 255
40.5045 92.6115 118.082 207 221 255
107.213 98.566 108.197 237 239 255
112.922 154.573 114.599 255 254 251
176.708 183.424 113.56 193 213 255
57.505 105.121 112.504 221 230 255
152.771 82.9652 113.678 191 211 255
107.36 53.7029 113.425 210 223 255
107.164 141.413 115.02 209 223 255
148.445 171.443 112.093 255 252 248
189.532 95.217 111.59 198 215 255
141.999 68.5254 113.776 197 215 255
119.953 102.639 115.747 255 205 165
115.055 124.905 108.617 230 235 255
161.629 120.579 107.204 204 219 255
127.093 67.9431 116.306 199 216 255
77.0647 105.756 115.139 221 229 255
138.906 147.645 119.19 194 213 255
88.8906 126.375 112.076 243 242 255
113.687 76.3754 110.304 255 219 190
86.4045 95.2368 114.564 222 230 255
109.634 34.1298 112.352 226 232 255
136.973 52.6207 112.761 207 221 255
95.0369 85.2719 111.205 227 233 255
173.985 130.426 112.817 198 216 255
76.0072 108.776 114.032 200 217 255
81.0166 150.352 111.716 212 224 255
93.3811 175.721 111.253 195 214 255
110.627 110.061 99.7341 255 238 223
107.678 35.9038 108.944 186 208 255
26.2855 63.7368 114.201 190 210 255
153.744 105.869 112.114 215 226 255
101.334 124.3 113.067 224 231 255
148.656 105.452 105.344 231 235 255
139.865 72.8099 120.86 218 228 255
208.77 143.787 113.168 182 206 255
115.476 136.644 109.091 255 238 223
149.154 138.214 115.272 219 228 255
114.386 149.969 111.246 237 238 255
111.699 47.2176 114.276 255 221 194
102.081 82.1792 115.089 212 224 255
122.399 191.612 107.257 189 210 255
151.813 93.9405 115.749 202 218 255
56.237 81.3745 111.044 195 214 255
83.7867 158.675 115.73 200 217 255
76.9438 99.1039 114.372 186 208 255
150.854 140.301 108.65 200 217 255
184.701 41.5116 113.757 191 211 255
69.7011 138.582 113.947 197 215 255
119.187 107.334 110.261 229 234 255
46.7151 58.5654 111.837 204 219 255
79.7887 85.5252 111.89 222 230 255
81.9825 84.5075 108.972 215 226 255
129.572 128.351 112.955 231 235 255
119.237 87.8156 110.462 255 252 247
136.222 126.419 107.083 198 215 255
40.9717 174.9 110.982 187 209 255
87.6003 106.357 101.754 255 205 165
115.954 195.933 109.073 190 211 255
137.856 79.1328 116.509 220 229 255
78.1174 108.48 114.062 226 232 255
180.945 78.9349 111.626 196 215 255
157.115 70.7384 109.114 238 239 255
177.421 99.316 114.076 230 235 255
56.1127 117.945 116.495 206 220 255
149.219 79.3342 114.205 230 235 255
159.821 200.218 110.959 187 209 255
94.3106 137.201 103.172 218 228 255
59.8854 209.933 111.252 179 203 255
110.409 54.8536 110.569 195 214 255
137.408 131.77 105.268 221 229 255
109.383 126.035 109.723 246 244 255
116.539 111.063 117.302 199 216 255
155.388 122.84 112.241 203 218 255
93.3966 175.681 111.25 197 215 255
156.354 142.702 110.743 255 205 165
133.225 77.6187 111.703 255 248 240
136.668 100.31 105.098 255 245 235
123.734 128.007 112.713 199 216 255
7.34495 132.465 113.723 184 207 255
174.243 38.5455 114.687 188 209 255
73.5258 50.697 109.482 196 215 255
130.986 98.1802 110.752 255 248 240
123.629 111.856 113.519 223 231 255
187.953 65.3296 116.063 204 219 255
93.3768 155.013 116.288 255 216 184
221.765 125.721 112.725 182 206 255
120.47 112.886 106.927 208 222 255
161.649 95.5373 116.852 223 231 255
40.2281 99.4286 113.571 210 223 255
92.3633 171.614 112.557 206 221 255
68.9182 70.8219 116.075 255 249 242
146.969 140.25 104.389 225 232 255
128.453 111.676 107.028 229 234 255
162.476 90.6008 119.111 192 212 255
84.1242 152.459 116.518 199 216 255
82.8549 103.353 107.067 225 232 255
93.2988 175.691 111.2 255 247 238
84.7198 74.4349 109.318 199 216 255
110.173 123.182 108.069 217 227 255
117.618 112.082 115.468 234 237 255
94.6313 66.9014 109.4 214 226 255
41.6983 131.966 111.91 204 219 255
97.1931 95.4296 113.034 219 229 255
104.86 106.164 112.48 255 157 65
40.7762 64.5461 111.431 191 211 255
176.936 144.322 107.041 215 226 255
219.209 133.382 111.238 204 219 255
136.362 71.6016 118.369 206 221 255
81.2835 122.035 118.534 204 219 255
163.101 98.0303 117.587 248 245 255
174.737 132.081 109.816 208 222 255
35.9249 97.1862 113.762 192 212 255
98.4106 119.148 107.012 219 228 255
154.175 156.062 112.778 191 211 255
131.355 86.9673 102.639 243 242 255
200.814 103.824 110.223 194 213 255
91.4279 151.515 115.248 191 211 255
191.073 176.117 116.355 179 204 255
28.5133 83.52 114.182 220 229 255
93.302 175.914 111.044 247 245 255
84.576 57.5597 113.956 218 228 255
91.9129 135.183 102.952 218 228 255
75.4181 140.49 108.691 255 250 255
141.528 13.7522 113.458 185 208 255
115.333 142.66 110.286 231 236 255
151.37 118.814 113.966 213 225 255
122.611 107.663 102.161 255 225 202
110.969 102.675 119.944 255 239 226
100.699 118.881 117.087 212 224 255
49.4697 86.8337 113.116 206 220 255
84.8146 131.588 112.324 243 242 255
61.8042 155.714 115.996 207 221 255
112.316 55.0475 107.22 206 221 255
110.005 109.568 122.716 201 218 255
152.046 153.751 108.907 232 236 255
54.5812 131.896 112.464 222 230 255
81.9261 133.708 114.488 209 222 255
166.485 99.559 112.03 220 229 255
159.803 90.1527 111.008 186 208 255
126.123 123.808 117.907 223 231 255
105.892 100.991 115.49 223 231 255
56.4688 87.0206 113.083 190 211 255
145.266 101.407 113.121 219 228 255
114.421 144.081 114.815 234 237 255
128.841 121.595 114.003 255 213 179
29.046 87.1859 114.922 227 233 255
127.431 138.357 106.287 222 230 255
115.254 168.2 112.644 255 234 217
164.516 182.781 112.786 194 213 255
101.179 42.0472 113.032 253 248 255
82.1794 121.022 116.266 230 235 255
142.662 99.0999 123.188 255 251 245
103.983 103.035 111.48 255 199 154
170.949 153.332 115.631 216 226 255
57.1609 82.8675 109.551 193 212 255
147.437 147.921 111.759 196 214 255
149.305 209.054 110.99 185 208 255
193.221 145.098 116.617 195 214 255
83.8145 84.104 112.391 255 212 179
154.26 125.817 115.687 206 220 255
99.9036 102.388 116.302 197 215 255
63.6643 145.147 115.894 255 222 197
98.1374 99.2605 105.185 231 235 255
176.399 46.3746 112.989 193 212 255
148.915 179.239 112.818 187 209 255
202.921 174.896 112.327 207 221 255
20.313 58.7488 111.591 218 228 255
69.686 56.7786 111.905 193 213 255
153.655 34.7748 112.433 189 210 255
139.833 81.9071 117.852 197 215 255
82.4316 187.933 110.163 182 206 255
97.3933 109.921 107.164 255 177 110
96.1908 172.615 110.754 221 229 255
131.562 190.175 111.004 199 216 255
160.718 195.433 112.149 194 213 255
124.52 139.034 106.258 202 218 255
60.4611 71.9286 109.603 209 222 255
148.611 72.2513 114.526 236 238 255
85.9748 89.5135 111.427 218 228 255
177.656 119.95 112.526 203 218 255
123.174 97.1543 121.246 255 201 158
170.839 108.782 111.397 223 231 255
81.0399 146.92 114.863 222 230 255
132.265 149.96 108.281 227 233 255
93.2696 175.639 111.111 191 211 255
175.717 141.751 111.577 192 212 255
110.361 146.988 110.853 255 252 248
134.623 106.368 122.054 224 231 255
113.073 119.43 109.186 255 229 209
87.8995 76.1266 113.378 255 251 245
84.2449 74.8466 108.236 240 240 255
146.578 126.192 109.021 254 248 255
109.153 101.404 111.187 203 219 255
196.034 88.2719 115.795 193 213 255
217.209 93.0655 108.525 182 206 255
143.581 157.192 115.104 224 231 255
92.1221 64.4664 106.426 225 232 255
147.132 112.597 104.557 217 227 255
57.0741 181.039 113.354 214 225 255
132.377 83.3363 109.026 255 237 221
171.438 110.827 112.176 200 217 255
108.378 102.787 114.315 255 144 35
41.0345 62.5349 110.91 195 214 255
143.062 139.798 107.843 222 230 255
165.674 81.0396 116.408 236 238 255
100.798 91.5561 113.4 242 242 255
38.8285 151.424 113.738 186 208 255
27.991 57.0565 113.024 185 207 255
97.1952 94.2084 103.25 194 213 255
163.57 122.523 116.152 255 235 218
91.8163 136.228 106.844 197 215 255
69.993 131.034 118.779 226 232 255
103.521 24.9685 116.141 186 208 255
139.197 68.3149 104.677 218 228 255
171.64 107.678 115.211 201 218 255
59.6415 52.318 110.297 205 220 255
166.397 157.587 111.047 209 223 255
152.189 177.514 112.27 214 225 255
150.169 101.109 111.597 227 233 255
140.462 127.233 115.758 219 228 255
52.9639 20.966 108.489 189 210 255
6.35337 152.283 110.045 204 219 255
72.3092 219.612 109.62 198 215 255
103.091 78.6377 105.198 216 226 255
192.603 153.866 116.88 188 209 255
118.877 170.635 114.473 205 220 255
70.0975 139.998 109.786 255 233 214
115.968 61.6957 117.016 206 221 255
110.268 125.984 108.698 215 226 255
106.351 115.39 105.062 250 246 255
205.507 112.297 112.536 193 213 255
120.174 160.309 112.162 255 226 203
162.346 90.6871 111.979 213 225 255
114.762 117.698 98.9742 255 183 122
83.5428 105.19 107.306 224 231 255
144.725 133.63 116.413 215 226 255
71.8844 78.3031 120.433 196 214 255
87.3655 110.68 117.149 235 238 255
179.906 14.1721 111.721 190 211 255
114.098 111.364 117.491 255 176 109
125.059 78.7684 115.811 191 211 255
71.8836 49.4918 109.248 202 218 255
82.4661 100.812 113.095 255 187 130
130.302 136.902 107.744 255 153 56
54.9201 31.4957 113.081 208 222 255
85.5408 51.6498 115.843 198 215 255
108.151 53.0508 108.533 203 218 255
51.8926 85.0194 113.11 225 232 255
201.17 67.9524 115.881 204 219 255
156.807 34.7543 111.206 183 206 255
97.1603 175.433 112.653 196 214 255
152.513 98.4875 108.49 255 248 240
79.1341 14.1916 109.189 192 212 255
110.42 123.461 117.643 255 213 179
103.33 108.764 110.986 255 217 187
96.8748 29.0016 112.096 220 229 255
167.836 61.309 116.418 197 215 255
141.277 101.902 112.699 225 232 255
137.283 174.183 108.664 189 210 255
120.533 172.213 111.814 231 235 255
107.629 118.535 109.529 255 200 156
106.16 128.098 106.274 255 223 197
135.862 175.976 111.44 196 214 255
64.1087 129.997 114.49 255 246 236
68.1051 57.9392 111.915 194 213 255
147.366 120.462 105.896 255 250 243
203.63 52.9981 110.821 189 210 255
114.586 109.196 105.118 255 189 135
93.0418 176.247 111.945 189 210 255
181.236 139.121 112.589 185 207 255
49.9258 175.765 114.775 197 215 255
86.2397 92.6954 113.107 200 217 255
61.6022 198.705 112.723 194 213 255
62.5512 131.232 114.778 199 216 255
105.772 153.463 116.831 212 224 255
97.3477 152.673 117.004 255 244 234
143.214 141.302 115.675 250 246 255
148.057 205.66 108.844 191 211 255
134.207 114.617 111.982 255 244 233
105.592 113.67 121.388 255 202 160
92.5971 42.2098 111.589 186 208 255
103.171 125.439 107.61 255 248 239
137.573 124.047 116.834 232 236 255
158.691 199.983 112.137 197 215 255
25.6215 112.455 112.117 190 211 255
86.6323 47.8295 113.818 197 215 255
110.727 71.6782 119.018 196 214 255
117.309 118.197 121.08 255 249 243
148.586 85.9036 114.13 225 232 255
129.055 136.4 117.205 237 239 255
15.5629 81.8042 111.893 186 208 255
52.4031 115.119 111.998 203 219 255
163.536 74.539 113.164 203 218 255
10.6052 84.8025 115.644 191 211 255
116.604 179.817 109.233 196 214 255
92.1694 97.1568 110.971 255 214 181
73.5608 159.729 110.513 199 216 255
199.186 78.5935 115.718 194 213 255
122.713 128.925 110.294 210 223 255
159.404 68.2764 115.862 222 230 255
163.672 114.132 106.23 207 221 255
93.3804 175.724 111.251 211 223 255
38.27 51.609 110.649 198 216 255
8.64912 94.4406 112.222 190 211 255
32.9709 82.2642 109.828 196 214 255
92.9532 92.683 110.894 200 217 255
120.998 144.579 114.838 225 232 255
94.4596 175.423 110.467 189 210 255
92.1274 135.642 118.27 222 230 255
121.122 99.0332 112.885 215 226 255
140.823 135.03 107.129 205 220 255
80.1886 151.51 116.035 255 240 226
34.659 51.9529 111.763 186 208 255
77.4399 146.927 113.429 193 213 255
168.228 136.084 115.31 206 221 255
110.559 121.063 105.099 255 234 216
76.1235 45.1715 95.72 190 210 255
56.2298 121.227 108.245 227 233 255
126.598 145.88 108.043 217 227 255
143.159 72.4587 110.463 222 230 255
27.0612 104.824 111.426 195 214 255
170.553 100.498 108.41 210 223 255
119.793 147.201 114.418 255 235 219
140.238 66.4695 115.181 209 222 255
106.919 120.271 109.785 255 195 146
78.8868 89.5641 115.65 197 215 255
108.599 106.118 117.116 213 225 255
126.135 68.8402 113.881 217 227 255
151.315 116.819 107.895 203 219 255
120.295 152.29 110.455 210 223 255
133.69 77.9781 116.069 255 240 227
150.448 145.739 118.038 225 232 255
142.495 108.379 106.22 218 228 255
56.0219 131.916 111.416 255 251 246
118.378 94.2174 112.513 255 227 205
106.141 108.467 118.348 246 244 255
150.279 106.308 111.802 211 223 255
166.591 67.8584 111.622 212 224 255
46.0182 54.0669 112.887 198 216 255
100.123 99.0951 102.681 255 225 201
115.625 111.868 115.339 255 253 249
115.836 82.449 113.723 230 235 255
69.3307 112.009 104.806 247 244 255
116.893 102.269 120.357 255 243 232
51.7296 103.506 113.866 203 218 255
107.258 136.196 112.696 255 250 255
116.375 111.274 115.725 230 234 255
110.612 154.857 110.763 199 216 255
165.816 113.992 110.283 255 249 241
100.445 173.415 109.907 190 211 255
171.077 109.475 114.957 195 214 255
28.7296 122.73 111.146 213 225 255
98.2651 176.017 114.129 196 214 255
117.247 110.489 99.8194 225 232 255
139.008 189.137 111.514 202 218 255
120.696 123.84 120.203 255 224 200
85.447 76.5049 105.585 212 224 255
170.366 127.074 110.484 192 212 255
140.34 53.3405 111.312 205 220 255
168.597 152.588 107.97 192 212 255
93.3885 175.694 111.25 233 236 255
120.279 108.774 112.112 226 232 255
153.955 109.877 113.26 193 213 255
99.5917 154.052 118.154 232 236 255
119.906 168.138 114.155 208 222 255
37.9268 153.109 117.577 189 210 255
130.58 5.55562 103.82 186 208 255
165.828 30.3181 113.824 204 219 255
116.01 194.09 109.167 183 207 255
187.489 108.517 113.377 214 225 255
206.844 154.125 113.715 188 209 255
109.226 119.797 119.477 255 154 59
202.866 80.127 111.187 182 206 255
101.185 60.458 119.9 213 225 255
126.937 106.963 110.015 224 232 255
93.3917 175.717 111.253 255 242 229
66.062 138.846 107.435 199 216 255
122.753 142.599 110.396 243 242 255
166.231 97.3625 112.578 244 243 255
143.208 177.624 110.112 218 228 255
101.377 122.477 123.509 255 249 242
141.208 109.04 120.783 199 216 255
53.4024 66.0515 111.898 188 209 255
151.559 151.414 111.086 222 230 255
147.348 78.9235 112.951 201 217 255
84.3946 37.9269 112.819 194 213 255
164.119 146.371 113.86 193 213 255
125.659 162.348 114.921 189 210 255
52.6256 60.0812 113.096 202 218 255
111.964 113.325 120.011 209 222 255
43.8687 93.279 114.332 211 223 255
105.044 110.734 118.34 255 253 249
93.246 35.1513 112.69 191 211 255
100.979 39.7052 109.954 191 211 255
57.1533 179.653 112.698 190 211 255
55.3851 135.297 113.452 211 223 255
147.914 56.9391 116.419 186 208 255
93.366 175.761 111.254 191 211 255
109.539 105.335 104.599 229 234 255
174.627 116.481 106.773 201 217 255
100.446 34.7074 107.755 189 210 255
146.59 86.1893 110.481 213 225 255
130.452 88.4061 113.655 255 247 239
56.9808 108.864 103.283 220 229 255
165.945 136.546 111.77 203 219 255
52.7421 116.467 110.982 234 237 255
170.28 135.276 114.364 212 224 255
97.2507 112.172 113.302 219 228 255
75.815 57.562 108.281 186 208 255
139.412 142.636 115.528 197 215 255
175.563 100.934 111.2 207 221 255
214.407 152.031 111.586 198 216 255
135.243 87.8638 119.101 216 227 255
92.9514 175.53 111.638 255 253 249
73.4509 128.663 112.718 255 229 208
56.8743 134.728 114.596 203 219 255
111.69 120.46 102.664 255 228 206
169.459 201.402 108.739 188 210 255
72.4697 130.566 93.4642 203 219 255
93.7462 175.359 110.959 203 219 255
17.7022 57.4167 109.795 188 210 255
167.865 152.073 112.387 185 207 255
102.157 42.6835 115.306 195 214 255
73.2049 21.7802 115.951 189 210 255
96.0086 175.443 112.048 196 215 255
173.104 95.813 110.975 198 216 255
106.411 148.42 111.823 215 226 255
14.7124 138.094 112.565 199 216 255
122.251 88.8234 115.487 255 231 212
55.4929 121.181 116.179 200 217 255
67.5431 62.9398 108.478 179 204 255
151.703 123.412 122.192 207 221 255
68.3658 56.4048 122.918 231 236 255
139.529 2.33331 109.381 200 217 255
101.113 121.576 111.452 255 199 154
76.4357 121.029 109.143 226 232 255
98.4364 121.573 106.145 255 238 224
136.882 116.647 107.362 212 224 255
93.1704 176.093 111.183 248 245 255
117.008 118.544 124.652 255 234 217
101.532 215.436 113.36 184 207 255
224.541 115.908 113.686 191 211 255
204.067 146.37 115.402 222 230 255
118.892 113.534 108.891 214 226 255
170.382 95.9494 115.213 224 232 255
217.206 113.016 111.481 184 207 255
122.345 131.268 104.378 221 229 255
125.093 98.0334 117.244 255 245 235
153.547 86.0674 110.748 255 250 244
113.291 149.084 115.856 250 246 255
192.958 134.147 113.289 180 204 255
75.3253 138.647 117 255 251 246
95.1259 113.586 106.968 255 254 250
93.1185 176.153 111.235 225 232 255
104.848 114.968 104.679 255 223 198
172.28 16.2101 109.856 185 207 255
49.2564 80.3923 106.935 192 212 255
141.98 68.8932 109.521 199 216 255
129.099 138.84 112.435 255 236 221
56.5647 99.55 118.233 197 215 255
164.114 164.152 113.144 206 220 255
115.36 124.597 108.238 255 202 159
113.248 152.965 112.6 255 204 164
78.4803 74.7675 115.475 203 219 255
157.077 124.066 117.683 211 223 255
103.771 123.952 123.815 217 227 255
117.468 83.6965 115.533 239 240 255
74.4032 131.447 120.646 224 231 255
143.827 78.7104 112.977 218 228 255
93.3007 117.148 115.521 255 245 235
49.6394 111.772 111.345 198 216 255
155.643 162.542 110.793 190 210 255
113.411 127.959 115.708 255 172 100
175.943 110.559 112.542 204 219 255
140.781 89.7822 106.759 255 194 145
39.645 107.465 114.25 189 210 255
96.1916 76.6691 104.928 255 232 214
121.653 154.396 116.865 208 222 255
177.606 55.7406 115.854 186 208 255
95.8746 112.477 101.952 255 232 214
98.1728 141.621 112.633 227 233 255
102.859 60.3409 109.196 228 234 255
138.575 127.986 112.204 255 234 217
117.052 126.076 103.215 255 224 199
173.891 135.728 115.046 204 220 255
147.968 65.1839 114.988 255 227 205
92.0999 55.4748 112.553 207 221 255
214.058 135.401 115.353 204 219 255
84.9015 93.4571 118.28 211 223 255
93.3208 175.674 111.277 182 206 255
118.028 43.6169 109.612 204 219 255
197.549 82.1403 113.723 202 218 255
138.34 163.899 111.503 199 216 255
109.415 126.41 107.801 255 244 234
137.637 98.9204 114.611 215 226 255
93.5741 175.373 111.293 199 216 255
190.098 177.651 112.734 201 217 255
113.601 53.8764 105.949 212 224 255
44.8843 72.9782 140.496 181 205 255
106.092 32.7931 110.043 191 211 255
155.645 191.636 112.116 206 221 255
34.9841 98.6569 112.192 213 225 255
147.686 118.131 118.311 218 228 255
52.5731 66.6483 104.561 201 218 255
127.148 69.801 114.475 255 252 247
142.907 202.514 111.107 200 217 255
149.837 149.621 109.96 255 208 170
124.317 117.868 111.224 255 241 229
119.47 110.095 102.471 233 237 255
148.969 193.42 104.853 191 211 255
107.923 130.392 119.598 255 254 249
90.8557 151.46 113.614 238 240 255
72.3765 143.612 118.174 255 242 231
144.538 72.4484 118.54 209 223 255
23.1693 158.498 116.728 189 210 255
69.8589 110.761 110.249 211 224 255
166.768 132.591 111.256 195 214 255
61.1332 178.24 111.822 198 216 255
52.3512 101.552 113.604 219 228 255
37.0279 114.665 113.411 191 211 255
169.672 123.767 113.932 201 217 255
67.0623 211.374 111.421 185 208 255
109.515 107 102.923 255 192 141
93.101 148.276 112.551 216 226 255
149.649 133.979 118.985 208 222 255
151.924 137.122 117.348 255 251 246
77.1382 100.76 114.664 206 221 255
108.911 96.0825 112.987 255 245 235
93.7333 124.316 122.306 225 232 255
115.026 144.19 112.916 255 206 168
74.1152 195.934 114.539 211 223 255
193.916 80.5098 110.271 195 214 255
125.958 30.6067 113.854 205 220 255
104.133 72.0696 115.255 233 236 255
190.809 148.224 113.449 197 215 255
93.379 175.819 111.272 217 227 255
43.0565 157.904 116.532 212 224 255
176.165 49.2813 112.947 197 215 255
137.751 147.262 109.414 226 232 255
104.682 102.283 108.856 255 174 104
148.174 211.168 115.471 190 210 255
131.488 127.368 107.484 198 216 255
81.4053 99.782 115.892 245 243 255
190.029 47.6262 111.38 205 220 255
99.9026 140.692 118.016 232 236 255
131.41 155.959 116.089 213 225 255
107.763 109.805 103.794 203 219 255
70.3814 106.751 106.365 206 221 255
122.679 15.4778 112.64 203 218 255
58.5584 100.368 113.313 212 224 255
67.21 88.4985 113.164 255 235 218
143.011 150.978 112.642 203 218 255
68.4338 168.8 114.782 189 210 255
82.0339 102.634 122.775 192 212 255
129.725 142.633 117.574 213 225 255
