ply
format ascii 1.0
element vertex 1341
property float x
property float y
property float z
property uchar red
property uchar green
property uchar blue
end_header
132.919 198.305 109.532 188 210 255
47.6 98.0661 112.766 190 211 255
165.915 91.0468 112.051 197 215 255
213.2 148.347 112.977 183 206 255
115.479 116.038 123.359 255 251 245
74.7711 72.7945 111.538 202 218 255
167.229 53.973 114.261 196 214 255
126.784 107.032 98.9208 202 218 255
96.7928 117.991 117.805 255 250 244
105.362 129.296 110.833 255 240 226
136.827 151.615 108.005 234 237 255
101.709 110.974 115.316 255 206 167
72.3234 92.8124 117.899 255 245 235
187.087 57.3342 113.203 242 241 255
45.5929 104.069 110.627 208 222 255
102.99 167.072 111.262 255 241 228
201.218 91.871 112.302 190 211 255
40.0379 109.391 114.962 189 210 255
57.2053 94.5123 115.084 217 227 255
147.895 162.745 114.181 224 231 255
38.0034 104.298 110.317 200 217 255
12.8908 65.4509 112.284 185 208 255
128.047 94.4422 121.391 208 222 255
30.8232 97.3047 112.249 199 216 255
93.3076 175.501 110.7 245 243 255
143.593 136.923 105.509 255 241 228
115.171 144.798 107.263 192 212 255
53.9844 122.11 114.57 255 230 209
131.479 136.87 114.691 222 230 255
70.3991 196.469 111.134 184 207 255
57.9558 24.0209 113 197 215 255
118.426 122.978 127.645 226 232 255
102.259 99.6476 108.538 255 254 250
100.702 142.1 116.842 208 222 255
132.572 93.9537 118.507 235 238 255
59.5871 133.958 114.564 218 228 255
110.372 102.142 123.387 255 231 211
120.056 108.213 115.07 255 36 0
107.069 92.424 104.203 228 234 255
93.3281 175.705 110.637 255 210 174
138.338 86.5594 113.603 203 219 255
76.0941 36.2656 105.327 174 200 255
154.514 172.778 114.564 199 216 255
185.223 99.9028 113.693 194 213 255
75.8736 72.4918 108.333 255 236 221
85.8595 76.0215 113.362 193 213 255
100.77 113.502 129.153 255 251 245
212.298 140.73 109.417 200 217 255
113.844 141.926 103.227 192 212 255
165.521 88.0826 109.396 229 234 255
197.888 117.056 115.443 183 206 255
96.4947 105.285 100.341 255 236 220
93.4949 176.835 110.866 218 227 255
110.217 140.541 119.544 255 214 181
162.123 94.5773 111.142 205 220 255
93.3301 175.715 110.648 218 228 255
160.316 93.2049 109.559 208 221 255
103.687 104.681 103.573 228 233 255
39.0016 40.7077 112.839 189 210 255
45.322 167.579 113.249 223 230 255
112.95 147.141 118.655 221 230 255
88.5688 21.247 113.056 208 222 255
173.256 134.244 114.525 192 212 255
171.672 162.033 114.128 177 202 255
87.1982 172.519 115.826 186 208 255
97.8419 92.1426 108.958 255 230 210
192.93 52.9706 111.123 192 212 255
63.3243 142.026 116.926 235 238 255
97.613 105.988 116.555 213 225 255
127.724 142.773 119.577 217 227 255
43.0043 84.1461 110.631 222 230 255
28.0794 93.648 111.755 189 210 255
137.188 113.471 105.297 255 249 255
201.526 176.425 111.858 187 209 255
53.7979 107.652 110.348 253 248 255
136.488 73.2005 115.474 203 218 255
154.006 163.584 113.328 192 212 255
137.448 74.6123 107.926 212 224 255
101.45 175.268 110.653 189 210 255
128.128 65.9566 110.364 250 246 255
99.409 95.4265 123.071 255 186 129
149.936 125.075 115.297 199 216 255
32.6575 121.798 111.551 200 217 255
16.5986 104.954 112.903 186 208 255
112.509 136.987 110.992 220 229 255
94.1837 174.662 110.203 213 225 255
134.874 157.978 114.267 229 234 255
55.1938 51.7476 112.31 198 215 255
169.267 40.9363 112.888 197 215 255
199.492 175.199 110.314 174 200 255
191.816 128.558 114.317 211 223 255
78.0942 135.977 118.064 255 233 216
80.1838 80.52 105.81 209 223 255
33.2747 165.635 114.094 183 206 255
120.396 75.9377 105.668 217 227 255
214.842 129.347 114.038 185 207 255
103.759 93.92 125.18 242 242 255
170.733 105.153 113.777 215 226 255
102.694 100.118 115.174 255 205 164
188.435 159.533 104.797 199 216 255
64.704 98.4384 108.147 255 235 218
93.3539 175.648 110.646 194 213 255
157.331 100.906 109.636 202 218 255
58.0418 150.684 108.73 255 245 235
172.039 117.116 122.223 194 213 255
127.184 35.7674 110.232 191 211 255
55.8275 52.2229 123.968 197 215 255
61.0746 113.176 107.692 209 222 255
75.6081 95.0943 122.414 198 216 255
97.2599 101.073 115.197 200 217 255
46.0841 89.82 102.957 194 213 255
166.713 198.229 112.861 189 210 255
84.3189 58.5473 117.461 205 220 255
47.9355 121.85 109.619 224 232 255
181.398 157.363 114.636 209 222 255
117.572 92.4798 108.797 255 227 205
11.8301 104.856 111.431 185 207 255
111.866 131.752 102.859 255 196 148
117.836 111.42 100.861 225 232 255
57.5745 123.164 113.28 203 218 255
95.6357 97.4952 101.941 255 142 30
93.2442 176.118 110.814 255 252 247
128.238 122.485 111.743 255 176 108
105.16 76.6655 110.054 221 229 255
112.386 200.154 114.214 196 214 255
103.549 109.497 128.362 255 210 174
148.866 149.076 113.67 210 223 255
71.6671 91.4352 120.083 221 230 255
158.431 169.625 112.756 204 219 255
126.118 101.875 103.667 255 206 166
98.9225 172.319 109.534 208 222 255
188.307 188.647 114.666 189 210 255
66.098 84.7677 118.394 255 240 226
47.6754 117.081 111.887 191 211 255
47.4196 55.2374 113.886 207 221 255
149.287 112.545 113.194 242 242 255
126.75 104.3 103.246 240 241 255
123.385 95.2886 114.799 255 233 214
133.067 154.373 111.416 205 220 255
146.374 60.4871 119.165 192 212 255
126.8 10.5443 111.078 194 213 255
144.396 146.338 108.343 255 251 244
68.8989 135.853 106.263 210 223 255
62.8452 162.349 113.452 226 233 255
137.691 108.568 114.544 198 215 255
113.438 105.023 129.672 216 226 255
73.8655 110.659 115.327 208 221 255
82.1983 63.2751 108.467 192 212 255
142.951 105.096 105.815 255 233 214
156.191 95.4125 119.47 207 221 255
41.5603 181.087 114.073 189 210 255
117.622 116.217 104.765 255 194 145
211.269 160.252 110.803 185 207 255
67.7394 110.062 112.268 205 220 255
115.482 133.299 112.968 249 246 255
173.595 146.287 109.101 255 246 236
106.781 76.0728 102.689 255 234 217
99.3367 117.258 111.824 255 237 221
100.035 178.474 110.86 191 211 255
93.1332 175.465 110.918 181 205 255
31.4218 139.277 112.911 186 208 255
103.045 97.1392 104.116 255 243 233
138.328 122.171 110.205 255 247 238
146.667 45.3688 114.574 189 210 255
179.469 114.886 112.632 230 234 255
64.6731 133.835 114.582 211 223 255
77.0472 165.189 114.391 217 227 255
106.118 69.258 109.22 207 221 255
69.3913 165.6 110.627 196 214 255
111.24 102.654 115.675 199 216 255
185.609 194.429 114.206 183 206 255
139.894 63.9892 112.301 208 221 255
103.179 53.9993 114.35 216 226 255
107.959 115.937 103.783 255 191 139
56.8734 108.973 109.837 217 227 255
48.2135 99.1154 111.127 215 226 255
178.392 129.149 111.895 194 213 255
110.807 104.931 118.896 255 214 181
97.6932 127.501 109.695 203 219 255
117.292 57.4821 108.904 194 213 255
69.375 142.115 109.821 245 243 255
84.4168 97.9374 109.873 228 233 255
66.8539 21.1546 113.714 198 215 255
112.745 70.2186 107.982 255 251 246
173.113 103.811 113.92 255 234 217
160.046 161.61 110.032 197 215 255
209.039 52.9849 113.628 179 204 255
156.709 149.961 110.437 229 234 255
113.646 112.423 121.252 208 222 255
133.4 100.863 105.01 255 249 242
48.4855 91.9487 113.43 190 211 255
83.4232 186.651 111.476 213 225 255
58.1581 34.35 109.52 177 202 255
59.7225 207.083 112.05 185 207 255
84.8377 173.893 113.326 198 216 255
162.741 198.111 111.994 184 207 255
185.961 62.0709 110.861 199 216 255
124 185.387 113.78 217 227 255
48.6218 104.603 113.128 200 217 255
37.2189 48.2051 113.912 182 206 255
181.631 89.7587 112.687 190 211 255
18.5196 56.4841 108.136 183 206 255
76.8233 192.3 109.846 177 202 255
169.248 101.628 111.101 202 218 255
44.7649 26.3476 113.465 200 217 255
120.218 147.014 109.896 255 204 162
201.852 91.0051 111.433 195 214 255
93.4703 168.295 112.076 255 254 249
171.703 92.7018 112.177 255 236 220
94.097 122.577 99.4284 248 245 255
83.6707 103.579 103.934 255 254 250
131.422 91.1393 100.757 255 246 236
128.929 37.1076 109.077 203 219 255
75.59 101 117.694 255 200 156
206.214 83.2324 115.359 197 215 255
94.1312 147.24 105.506 255 246 236
70.7998 85.9613 119.069 239 240 255
84.6832 152.691 114.942 199 216 255
214.979 75.6296 115.116 196 214 255
91.9846 17.1834 111.339 199 216 255
136.92 73.6908 111.813 231 235 255
77.063 117.785 107.81 255 253 249
219.002 135.168 112.914 181 205 255
140.003 135.102 115.029 225 232 255
148.951 60.1414 117.381 190 211 255
39.1378 102.072 113.937 205 220 255
122.814 129.586 109.406 255 240 226
129.461 135.055 111.931 255 221 195
115.933 178.75 111.908 197 215 255
125.162 56.3496 106.122 255 251 246
75.1093 159.125 111.494 199 216 255
158.351 95.317 117.024 201 217 255
100.825 150.147 119.198 255 251 246
2.55325 108.818 114.929 184 207 255
200.939 55.613 110.199 205 220 255
104.62 108.381 124.664 255 238 223
116.671 71.3383 119.809 206 221 255
64.2824 124.895 106.143 243 242 255
174.824 141.948 115.706 255 254 251
73.2536 84.3499 118.169 212 224 255
123.044 74.4341 112.012 206 220 255
121.603 108.589 102.706 255 250 244
108.155 15.0075 109.276 189 210 255
85.7027 61.6032 117.449 194 213 255
143.036 137.466 109.543 255 190 137
43.9765 63.9767 109.168 191 211 255
115.524 122.372 118.984 255 239 225
77.4754 135.606 104.901 255 190 135
165.251 142.992 106.242 191 211 255
159.308 112.885 111.897 207 221 255
149.341 104.94 110.265 255 247 238
11.7018 149.173 115.665 255 252 246
61.7233 201.769 110.081 185 208 255
183.264 130.861 111.731 196 214 255
122.913 19.88 113.066 184 207 255
41.1278 120.284 113.353 224 231 255
116.258 107.285 119.584 255 245 236
75.8442 163.105 112.55 197 215 255
88.6879 172.302 113.914 194 213 255
151.904 142.493 109.183 240 240 255
110.516 90.754 108.245 255 129 0
62.3485 162.286 113.973 210 223 255
14.3816 125.345 113.095 195 214 255
80.3082 200.97 111.196 183 206 255
113.062 112.922 98.4355 255 239 225
161.754 128.648 109.628 225 232 255
104.419 199.01 111.821 183 206 255
119.573 151.351 112.625 225 232 255
82.1539 138.297 108.173 255 246 236
117.091 90.5925 102.619 192 212 255
99.6345 61.3834 109.036 220 229 255
99.0324 108.322 126.003 255 227 205
136.27 87.1942 109.994 229 234 255
206.694 150.254 108.691 202 218 255
166.919 163.399 112.392 185 208 255
60.139 25.8575 110.58 193 212 255
116.569 107.134 127.625 204 219 255
54.4727 59.6387 114.811 255 249 255
215.239 151.784 112.78 190 211 255
13.135 102.627 113.266 199 216 255
149.94 123.979 108.496 211 224 255
127.187 47.3694 110.971 217 227 255
90.8434 82.3196 113.44 222 230 255
100.763 140.956 108.471 221 230 255
104.485 149.509 113.551 255 248 241
106.549 70.9578 107.688 194 213 255
93.36 175.594 110.642 226 233 255
93.3552 175.71 110.549 202 218 255
146.957 167.882 115.492 195 214 255
31.1102 93.0709 112.423 203 219 255
151.96 86.8379 114.161 255 211 177
126.883 156.306 109.041 255 240 227
75.0103 108.52 118.093 194 213 255
151.809 124.474 103.976 232 236 255
69.5039 83.365 119.35 202 218 255
165.692 13.3287 111.447 218 228 255
93.2957 175.746 110.317 204 220 255
47.0435 175.723 114.055 197 215 255
48.4776 131.408 112.556 208 222 255
90.0404 82.3933 117.31 228 234 255
84.4742 77.0947 120.922 231 235 255
176.045 157.277 114.027 182 205 255
172.346 39.7885 113.999 196 214 255
43.399 78.4805 112.468 199 216 255
123.295 189.667 109.353 200 217 255
62.8683 131.585 109.986 191 212 255
52.324 47.024 112.655 194 213 255
160.55 92.5975 108.661 187 209 255
51.501 81.6946 110.975 211 223 255
98.5911 90.118 124.179 234 237 255
106.211 114.075 122.702 230 235 255
124.473 137.897 112.358 255 243 232
91.9613 181.684 111.621 186 208 255
108.162 156.442 112.011 210 223 255
64.0532 167.679 110.567 190 210 255
94.8762 174.182 110.811 202 218 255
159.385 129.166 104.053 195 214 255
103.237 80.6452 121.84 255 244 234
74.7055 48.7646 116.654 210 223 255
124.709 155.053 110.737 190 211 255
75.5918 162.248 117.412 204 219 255
117.187 82.0056 119.097 255 255 251
51.0181 160.646 115.041 196 214 255
93.2386 175.373 111.02 234 237 255
95.0706 175.627 110.983 255 234 216
47.4543 93.6802 108.198 200 217 255
159.427 64.3038 111.154 220 229 255
54.5072 173.11 115.245 190 211 255
93.551 148.586 120.41 227 233 255
118.422 199.952 112.959 202 218 255
141.658 75.2785 118.118 205 220 255
92.0418 176.393 111.048 208 221 255
102.847 23.1934 113.534 193 212 255
121.539 121.214 108.384 248 245 255
83.1701 144.508 120.305 255 245 235
94.6844 75.6461 114.84 255 251 255
128.343 141.14 110.653 224 231 255
150.255 85.5386 108.65 202 218 255
162.248 177.623 121.652 241 241 255
182.091 78.8476 110.009 196 214 255
34.3841 152.621 111.459 187 208 255
174.069 116.615 111.621 199 216 255
89.1905 149.368 118.379 202 218 255
84.1402 108.456 103.351 251 247 255
45.2127 185.297 116.014 195 214 255
112.911 113.049 121.631 253 248 255
115.4 116.169 103.939 255 251 246
144.673 118.109 122.383 216 226 255
169.801 75.0101 110.995 202 218 255
146.938 112.936 121.923 224 231 255
156.142 141.201 116.667 185 207 255
144.786 129.688 122.149 238 239 255
143.435 26.0162 116.284 192 212 255
119.256 113.019 128.685 227 233 255
170.288 146.911 111.873 194 213 255
158.739 166.093 113.51 205 220 255
112.186 182.209 112.646 200 217 255
146.051 185.482 111.885 187 209 255
66.9676 134.365 111.376 215 226 255
84.3665 69.8544 115.417 199 216 255
152.566 131.841 119.62 196 214 255
155.361 104.714 107.175 209 222 255
128.094 73.1758 113.897 236 238 255
93.355 175.666 110.649 212 224 255
124.249 34.3741 110.669 209 222 255
59.2665 127.614 110.276 200 217 255
127.567 39.591 114.444 205 220 255
3.92659 98.0279 115.139 196 214 255
88.4514 62.5616 108.938 189 210 255
123.245 75.1818 113.929 245 243 255
66.2968 157.904 136.34 253 248 255
102.189 206.914 103.56 187 209 255
139.701 117.474 113.899 200 217 255
76.3596 56.2952 109.841 199 216 255
124.119 93.8766 114.04 200 217 255
82.7375 114.454 123.115 214 225 255
20.2044 119.832 111.589 187 209 255
42.3468 197.647 111.148 181 205 255
118.378 17.9485 110.464 197 215 255
88.7484 119.975 117.362 255 251 246
175.01 140.826 110.877 193 212 255
54.7052 115.619 112.358 205 220 255
132.409 51.2345 117.201 216 226 255
151.786 180.822 113.055 215 226 255
108.161 105.99 99.1798 251 247 255
115.143 160.215 106.186 224 231 255
99.8411 86.6013 114.439 213 225 255
96.228 75.4532 103.893 248 245 255
104.892 53.6596 112.307 187 209 255
122.828 142.975 117.348 208 222 255
141.856 99.7838 110.072 255 236 220
173.673 132.275 112.433 184 207 255
164.178 110.004 114.114 205 220 255
88.4624 9.52908 110.72 175 201 255
200.034 126.75 110.182 197 215 255
77.1203 77.2142 107.871 207 221 255
17.6363 106.998 110.102 177 202 255
84.894 136.659 109.727 255 227 205
133.466 10.7616 112.013 194 213 255
117.661 121.161 113.443 255 198 152
160.087 117.52 104.952 217 227 255
115.447 75.6343 111.154 252 247 255
147.802 58.8971 118.164 255 248 240
123.515 124.788 117 255 241 228
135.902 51.4478 116.364 225 232 255
154.041 179.758 110.478 206 220 255
65.647 81.2402 115.183 210 223 255
65.5457 78.3921 110.793 193 213 255
190.244 149.404 114.367 197 215 255
105.461 115.256 104.857 210 223 255
74.6022 177.467 109.635 185 207 255
157.123 150.017 108.153 207 221 255
201.577 98.5502 114.123 194 213 255
107.339 95.7944 108.268 250 246 255
96.2697 175.584 111.086 255 252 247
102.601 104.559 122.73 225 232 255
109.746 204.681 111.17 226 233 255
160.403 117.584 108.114 255 254 250
117.013 132.409 121.26 255 237 222
102.377 104.001 101.66 229 234 255
137.049 169.165 112.399 198 216 255
45.7389 98.9744 112.816 203 219 255
116.696 108.575 122.071 255 147 41
134.428 169.75 113.574 216 227 255
58.9538 168.612 114.53 203 218 255
72.5657 50.1788 114.518 218 228 255
84.7082 148.044 115.322 216 227 255
101.863 147.928 109.506 227 233 255
69.3154 120.711 118.551 224 231 255
163.93 98.0685 107.934 255 249 255
35.4023 143.691 113.156 217 227 255
151.077 40.6836 111.782 189 210 255
90.1482 29.0136 112.433 202 218 255
98.3069 153.724 112.909 204 219 255
157.584 96.3256 118.468 197 215 255
138.398 173.189 116.854 200 217 255
63.4512 48.9141 108.048 208 222 255
101.828 72.0487 106.356 255 252 247
52.7756 142.52 112.701 193 213 255
42.8094 168.141 110.932 190 211 255
105.804 66.5506 115.287 207 221 255
108.038 81.2151 113.137 210 223 255
205.231 83.6739 111.293 184 207 255
42.8627 152.635 109.441 196 214 255
101.829 133.373 115.986 197 215 255
172.158 134.455 112.908 188 209 255
52.4338 132.646 114.84 210 223 255
129.549 134.211 108.098 249 246 255
94.0572 132.783 119.86 207 221 255
68.2535 122.862 109.187 207 221 255
132.93 83.1111 102.55 255 240 227
103.082 130.823 111.807 232 236 255
171.34 113.028 111.815 212 224 255
129.838 125.52 124.094 205 220 255
154.836 106.969 107.414 253 248 255
93.0947 174.972 109.504 220 229 255
168.244 51.0103 115.403 185 208 255
77.038 31.9727 109.692 209 222 255
93.7423 102.702 110.413 228 233 255
109.593 153.33 114.148 255 222 196
70.6237 99.534 108.957 255 241 228
127.871 81.9315 120.487 255 245 236
88.0376 73.2004 105.866 221 230 255
122.332 110.324 101.452 255 234 217
99.4145 100.053 122.217 238 239 255
171.36 150.709 118.641 182 205 255
141.539 180.515 110.145 197 215 255
30.4291 120.98 111.423 228 234 255
184.809 112.59 112.055 207 221 255
58.1412 132.08 116.072 199 216 255
111.14 76.3672 109.004 255 243 232
147.387 135.063 104.184 221 230 255
94.4536 98.2992 114.248 246 244 255
136.511 89.6523 105.034 214 225 255
153.926 104.685 113.897 199 216 255
65.4536 156.403 108.435 209 223 255
186.79 111.699 115.427 194 213 255
67.71 135.898 115.647 193 212 255
82.3269 65.6971 108.98 191 211 255
206.676 122.027 113.254 192 212 255
158.205 87.0335 110.95 208 222 255
112.878 145.398 117.959 207 221 255
162.498 60.9346 114.772 203 219 255
115.476 128.785 102.797 255 231 212
170.02 114.79 107.954 216 226 255
102.592 157.286 109.709 248 245 255
107.293 81.0289 122.313 213 225 255
129.205 160.256 109.972 198 216 255
65.7607 102.969 113.441 255 170 96
141.368 203.964 110.435 185 207 255
103.223 181.806 110.916 192 212 255
99.7921 81.4251 111.475 211 223 255
175.688 132.999 109.558 196 215 255
94.3261 175.747 110.311 195 214 255
140.085 89.1573 103.933 255 247 239
93.3038 175.764 110.69 190 211 255
30.5178 131.881 116.035 189 210 255
160.167 105.358 118.355 224 231 255
131.67 36.0341 111.031 210 223 255
28.9349 156.625 111.825 187 209 255
189.321 139.169 116.568 195 214 255
103.56 89.6993 111.724 255 187 130
130.275 153.961 113.456 219 228 255
112.144 51.9629 115.468 201 217 255
157.312 76.4861 116.469 255 208 171
95.402 115.339 125.702 250 246 255
99.8605 125.114 106.256 204 219 255
127.123 71.3781 114.696 240 241 255
93.8352 174.764 108.123 213 225 255
94.4267 94.8379 124.476 224 231 255
94.9147 90.8444 110.757 210 223 255
145.909 181.496 117.864 189 210 255
140.738 192.76 113.039 179 204 255
134.904 140.746 108.109 199 217 255
115.896 141.193 119.493 210 223 255
70.6045 42.1617 111.948 234 237 255
68.8789 127.936 119.56 208 221 255
198.318 117.16 110.453 189 210 255
45.2069 52.5752 112.493 199 216 255
82.4054 136.814 106.874 255 251 246
129.647 6.80118 107.346 193 213 255
164.638 81.9464 113.167 201 217 255
140.4 113.312 114.054 214 225 255
117.031 95.2266 112.151 255 227 204
82.9647 61.4162 117.481 221 230 255
65.1601 114.738 105.147 212 224 255
70.0452 184.188 112.531 185 208 255
135.114 132.398 107.635 255 220 192
99.9496 74.8556 111.829 220 229 255
109.08 84.6482 107.044 255 240 227
41.8655 88.334 111.206 224 231 255
155.619 121.211 119.824 203 219 255
122.196 199.949 112.574 214 225 255
151.008 109.407 110.432 247 244 255
142.01 117.727 107.018 255 247 238
106.639 49.0613 112.78 231 235 255
126.361 125.898 102.074 255 214 181
41.7153 48.6362 113.55 219 229 255
132.289 72.2422 111.626 204 219 255
185.379 80.2343 111.209 194 213 255
128.733 34.909 110.459 192 212 255
131.466 145.409 109.327 255 234 216
95.4221 150.782 109.145 203 219 255
159.756 93.1656 110.987 255 247 239
124.211 121.612 115.547 246 244 255
100.664 174.988 110.283 199 216 255
154.598 181.659 108.666 216 226 255
113.933 136.685 116.176 229 234 255
102.216 102.983 107.925 255 237 221
42.1474 192.051 114.114 193 212 255
79.0577 159.489 109.541 200 217 255
125.77 156.936 114.64 234 237 255
160.888 161.967 109.571 204 219 255
123.918 98.5955 108.005 207 221 255
60.2747 129.975 115.625 214 225 255
93.4347 175.186 110.135 201 218 255
195.602 176.472 112.786 203 219 255
145.271 157.487 105.846 196 214 255
124.932 121.743 122.995 255 216 185
131.996 119.077 104.987 255 220 192
214.201 63.2627 115.784 181 205 255
103.508 106.658 109.123 255 225 200
93.3639 174.871 109.91 233 236 255
79.2611 123.806 109.294 208 222 255
115.708 102.638 113.222 255 219 191
60.7203 119.597 118.459 246 244 255
166.89 62.5195 115.196 220 229 255
129.665 101.969 112.78 214 225 255
182.953 130.349 110.271 195 213 255
180.736 64.5592 112.841 188 209 255
64.4404 112.614 118.981 210 223 255
103.985 23.9779 111.431 200 217 255
157.026 177.135 113.137 203 219 255
113.444 98.6472 114.863 255 245 235
185.497 28.5983 116.527 206 220 255
156.598 108.87 103.008 213 224 255
93.0607 175.484 110.317 255 253 248
47.9688 183.368 112.777 187 209 255
20.7197 131.805 113.148 198 215 255
138.706 131.51 119.128 255 214 182
215.845 101.55 114.398 186 208 255
107.864 128.824 105.537 255 235 219
151.478 141.028 115.04 194 213 255
156.888 115.401 110.753 196 215 255
56.4955 158.488 113.832 255 252 247
137.799 85.5378 116.796 243 242 255
197.053 46.1125 114.823 197 215 255
74.7088 131.689 108.36 211 223 255
107.152 90.3647 109.507 255 219 191
64.1475 113.298 116.969 196 214 255
181.054 91.4129 109.775 208 222 255
77.6005 129.351 111.267 255 243 232
132.001 77.7238 115.288 255 255 251
94.061 115.062 107.606 242 241 255
157.001 142.586 113.883 191 211 255
40.8415 101.059 120.136 218 227 255
98.0261 56.0563 118.614 255 235 219
58.4266 137.449 109.464 200 217 255
102.489 173.57 110.213 207 221 255
170.861 40.0501 113.416 190 211 255
163.586 87.5553 114.273 255 254 250
59.4006 144.472 107.051 203 219 255
129.304 101.833 116.813 246 244 255
98.6949 49.9571 108.751 255 252 247
151.561 208.723 111.275 194 213 255
63.9305 79.0559 109.693 221 229 255
128.564 126.881 117.968 255 233 215
124.796 80.0074 113.328 235 238 255
137.306 56.9631 115.256 255 234 216
93.3435 175.692 110.649 255 234 217
109.825 119.176 123.069 247 244 255
63.5934 177.139 115.212 192 212 255
200.29 115.748 113.637 179 204 255
97.769 82.6907 111.668 209 222 255
96.3549 79.3059 120.01 227 233 255
101.089 151.787 111.219 213 225 255
60.5709 45.0175 106.522 200 217 255
93.3252 175.743 110.662 222 230 255
143.279 148.166 109.103 219 228 255
150.014 112.311 108.587 231 235 255
145.507 122.755 118.244 255 249 255
103.204 182.636 110.803 197 215 255
110.168 75.6609 111.841 255 222 196
122.434 107.819 104.852 240 241 255
1.23831 107.471 113.791 193 213 255
105.974 101.175 124.594 255 212 178
134.933 89.6688 104.262 255 254 250
71.4579 156.516 110.228 228 234 255
103.649 81.5265 113.978 227 233 255
142.164 159.988 106.822 205 220 255
93.3278 175.705 110.628 220 229 255
89.9456 119.821 122.424 206 221 255
206.691 143.938 115.648 181 205 255
121.316 43.2661 110.697 203 219 255
84.2117 171.485 114.223 197 215 255
125.281 210.143 110.072 184 207 255
112.662 114.97 125.22 252 247 255
185.565 127.916 110.094 220 229 255
35.7107 127.548 114.211 197 215 255
95.9653 96.7445 123.001 255 252 248
158.654 157.71 110.066 255 228 206
120.617 51.6744 109.803 197 215 255
83.0819 191.311 110.895 228 234 255
93.3237 175.711 110.668 197 215 255
94.8193 161.34 110.473 191 211 255
147.813 133.318 114.038 221 230 255
187.139 183.077 110.536 199 216 255
93.0663 28.8577 112.042 195 214 255
130.482 35.5036 111.085 193 212 255
70.5064 44.1667 113.045 200 217 255
163.512 152.373 108.271 202 218 255
109.991 39.3857 109.667 212 224 255
77.203 36.2371 108.825 192 212 255
141.41 72.1095 126.015 208 222 255
50.3288 72.4556 111.049 201 218 255
180.581 139.495 107.718 197 215 255
206.783 70.063 110.953 181 205 255
51.8216 59.1842 111.49 205 220 255
133.988 200.131 111.312 184 207 255
108.146 79.3488 121.54 197 215 255
106.774 133.46 101.305 255 240 226
82.664 70.7914 121.643 218 227 255
105.25 118.914 101.568 222 230 255
129.955 107.905 111.79 209 223 255
32.5669 170.8 115.122 182 206 255
43.2747 145.323 115.431 203 219 255
83.8992 121.35 108.334 255 236 221
98.3844 99.709 110.454 255 248 239
64.8948 169.552 111.411 204 219 255
141.624 29.6597 108.666 201 218 255
80.0198 120.431 111.142 255 191 139
174.636 140.154 115.227 189 210 255
131.243 131.876 111.391 255 247 238
103.198 178.238 110.382 182 206 255
114.652 121.194 109.141 255 245 235
163.039 135.937 118.395 206 221 255
47.6763 57.2089 111.648 188 209 255
93.328 175.641 110.546 211 223 255
98.9468 206.232 111.853 195 213 255
179.639 56.5069 113.673 197 215 255
160.598 64.9692 114.993 232 236 255
95.7806 111.785 106.985 255 223 198
157.157 67.3253 114.252 226 233 255
139.42 95.7883 112.127 255 214 181
120.307 146.576 117.009 255 219 191
90.9145 95.3986 113.824 255 246 237
97.7322 102.322 119.419 220 229 255
152.311 13.1263 112.382 189 210 255
141.907 159.986 113.248 255 255 251
144.902 126.265 107.301 221 229 255
83.7424 144.231 113.539 189 210 255
92.0529 146.513 109.999 201 218 255
118.492 166.241 108.138 205 220 255
120.418 151.451 113.467 196 214 255
125.158 60.498 116.987 221 229 255
119.861 109.475 102.937 255 254 250
23.8482 151.472 115.294 187 209 255
108.121 81.4634 101.897 225 232 255
53.4305 119.401 112.72 241 241 255
70.4287 141.247 116.089 214 225 255
93.4144 62.3785 107.339 199 216 255
132.548 194.258 112.101 199 216 255
68.3336 129.621 105.892 201 217 255
101.876 117.813 124.799 254 248 255
134.207 119.297 115.822 216 227 255
106.956 77.9796 107.76 201 218 255
115.923 99.4654 120.18 214 225 255
9.96741 120.216 113.515 184 207 255
192.011 74.9352 112.131 190 211 255
210.653 63.5572 114.779 189 210 255
141.352 87.5248 102.535 237 239 255
188.21 163.657 110.091 211 223 255
118.935 181.086 110.424 195 213 255
162.954 59.9739 112.062 194 213 255
59.8255 173.482 111.309 188 209 255
112.265 14.5185 116.217 182 206 255
162.84 61.1475 115.915 217 227 255
128.231 103.858 110.101 255 226 203
133.49 94.0672 114.664 215 226 255
64.2853 85.2046 114.355 193 213 255
90.276 36.3248 115.623 194 213 255
91.6856 171.628 111.448 219 228 255
69.303 96.5536 114.911 255 226 203
136.674 70.5867 107.937 207 221 255
120.727 116.025 118.462 255 187 131
57.4484 125.863 113.429 204 219 255
146.871 144.732 105.796 255 192 140
186.319 190.685 115.471 179 203 255
70.5957 90.312 111.809 206 220 255
128.317 102.461 108.101 216 227 255
162.194 109.728 114.589 199 216 255
157.158 72.7799 110.368 224 231 255
87.3856 82.6214 107.315 255 241 229
97.0946 97.7867 121.731 208 222 255
113.009 211.796 95.3744 184 207 255
53.1759 139.18 110.35 203 219 255
90.6302 92.5656 118.594 194 213 255
63.4612 104.704 110.732 240 240 255
57.1639 166.498 112.348 199 216 255
174.001 129.792 114.491 213 225 255
53.0853 151.93 113.592 199 216 255
200.374 138.866 110.604 192 212 255
170.665 102.58 121.693 223 231 255
108.513 79.964 103.746 209 222 255
174.499 133.648 112.985 199 216 255
93.356 175.464 110.58 207 221 255
133.137 111.369 119.474 211 223 255
87.622 105.374 109.262 225 232 255
87.6783 175.374 111.692 206 220 255
161.205 63.734 116.587 185 207 255
134.19 193.661 112.162 190 210 255
127.435 75.1697 110.449 204 219 255
152.093 139.399 108.516 189 210 255
159.856 187.696 113.589 202 218 255
150.107 179.283 103.022 176 202 255
94.5145 90.3296 112.247 198 215 255
86.7087 108.201 107.018 220 229 255
160.498 167.312 111.786 223 230 255
89.9538 182.691 112.505 198 216 255
170.83 123.283 111.589 255 249 255
170.376 130.156 109.22 197 215 255
135.417 74.4495 118.821 213 225 255
93.0578 175.953 110.899 199 216 255
47.131 188.689 112.809 207 221 255
37.2609 110.61 109.172 209 222 255
57.4351 115.826 107.904 217 227 255
125.382 150.649 113.192 205 220 255
92.5141 165.671 109.167 202 218 255
64.5479 115.876 105.137 248 245 255
100.371 172.582 111.384 202 218 255
95.3433 174.271 111.059 255 240 226
80.5251 192.226 113.081 220 229 255
144.102 102.916 104.087 200 217 255
72.1653 92.4429 110.081 203 219 255
84.2216 23.8788 106.566 188 209 255
95.6484 134.135 107.536 255 251 245
147.231 100.226 123.249 219 228 255
112.611 120.132 108.314 255 125 0
187.865 167.258 112.301 199 216 255
119.025 98.3772 105.192 255 242 230
60.7556 50.8204 110.768 187 208 255
158.975 157.985 116.381 226 232 255
21.0797 175.666 113.085 183 206 255
146.198 28.2451 109.735 192 212 255
129.124 130.955 114.661 255 250 255
64.9763 82.6615 118.064 224 231 255
112.965 139.285 113.698 195 214 255
12.9481 87.7541 111.941 185 207 255
126.725 126.349 109.905 255 221 195
79.9098 145.42 111.87 213 225 255
38.7223 58.6421 113.568 191 212 255
121.69 66.7491 107.586 201 217 255
185.287 46.7357 113.191 183 206 255
118.284 112.686 103.045 255 240 227
147.795 39.9336 110.291 210 223 255
165.957 125.932 106.847 192 212 255
128.178 73.3265 114.78 255 210 175
212.877 137.905 109.666 194 213 255
151.798 149.773 109.488 196 214 255
60.33 82.5226 115.236 209 222 255
119.994 135.539 111.904 255 178 111
110.688 76.3754 118.344 255 229 209
66.6686 107.413 122.2 255 235 218
152.252 185.341 112.587 196 214 255
12.828 120.769 112.042 183 206 255
74.1267 87.773 108.243 202 218 255
65.0248 107.729 119.276 197 215 255
63.9067 142.154 110.033 219 228 255
103.478 128.304 109.649 255 239 225
191.971 92.2334 111.051 196 214 255
135.788 131.256 107.418 255 216 185
93.1423 85.9522 112.906 255 250 255
7.75333 120.378 111.676 230 235 255
82.6035 186.945 112.701 200 217 255
22.3262 133.693 112.555 179 204 255
145.504 75.9212 121.821 211 223 255
185.599 144.064 116.104 188 210 255
115.895 43.7643 107.511 189 210 255
137.114 98.265 109.039 246 244 255
97.5054 63.226 115.079 198 215 255
139.255 77.444 111.435 255 249 241
148.079 118.962 107.883 239 240 255
96.9587 173.089 111.554 196 215 255
215.992 69.2132 116.233 189 210 255
90.8978 53.3603 116.647 192 212 255
153.053 192.189 113.717 204 220 255
142.244 71.1453 108.614 207 221 255
132.899 74.7669 115.191 255 238 224
151.656 130.775 110.35 228 234 255
107.021 118.639 104.154 255 232 212
72.5634 81.1852 105.6 206 220 255
107.432 122.954 122.661 220 229 255
84.9468 53.3363 116.365 196 214 255
101.356 45.9584 111.186 188 210 255
146.019 145.996 106.444 255 172 99
51.5771 106.191 111.608 234 237 255
93.2499 175.646 110.712 253 248 255
105.333 173.029 110.25 219 229 255
201.593 149.11 112.849 195 214 255
173.594 134.266 113.634 210 223 255
131.564 52.004 114.427 255 244 234
113.085 143.43 110.258 232 236 255
103.324 94.803 116.234 199 216 255
108.313 70.9046 80.1487 255 230 209
93.1835 174.409 111.564 191 211 255
77.1541 93.7007 118.448 225 232 255
126.478 119.243 121.223 255 219 190
100.909 57.2359 112.02 213 225 255
116.448 116.005 121.149 195 213 255
182.95 190.556 111.105 183 206 255
119.785 160.172 115.574 187 209 255
181.392 169.783 115.474 203 219 255
160.04 164.382 110.618 196 215 255
58.2983 105.018 110.167 190 211 255
126.876 115.19 108.629 201 218 255
64.6747 63.3002 109.554 206 221 255
149.365 137.665 108.925 210 223 255
133.368 136.511 112.202 255 247 238
140.883 67.0757 118.658 200 217 255
93.5582 175.7 110.473 239 240 255
145.035 134.01 119.059 199 216 255
152.174 80.2024 111.761 197 215 255
29.6911 61.3824 110.147 200 217 255
159.986 131.809 118.022 191 211 255
143.206 73.9232 112.681 222 230 255
97.1883 145.048 121.179 209 222 255
121.372 210.201 110.831 186 208 255
85.0726 92.6915 122.69 231 235 255
112.959 157.649 119.668 212 224 255
164.965 81.5514 113.812 255 232 213
91.494 94.0198 101.324 255 227 205
61.4836 58.3303 109.593 201 217 255
162.259 115.296 107.99 197 215 255
178.75 133.061 110.442 200 217 255
92.1117 73.5944 114.59 209 222 255
79.2663 147.546 111.751 202 218 255
177.946 107.18 110.02 197 215 255
205.776 84.6621 110.104 191 211 255
164.378 106.809 112.854 205 220 255
218.43 141.097 112.737 182 205 255
93.2916 175.797 110.716 194 213 255
65.0554 91.3633 105.244 200 217 255
185.506 133.846 113.325 193 212 255
110.255 118.26 104.73 240 240 255
147.719 55.9524 110.671 229 234 255
95.2493 38.2432 110.464 255 250 255
140.505 114.478 123.805 236 238 255
101.853 132.762 115.389 195 214 255
123.43 110.497 96.7155 208 222 255
115.324 33.6061 113.936 203 219 255
139.965 158.379 115.967 255 224 200
149.586 79.4071 111.815 220 229 255
74.387 204.335 112.804 188 210 255
93.2455 175.757 110.798 190 211 255
120.826 151.336 108.347 244 243 255
93.1318 175.731 110.796 212 224 255
141.17 88.9415 111.81 202 218 255
93.1598 108.358 108.706 211 224 255
110.684 150.009 109.084 205 220 255
16.4047 135.255 113.413 194 213 255
154.607 141.594 104.629 255 251 244
160.388 188.998 113.693 185 208 255
112.116 103.335 118.052 216 227 255
104.269 109.589 101.372 255 238 224
80.6021 159.888 112.565 194 213 255
130.626 34.1246 109.669 216 226 255
14.2748 163.273 112.144 176 202 255
64.6716 116.737 116.927 190 211 255
123.199 161.621 117.432 198 216 255
52.1621 82.2968 104.858 192 212 255
158.504 147.241 110.65 197 215 255
81.892 151.146 115.929 228 233 255
105.144 123.339 114.841 222 230 255
0.939395 110.725 112.921 179 204 255
213.569 152.854 111.008 188 210 255
141.653 10.5059 111.638 195 213 255
134.551 100.294 105.843 208 222 255
120.608 109.103 115.115 255 224 199
120.24 132.463 123.324 216 227 255
31.3898 67.5586 110.94 193 213 255
143.176 161.277 107.858 194 213 255
116.742 119.191 116.877 202 218 255
123.987 32.6701 116.796 192 212 255
85.9972 30.7776 112.947 183 206 255
51.6659 113.162 113.212 199 216 255
33.2863 153.462 114.112 194 213 255
200.98 152.944 112.007 188 209 255
50.9326 94.5775 111.641 195 214 255
103.151 138.486 124.619 255 239 226
150.97 93.2618 117.054 255 233 215
73.7982 88.338 104.103 253 248 255
144.772 95.2359 108.753 255 237 221
117.604 124.866 102.316 255 240 227
162.928 24.7367 109.645 187 209 255
186.489 80.3867 113.512 222 230 255
115.04 169.198 110.729 223 231 255
114.651 151.135 115.261 230 235 255
70.6312 77.4773 114.439 188 209 255
98.3314 108.54 102.184 226 232 255
157.531 86.2511 113.693 255 247 238
62.9657 123.276 109.926 214 225 255
98.2275 158.755 115.569 196 214 255
93.1325 175.534 110.584 215 226 255
107.688 155.253 111.358 255 227 204
178.069 157.88 114.01 195 214 255
93.3505 175.651 110.655 195 214 255
166.64 115.823 111.739 202 218 255
102.037 127.839 103.45 255 252 247
117.675 44.7467 112.718 255 253 249
123.59 95.6276 101.319 255 237 223
27.3424 103.693 110.638 189 210 255
32.7306 122.233 109.948 236 238 255
142.862 97.5272 116.011 255 219 190
114.036 105.078 126.78 247 244 255
180.833 31.6855 115.404 185 207 255
96.1136 150.161 119.54 255 235 219
119.18 201.265 111.735 205 220 255
219.436 115.811 113.627 245 243 255
114.021 119.348 104.758 213 225 255
93.3539 175.67 110.645 198 215 255
55.21 75.6383 112.377 199 216 255
29.7982 120.191 113.062 197 215 255
87.7459 91.71 117.639 198 215 255
155.5 84.2908 112.215 214 226 255
166.292 150.778 117.468 214 225 255
119.015 101.477 126.167 255 209 172
93.6105 175.688 110.442 207 221 255
47.7444 90.7624 119.791 206 221 255
75.644 186.325 109.295 191 211 255
135.911 83.9479 105.397 235 238 255
94.1729 187.035 110.183 192 212 255
93.2466 174.454 110.034 192 212 255
99.7028 187.328 110.697 181 205 255
65.0217 156.476 115.388 195 214 255
148.631 109.802 112.037 255 233 215
165.653 145.503 107.468 197 215 255
15.9426 156.116 112.17 206 220 255
150.566 175.029 111.639 231 235 255
128.973 99.443 123.261 207 221 255
185.47 114.604 110.976 193 213 255
125.857 123.859 109.852 242 241 255
89.7748 97.8437 108.005 223 230 255
115.384 125.8 104.758 255 249 255
130.448 75.9552 105.38 228 234 255
93.3295 175.701 110.657 197 215 255
151.745 139.876 105.572 230 234 255
144.493 104.249 111.454 255 225 202
59.156 161.644 107.745 222 230 255
142.534 204.318 112.192 194 213 255
95.7756 87.8866 117.506 255 254 250
85.3753 146.163 109.414 200 217 255
82.4255 147.532 111.429 215 226 255
47.7476 99.1755 111.598 192 212 255
143.577 125.027 105.878 255 254 250
170.381 184.992 114.602 189 210 255
143.437 146.795 114.245 192 212 255
137.065 106.772 117.697 255 235 218
169.427 111.097 109.547 248 245 255
144.334 119.775 123.266 234 237 255
185.982 78.4289 112.781 199 216 255
172.989 95.7532 112.406 194 213 255
127.526 140.916 102.928 255 230 209
81.1982 107.357 112.127 202 218 255
92.2859 35.522 111.283 190 210 255
126.45 137.475 122.117 255 245 235
85.5501 108.15 113.176 255 241 229
130.503 161.818 108.271 255 227 205
67.1452 32.9208 112.044 185 207 255
169.641 163.757 110.957 195 214 255
77.0964 46.2423 114.104 206 221 255
47.2206 157.364 115.342 195 214 255
93.9123 93.2488 123.195 255 227 204
197.082 79.2097 114.089 238 239 255
187.461 147.84 116.631 188 209 255
83.1504 170.701 111.722 247 244 255
147.626 135.087 105.825 196 214 255
98.0205 86.3443 102.403 253 248 255
81.8611 74.6797 106.027 255 254 251
124.753 113.831 100.065 249 246 255
75.8521 27.5542 112.158 205 220 255
157.529 86.4117 114.445 209 222 255
112.821 147.683 112.217 255 216 185
77.7137 137.147 107.985 232 236 255
106.079 156.701 114.001 255 252 247
42.9035 173.368 110.972 187 209 255
138.894 40.157 114.688 192 212 255
82.7875 104.032 118.999 222 230 255
122.475 115.333 112.204 255 248 241
141.364 115.38 114.912 255 248 240
89.6314 118.117 107.296 255 255 251
60.1145 27.8196 112.744 203 219 255
193.775 148.004 113.353 207 221 255
96.7252 111.608 99.0192 255 254 250
159.354 100.314 120.429 201 218 255
163.939 132.499 113.396 215 226 255
93.6408 73.1535 116.146 255 195 146
139.161 61.0624 111.862 221 229 255
132.907 176.261 116.158 189 210 255
125.08 193.873 110.797 204 220 255
193.987 63.5451 113.608 199 216 255
214.568 115.023 113.039 194 213 255
93.3418 175.731 110.706 210 223 255
89.5359 105.456 110.992 209 223 255
101.856 115.276 127.264 204 220 255
93.3683 175.771 110.591 204 219 255
89.5048 210.16 112.083 181 205 255
188.052 73.1473 114.099 248 245 255
67.8884 97.3775 107.757 255 244 233
55.3715 180.24 113.186 232 236 255
137.418 158.765 113.683 205 220 255
110.823 157.643 113.812 213 225 255
117.972 107.039 122.436 206 221 255
47.5659 160.715 111.322 180 204 255
85.7561 109.2 107.975 204 219 255
112.339 29.2548 108.184 185 208 255
26.2314 126.813 113.409 187 209 255
98.5552 70.8275 118.481 227 233 255
175.403 69.0756 112.804 196 215 255
51.326 111.528 111.354 229 234 255
113.65 17.9577 115.316 195 214 255
137.356 106.626 110.334 245 243 255
130.957 195.676 113.158 191 211 255
204.214 112.884 115.675 202 218 255
150.654 79.9535 111.741 205 220 255
144.155 147.101 111.062 214 225 255
42.5023 59.1461 111.942 233 237 255
84.5323 173.028 113.486 197 215 255
93.1853 102.341 103.683 207 221 255
115.308 126.663 124.305 219 228 255
159.9 176.624 113.122 201 217 255
111.248 115.546 97.8431 200 217 255
99.8611 105.631 109.772 255 252 247
105.838 30.9331 115.27 187 209 255
133.131 103.902 120.232 255 204 163
171.079 188.672 115.59 186 208 255
57.2036 123.221 108.174 219 228 255
188.571 64.9425 109.526 193 212 255
126.223 83.9663 110.304 190 211 255
38.688 142.89 112.33 206 220 255
138.6 50.2609 113.262 208 222 255
47.9255 118.816 121.327 207 221 255
161.867 108.88 107.567 251 246 255
98.509 114.896 118.051 255 179 115
192.018 153.677 113.942 202 218 255
101.564 162.33 109.444 255 235 218
93.3445 83.6651 105.294 191 211 255
91.2484 161.29 113.46 255 223 198
122.6 74.6987 111.229 204 219 255
135.939 72.8614 121.764 255 254 250
111.191 90.0772 105.508 255 219 191
93.386 176.094 110.835 210 223 255
114.205 148.284 111.673 209 222 255
106.351 206.984 97.7611 210 223 255
83.5323 11.6845 113.197 183 206 255
73.7263 127.411 107.349 255 249 255
157.591 131.041 105.41 255 245 236
37.4821 111.918 109.879 200 217 255
99.1778 19.9147 111.698 182 205 255
39.9583 107.98 112.498 196 214 255
106.143 71.6905 121.052 214 225 255
143.441 84.0718 112.539 215 226 255
104.684 63.8524 110.638 192 212 255
79.9147 143.965 111.54 225 232 255
27.8777 137.24 113.614 205 220 255
93.0155 176.741 110.125 210 223 255
119.186 127.017 113.612 227 233 255
159.648 96.422 117.594 220 229 255
85.543 94.5798 119.549 255 91 0
77.5906 147.846 115.908 203 218 255
166.926 71.08 109.999 184 207 255
151.761 77.3015 109.892 185 208 255
83.0499 31.8142 111.157 199 216 255
188.306 140.694 115.508 181 205 255
111.305 35.9794 111.338 209 222 255
151.215 66.954 109.276 189 210 255
165.389 170.077 112.285 255 233 216
84.6651 101.645 114.669 203 219 255
119.025 110.177 105.218 255 221 194
87.8321 77.5994 118.12 237 239 255
60.0061 127.619 109.865 255 245 236
124.803 124.134 105.21 255 226 203
40.4295 81.7527 111.971 225 232 255
103.623 155.698 106.706 220 229 255
118.457 177.29 110.87 215 226 255
152.994 96.9974 123.853 216 227 255
123.377 74.4667 119.118 255 205 165
140.49 87.5854 103.409 252 247 255
7.45755 104.847 114.417 188 209 255
53.4941 114.411 112.16 229 234 255
79.1339 143.189 115.415 251 247 255
141.545 68.0267 114.367 205 220 255
130.366 17.743 112.646 197 215 255
173.566 39.0067 112.943 190 211 255
121.211 148.189 111.011 205 220 255
93.1551 176.404 110.649 255 229 207
109.867 124.034 130.382 201 217 255
121.827 150.389 118.131 255 234 217
39.795 95.8088 114.395 190 211 255
154.548 85.4811 112.473 255 189 134
115.494 132.682 104.211 249 245 255
97.9049 151.381 109.974 231 235 255
118.596 122.377 97.6014 199 217 255
40.5981 186.029 112.593 193 212 255
48.6974 98.94 111.787 240 240 255
125.976 4.11752 108.61 191 211 255
123.214 141.595 116.335 255 233 215
23.8992 152.423 112.443 183 206 255
133.493 101.86 119.35 255 254 251
147.105 104.611 110.318 212 224 255
74.6051 137.404 115.097 223 231 255
140.716 117.407 113.141 207 221 255
125.312 131.594 109.518 255 248 239
162.233 163.455 112.762 180 204 255
162.713 53.0392 111.026 229 234 255
194.205 43.0645 113.788 182 206 255
115.734 112.421 120.132 217 227 255
127.012 186.881 109.422 221 230 255
63.2293 93.4298 112.834 255 249 255
68.4899 115.404 120.084 254 249 255
73.2068 113.792 108.056 224 231 255
101.514 113.141 111.786 255 113 0
218.269 73.5908 111.004 181 205 255
101.662 40.9787 116.87 218 227 255
102.759 43.9927 116.368 182 206 255
100.139 175.615 110.59 255 232 213
145.542 78.1279 118.041 189 210 255
51.0098 88.2949 112.283 226 232 255
30.8771 172.484 114.534 192 212 255
148.848 79.2828 113.007 255 231 212
113.075 127.7 124.612 255 237 221
143.555 138.65 118.323 246 244 255
93.4021 175.638 110.706 237 239 255
111.092 109.854 97.5624 224 231 255
118.535 114.063 118.623 232 236 255
93.6075 175.524 110.958 208 222 255
139.926 116.743 101.812 248 245 255
148.191 50.7997 114.874 198 216 255
75.538 118.661 110.343 209 222 255
26.7124 79.7073 113.01 174 200 255
85.1263 161.584 111.868 196 214 255
102.904 174.708 110.797 209 222 255
173.529 120.859 113.053 225 232 255
118.814 97.7819 103.117 216 227 255
139.462 167.616 108.102 204 219 255
143.003 145.646 107.69 228 234 255
149.655 80.4399 112.836 197 215 255
31.3394 40.8912 112.18 188 209 255
44.1709 63.9005 115.143 188 209 255
148.214 167.255 117.067 199 216 255
61.8995 133.177 114.313 221 229 255
78.0152 63.3501 111.237 203 219 255
166.068 87.0491 115.944 195 214 255
119.692 130.571 106.21 255 164 83
109.405 110.472 127.244 255 253 248
26.5011 109.672 114.131 201 218 255
103.509 131.523 123.847 236 238 255
118.427 186.298 113.098 221 229 255
24.3838 162.14 112.614 198 215 255
130.814 100.761 115.014 255 234 217
122.011 52.4142 115.992 195 214 255
59.4231 91.7941 112.13 226 232 255
31.2582 65.6345 115.524 187 209 255
157.795 140.719 112.656 194 213 255
160.23 200.235 116.056 183 206 255
90.214 128.445 101.972 255 238 223
93.8376 96.6171 118.411 212 224 255
82.455 150.721 116.14 253 248 255
64.5238 141.171 114.228 213 225 255
138.644 49.1197 113.149 204 219 255
49.9741 149.353 111.635 231 235 255
120.095 93.3205 113.038 249 245 255
17.3055 111.028 113.02 189 210 255
100.426 134.502 104.221 200 217 255
161.939 191.249 114.075 189 210 255
144.028 92.2715 106.154 237 239 255
80.7703 111.239 108.165 208 222 255
53.5841 128.245 110.578 187 209 255
111.464 68.7708 111.569 255 209 172
151.58 52.2105 110.202 196 215 255
199.866 138.474 110.25 184 207 255
144.362 91.8188 116.92 203 218 255
90.9768 129.671 100.982 255 252 247
107.27 118.122 121.601 255 219 190
63.6457 15.8489 115.48 195 214 255
81.8582 149.539 113.889 255 251 245
118.396 80.4714 110.041 204 219 255
201.171 175.895 114.264 178 203 255
94.6188 173.65 110.079 200 217 255
110.001 148.157 110.115 236 238 255
126.522 105.113 112.502 255 244 233
133.433 203.108 107.407 214 226 255
76.1738 142.557 110.505 236 238 255
132.985 129.146 112.234 220 229 255
94.0412 151.602 113.322 208 222 255
179.094 63.0238 111.273 197 215 255
82.859 127.374 110.134 255 252 247
28.3702 174.048 112.326 195 214 255
111.905 78.6417 120.094 208 222 255
61.2968 107.116 105.585 205 220 255
93.3016 175.786 110.723 199 216 255
144.116 134.551 115.145 217 227 255
123.419 102.461 102.426 239 240 255
76.4926 130.024 111.241 188 209 255
129.775 88.7357 105.28 255 227 205
121.56 109.659 110.803 200 217 255
57.7172 168.841 112.783 196 214 255
143.475 160.852 114.428 220 229 255
97.3593 89.9328 105.897 255 218 189
166.06 114.552 96.4752 207 221 255
121.218 146.09 110.304 255 252 247
188.049 134.894 114.533 198 215 255
50.4866 112.307 113.646 213 225 255
117.951 174.042 111.927 204 219 255
169.37 160.229 110.711 195 214 255
57.4793 156.647 110.163 214 225 255
149.881 18.4629 113.91 189 210 255
64.0906 181.441 110.155 183 206 255
125.7 109.483 104.425 255 240 226
139.428 70.1948 124.125 255 233 215
96.0644 114.069 104.826 255 248 240
102.978 176.417 110.442 197 215 255
47.7898 116.023 112.235 203 219 255
61.5601 133.643 113.158 208 221 255
136.928 77.3019 110.341 202 218 255
98.9191 124.862 100.311 255 220 192
147.147 126.954 119.784 210 223 255
65.3502 140.176 107.584 196 214 255
133.067 131.09 117.521 219 228 255
190.485 151.27 110.739 187 209 255
154.93 15.0992 111.908 206 220 255
101.944 20.8615 113.291 215 226 255
75.978 114.549 112.313 194 213 255
134.078 133.602 111.344 223 231 255
131.256 167.834 113.915 205 220 255
132.473 181.199 110.997 189 210 255
119.389 108.254 101.21 255 250 244
141.597 104.029 120.051 255 207 169
62.2503 109.584 119.66 193 213 255
96.6286 62.9093 113.496 215 226 255
82.0388 185.858 113.277 195 213 255
75.6591 33.3144 109.999 199 216 255
113.07 116.997 120.352 255 204 162
79.9978 115.884 109.969 255 225 200
163.318 160.422 113.508 207 221 255
36.0027 185.653 110.397 190 211 255
98.9036 52.2331 109.419 250 246 255
103.616 81.4611 106.467 203 219 255
70.2212 63.1742 115.166 194 213 255
129.922 58.9308 114.639 216 226 255
177.485 103.587 111.044 199 216 255
126.548 53.4704 108.44 203 218 255
51.325 77.7229 112.028 192 212 255
203.825 154.764 114.235 193 213 255
74.8442 40.5792 110.602 193 212 255
37.5716 56.2398 107.852 185 207 255
154.105 77.8763 108.654 219 228 255
125.158 76.9302 114.646 255 252 246
102.671 86.8089 112.983 247 245 255
21.7192 157.325 113.016 193 213 255
110.17 174.305 112.791 228 233 255
185.977 157.187 116.432 200 217 255
171.874 129.521 112.663 214 225 255
161.008 118.693 117.393 203 219 255
52.2677 45.91 107.633 204 220 255
54.7072 120.12 110.073 194 213 255
141.284 67.1393 112.698 205 220 255
169.276 171.473 100.837 190 210 255
114.614 140.299 109.612 255 214 182
147.377 78.166 108.078 255 211 176
116.734 121.547 99.3259 255 222 196
92.833 175.976 111.34 212 224 255
125.265 117.66 103.35 224 231 255
123.061 125.399 115.312 216 226 255
84.8944 35.665 109.914 186 208 255
161.327 86.7174 111.8 198 216 255
99.0286 175.067 111.193 200 217 255
143.363 76.5717 114.388 255 243 232
102.442 108.487 108.79 217 227 255
81.9886 145.239 112.584 255 251 246
110.707 100.933 107.75 255 230 210
157.017 17.8032 106.15 187 209 255
146.959 76.2197 113.545 195 214 255
90.1331 144.076 121.283 255 220 192
111.244 84.1132 106.778 220 229 255
158.152 82.599 109.951 216 227 255
70.9546 48.0954 121.811 188 209 255
75.2233 41.0748 111.968 188 209 255
106.38 109.765 103.418 246 244 255
120.736 119.228 114.978 255 233 215
93.2758 170.137 111.914 192 212 255
68.7556 100.18 106.315 220 229 255
132.641 105.93 110.357 220 229 255
91.5185 68.8612 108.99 232 236 255
107.864 70.0898 109.633 198 216 255
93.3375 175.652 110.628 196 214 255
132.846 133.973 115.009 213 224 255
46.6247 101.161 113.085 210 223 255
82.8444 153.818 114.747 206 221 255
136.432 150.032 109.926 231 235 255
78.5648 8.93659 114.445 188 209 255
148.983 79.4793 113.236 240 240 255
