ply
format ascii 1.0
element vertex 1341
property float x
property float y
property float z
property uchar red
property uchar green
property uchar blue
end_header
109.433 124.585 105.373 255 191 138
73.6372 161.678 116.4 192 212 255
71.2695 129.396 107.9 187 209 255
75.5154 120.27 112.568 255 248 240
215.315 144.235 115.627 201 217 255
75.6744 39.2012 109.635 217 227 255
51.601 75.8988 120.303 199 216 255
125.693 82.2637 132.262 255 229 208
111.335 83.6008 121.469 255 250 243
18.1859 129.743 117.265 195 214 255
110.387 102.914 109.405 231 235 255
95.9832 187.534 74.9098 255 241 229
95.4123 126.746 116.199 255 249 243
132.427 89.5821 109.92 203 219 255
117.962 85.8873 113.474 255 250 243
94.1235 167.481 117.406 255 245 235
113.194 136.092 104.56 255 230 210
72.364 78.2676 112.584 194 213 255
117.093 51.0388 116.605 225 232 255
165.578 127.871 147.94 222 230 255
94.7652 174.876 109.996 248 245 255
98.5699 197.147 112.702 187 209 255
132.119 78.5464 124.503 201 218 255
99.8633 84.6657 112.92 255 254 251
110.096 109.785 116.995 255 250 255
41.8695 103.816 103.824 235 237 255
124.906 122.407 103.867 209 222 255
149.087 165.822 115.019 192 212 255
59.1414 99.4483 110.745 213 225 255
122.645 127.193 114.198 255 229 207
117.339 115.81 110.636 255 112 0
108.097 92.2327 117.246 243 242 255
66.6705 71.4448 112.705 208 222 255
107.191 173.158 115.252 225 232 255
120.89 134.004 119.622 255 227 204
118.67 106.297 92.0563 213 225 255
98.1065 165.652 126.738 255 255 251
178.123 36.2889 119.722 186 208 255
96.8278 138.997 101.583 255 210 175
89.4978 166.793 125.197 255 221 195
63.3643 189.553 113.343 199 216 255
116.751 145.124 101.344 203 219 255
120.5 99.9955 124.99 244 243 255
104.317 185.01 110.207 185 207 255
124.801 132.756 114.748 255 255 252
94.1214 174.306 110.754 215 226 255
60.571 65.502 113.594 209 222 255
120.268 106.772 117.382 255 234 217
100.821 83.9428 126.5 211 223 255
88.4638 162.73 105.386 255 253 248
19.9403 105.839 112.648 193 213 255
145.101 163.92 114.011 198 215 255
89.3459 147.739 110.784 245 243 255
106.024 137.34 112.248 255 220 191
52.4088 147.975 110.814 197 215 255
105.942 149.191 120.239 222 230 255
100.686 88.8724 120.809 213 224 255
120.032 87.0804 110.295 231 235 255
116.059 156.917 109.393 187 209 255
121.154 102.166 110.405 255 249 242
91.9472 86.1038 113.432 193 213 255
157.453 101.928 111.134 223 231 255
110.327 140.057 99.4519 255 254 250
110.135 112.132 114.942 255 241 229
33.9658 217.018 116.583 210 223 255
94.1031 174.404 111.427 244 243 255
121.565 50.4076 116.238 220 229 255
111.353 150.375 118.206 198 216 255
47.8025 49.4251 135.433 251 247 255
110.152 92.5659 113.396 208 222 255
94.1083 174.275 110.777 255 230 210
94.2361 174.8 109.681 202 218 255
111.776 78.5843 119.677 224 231 255
128.328 122.983 118.354 218 228 255
51.8939 157.093 109.776 224 231 255
133.57 136.053 111.261 205 220 255
96.5325 202.876 116.907 192 212 255
142.108 12.9657 115.835 184 207 255
131.344 59.8635 117.634 255 251 255
141.372 81.1894 115.429 211 224 255
75.5769 56.1502 113.551 213 225 255
115.544 123.243 110.894 210 223 255
148.339 51.1934 113.487 245 243 255
208.844 114.473 114.806 198 215 255
144.871 144.628 109.679 240 240 255
101.832 131.425 112.179 255 230 210
105.662 136.739 94.7203 220 229 255
106.503 119.814 119.859 250 246 255
78.351 177.768 94.1774 214 226 255
94.0031 174.201 110.736 201 218 255
100.512 190.549 107.838 196 215 255
95.4869 25.6442 119.918 196 214 255
131.277 143.032 108.872 240 240 255
130.051 202.607 138.781 175 201 255
97.3903 139.693 117.774 209 222 255
111.841 99.7075 120.41 255 252 247
106.969 134.761 105.468 234 237 255
85.9997 191.194 113.557 187 209 255
81.6321 103.751 109.957 193 213 255
94.1049 174.303 110.764 236 238 255
124.144 213.27 110.546 252 247 255
127.856 13.3367 93.1812 188 210 255
89.6771 172.491 110.088 205 220 255
107.049 131.478 109.91 255 233 215
126.34 87.6263 104.743 255 194 144
141.952 89.3788 123.514 191 211 255
113.722 71.6727 121.448 209 222 255
114.799 109.035 116.672 255 197 151
136.029 98.92 136.659 204 220 255
219.992 124.907 108.392 255 227 204
46.6032 118.406 84.9484 193 212 255
118.957 109.229 112.52 255 244 233
128.998 122.003 111.382 225 232 255
81.3532 61.3526 112.883 190 210 255
102.367 152.812 115.272 209 223 255
94.4977 119.795 114.29 210 223 255
57.517 128.655 124.944 209 222 255
94.0969 174.3 110.769 189 210 255
58.9558 57.5986 109.93 207 221 255
94.1063 174.303 110.763 206 221 255
58.0594 38.1513 110.425 204 219 255
103.858 176.579 104.244 255 235 218
111.116 110.357 119.97 255 217 187
115.079 106.989 115.063 255 249 242
157.791 20.6212 110.852 224 231 255
135.474 85.7238 131.442 251 247 255
64.0065 191.724 112.595 187 209 255
72.44 108.494 111.922 255 249 242
102.708 154.871 105.512 199 216 255
127.657 112.22 105.746 212 224 255
92.492 174.134 111.153 214 225 255
116.438 76.1662 121.028 214 226 255
77.3027 20.6649 110.773 177 202 255
148.806 106.329 112.65 255 215 184
55.829 109.281 108.796 235 237 255
50.576 149.17 109.405 201 217 255
121.771 115.493 109.736 255 251 245
119.339 120.084 110.173 197 215 255
100.854 143.686 111.182 224 231 255
112.065 119.776 110.513 255 225 200
90.6782 138.288 111.782 209 223 255
125.858 202.283 108.219 203 219 255
121.997 130.658 108.256 218 228 255
94.1712 174.324 110.734 255 254 251
47.5883 145.735 108.721 202 218 255
68.7355 148.648 115.123 205 220 255
94.5574 13.867 111.584 222 230 255
129.38 122.129 109.248 255 251 246
94.0983 174.3 110.768 255 247 239
140.23 90.8282 109.605 198 215 255
102.895 102.335 114.632 212 224 255
120.455 132.376 115.7 241 241 255
89.0296 184.54 105.915 253 248 255
133.561 77.4703 117.185 213 225 255
112.631 118.262 101.016 255 180 117
124.969 130.277 114.434 255 162 78
106.465 119.044 120.723 255 250 255
104.918 157.736 123.368 255 253 249
114.154 116.516 117.053 250 246 255
120.065 139.766 117.694 220 229 255
94.3928 174.549 111.05 220 229 255
110.227 119.732 107.215 255 249 242
79.5254 110.812 109.594 230 235 255
158.599 25.2139 107.821 201 218 255
175.984 25.0316 110.316 180 204 255
189.308 9.66073 123.054 182 205 255
109.148 119.213 110.269 220 229 255
100.112 164.884 109.412 201 217 255
58.0557 45.6393 133.274 222 230 255
102.088 98.5936 121.391 196 214 255
90.3613 79.7279 113.317 251 247 255
110.803 142.304 107.04 255 249 242
51.4897 70.1646 106.769 239 240 255
67.135 134.95 135.137 255 252 246
49.3133 37.4731 99.072 194 213 255
95.7943 144.353 89.8896 186 208 255
72.8099 87.9607 110.914 207 221 255
119.779 148.532 112.798 255 217 187
94.1055 174.303 110.764 201 218 255
111.282 164.68 110.584 255 247 238
80.1618 52.9255 106.345 208 221 255
85.7725 173.264 115.505 210 223 255
110.647 133.715 106.013 255 228 206
122.259 121.452 120.425 214 225 255
161.992 54.3197 110.345 193 213 255
97.1196 184.938 111.382 199 216 255
39.1816 66.2101 116.913 255 249 242
94.0797 174.294 110.78 206 221 255
44.796 196.477 119.229 187 209 255
136.781 150.659 116.456 195 214 255
114.311 126.418 127.691 255 251 246
94.1432 174.317 110.746 210 223 255
112.16 116.462 117.859 255 248 241
160.814 140.199 129.646 207 221 255
94.1236 174.33 110.789 255 253 249
108.52 167.581 128.699 226 232 255
72.454 135.462 112.557 210 223 255
179.937 102.066 107.072 255 220 192
109.157 106.567 115.524 207 221 255
72.3586 14.2948 115.33 185 207 255
100.23 154.464 104.907 196 214 255
90.301 196.876 110.925 199 216 255
117.254 124.245 120.847 255 245 236
136.868 202.976 101.626 201 218 255
54.8333 122.568 101.722 209 222 255
126.612 60.6076 116.758 233 236 255
122.47 128.313 108.681 212 224 255
103.122 123.298 114.917 235 238 255
94.0252 174.294 111.098 249 246 255
94.2809 174.327 110.699 197 215 255
110.934 111.756 126.177 214 225 255
188.213 177.533 89.1643 200 217 255
222.018 131.299 109.104 190 211 255
56.3229 155.83 143.005 214 225 255
118.151 157.244 108.596 201 217 255
115.879 112.349 114.705 216 227 255
10.3112 113.728 111.783 184 207 255
100.446 117.808 116.705 255 237 221
168.878 88.3008 112.123 192 212 255
93.958 176.785 118.446 255 193 143
109.994 130.484 111.804 255 246 237
98.6649 83.5666 124.663 201 218 255
116.74 108.578 116.26 195 214 255
94.0991 174.301 110.768 238 239 255
171.119 155.455 103.623 193 212 255
100.588 122.418 102.554 196 214 255
105.529 107.427 119.757 235 237 255
81.5067 129.276 114.234 248 245 255
133.958 156.595 110.697 201 217 255
145.35 151.984 63.1118 182 206 255
94.1094 174.304 110.762 255 221 194
55.2204 204.727 121.153 192 212 255
103.391 155.675 122.937 255 228 206
75.8856 57.3435 110.338 197 215 255
120.982 114.376 102.144 209 222 255
94.1091 174.304 110.762 220 229 255
99.4061 107.718 104.917 255 207 168
94.1429 174.315 110.745 255 233 215
81.9981 124.678 109.047 209 223 255
129.819 108.997 106.453 255 250 255
17.6993 182.558 109.743 180 204 255
104.2 103.151 121.583 255 245 236
108.791 109.847 108.28 226 233 255
94.1034 174.302 110.765 200 217 255
128.401 57.688 116.116 192 212 255
100.499 60.6749 114.989 209 222 255
93.5481 174.139 111.345 213 225 255
109.48 104.978 117.849 255 241 229
103.868 105.52 109.918 207 221 255
114.629 131.536 104.217 231 235 255
103.395 138.203 112.998 255 200 156
119.277 138.359 105.391 201 217 255
48.0487 44.6401 101.325 197 215 255
58.7203 60.2315 113.416 209 222 255
70.551 158.875 112.742 200 217 255
94.1901 173.167 110.986 255 238 223
97.1316 145.239 119.539 255 175 105
160.235 130.955 109.669 223 231 255
98.3445 103.479 104.728 255 244 234
94.4518 169.208 103.644 201 218 255
85.8634 189.292 96.0783 220 229 255
140.23 34.8142 111.937 255 202 159
118.942 148.015 110.865 217 227 255
92.3422 167.094 118.686 240 241 255
211.334 98.9025 110.063 200 217 255
111.432 131.073 120.216 255 224 198
54.8749 63.5421 110.927 175 201 255
94.1685 174.325 110.735 206 221 255
117.123 145.059 117.783 255 238 223
134.896 48.1689 115.635 193 212 255
94.1339 174.313 110.749 201 218 255
125.957 155.477 118.344 184 207 255
44.889 101.883 96.3572 199 216 255
114.942 127.715 98.7964 255 250 255
94.3951 174.668 110.729 213 225 255
119.991 165.352 114.188 190 210 255
94.1649 174.326 110.737 219 228 255
93.195 173.973 110.95 218 228 255
208.847 51.6598 111.339 192 212 255
42.8247 197.153 110.522 200 217 255
110.76 128.079 104.734 255 69 0
100.556 96.1503 122.49 222 230 255
128.385 81.501 106.689 193 213 255
134.7 31.1043 112.797 189 210 255
126.73 172.757 101.171 186 208 255
112.065 116.147 108.013 224 231 255
105.447 102.757 117.711 218 227 255
187.515 129.644 113.694 204 219 255
94.1231 174.267 110.723 197 215 255
62.1534 13.5159 153.519 215 226 255
115.476 127.326 104.782 216 227 255
126.653 70.3057 100.467 210 223 255
156.506 124.905 109.082 233 237 255
120.368 118.438 104.695 237 239 255
49.8095 188.58 113.034 190 211 255
168.349 109.673 118.435 192 212 255
59.8842 121.603 116.434 213 225 255
78.4182 176.247 98.6023 255 250 255
51.8307 96.2113 108.539 202 218 255
47.4643 74.5583 109.427 177 202 255
193.777 102.741 112.111 192 212 255
94.0429 174.274 110.831 189 210 255
213.774 100.802 112.855 208 222 255
114.101 107.42 117.152 255 249 241
106.699 194.258 113.243 190 210 255
24.3601 66.4447 110.374 203 219 255
121.064 138.516 113.819 255 230 209
92.0222 173.561 111.209 188 210 255
161.034 137.609 115.584 204 219 255
94.1093 174.304 110.762 239 240 255
112.253 99.2325 117.424 255 237 221
118.456 118.593 110.3 255 230 210
133.656 76.1873 122.483 255 253 249
155.033 94.4027 116.422 209 222 255
117.803 101.556 107.311 196 215 255
223.406 124.339 114.736 198 216 255
75.6588 135.814 118.558 209 222 255
113.107 103.191 120.036 255 204 163
141.623 127.242 112.068 208 222 255
177.091 110.794 115.577 191 211 255
97.0316 148.906 108.341 204 219 255
113.182 119.821 106.117 231 235 255
120.808 111.956 113.291 255 182 121
79.001 144.144 115.419 194 213 255
94.3056 174.355 109.618 215 226 255
143.193 88.9832 118.138 209 222 255
107.523 122.914 95.0555 201 217 255
106.115 135.09 107.18 255 105 0
94.1007 174.301 110.767 255 250 244
159.118 30.5689 113.886 188 210 255
95.9265 175.055 110.455 233 236 255
166.214 39.2485 114.983 183 206 255
68.3556 142.412 112.6 233 236 255
95.9745 132.76 108.077 255 185 126
149.953 1.2601 111.811 186 208 255
109.603 126.321 108.334 246 244 255
111.047 23.0111 122.088 202 218 255
94.4345 54.3812 108.409 179 204 255
63.5527 205.511 128.254 183 206 255
94.0996 174.301 110.767 255 243 231
38.7678 135.064 112.454 200 217 255
161.516 111.3 94.8621 219 228 255
128.747 6.59795 130.03 195 214 255
109.55 103.236 109.504 255 252 248
118.571 132.748 106.569 189 210 255
137.482 72.996 101.501 210 223 255
78.6622 138.309 109.072 229 234 255
127.024 114.466 119.064 228 233 255
146.694 98.3571 109.996 252 247 255
131.57 58.3227 158.609 231 235 255
137.725 103.165 135.783 196 214 255
103.982 139.345 105.55 255 253 249
201.449 147.961 114.705 187 209 255
117.84 134.393 112.716 202 218 255
66.326 120.862 114.137 190 211 255
113.697 61.6073 115.172 223 231 255
131.041 177.642 113.513 187 209 255
101.859 216.259 89.3409 178 203 255
84.5049 154.367 115.873 255 230 210
118.136 191.309 104.13 195 214 255
20.8453 85.7274 112.978 180 204 255
105.412 120.782 106.07 255 216 185
108.42 107.46 113.999 232 236 255
116.041 61.2784 132.835 214 225 255
57.0953 133.523 103.281 198 216 255
109.345 89.8331 110.201 203 219 255
161.378 119.012 84.9298 213 225 255
37.639 94.5085 122.521 190 211 255
94.6006 174.029 110.544 255 233 215
114.28 95.3957 119.988 255 225 201
168.754 100.038 101.243 228 233 255
84.8838 151.679 111.463 208 222 255
94.111 174.305 110.761 215 226 255
80.9359 141.664 107.677 255 253 249
60.7922 84.0768 121.175 194 213 255
122.278 43.457 115.848 193 212 255
93.881 173.726 113.723 233 236 255
93.444 174.099 110.671 197 215 255
220.491 74.0852 113.21 191 211 255
127.738 84.6009 169.647 214 225 255
69.6983 135.714 113.721 255 251 255
22.1767 53.6391 114.832 188 209 255
129.463 112.946 113.14 220 229 255
101.256 104.296 124.824 255 250 243
106.4 156.49 99.9751 255 245 236
94.0987 174.3 110.768 237 239 255
94.1203 174.306 110.757 255 251 246
164.791 129.206 96.9517 223 231 255
120.139 108.914 102.019 255 199 153
109.948 122.034 110.719 238 239 255
50.8095 91.19 114.436 255 254 250
157.37 140.657 124.279 194 213 255
114.439 110.847 113.817 255 238 224
120.567 116.036 104.504 205 220 255
117.162 129.915 113.699 255 209 173
129.899 113.299 114.429 216 227 255
128.836 156.383 110.691 219 228 255
57.9463 93.1545 111.242 209 223 255
148.816 146.164 107.332 198 215 255
106.656 61.125 131.135 255 206 167
94.1046 174.303 110.764 217 227 255
149.508 38.836 114.268 186 208 255
207.825 142.75 88.0365 215 226 255
123.678 79.3703 92.6382 255 251 246
132.83 46.3521 115.757 197 215 255
92.4768 182.341 110.705 247 245 255
163.161 112.157 114.582 236 238 255
91.4268 148.169 111.238 255 245 236
136.782 117.418 124.292 255 212 178
88.3981 183.943 109.827 195 214 255
193.715 17.4182 109.853 192 212 255
124.559 158.766 111.508 187 209 255
104.757 94.4551 104.188 207 221 255
105.824 133.445 114.892 201 217 255
202.361 26.0387 106.99 197 215 255
71.4812 134.42 101.005 200 217 255
133.209 125.847 118.545 248 245 255
114.034 193.969 100.556 188 209 255
149.828 164.563 106.809 255 254 250
94.1372 174.314 110.748 207 221 255
94.1134 174.306 110.759 190 211 255
112.868 128.247 105.053 200 217 255
83.659 3.86994 116.632 189 210 255
89.6913 146.054 110.346 189 210 255
166.465 42.78 114.679 206 220 255
146.294 118.355 109.455 204 220 255
129.085 124.043 109.4 255 219 191
198.214 126.063 131.806 234 237 255
56.6452 145.267 137.187 202 218 255
46.3654 99.2101 116.638 246 244 255
54.213 171.165 116.529 214 225 255
114.358 125.211 107.183 255 223 198
61.8413 126.614 102.908 222 230 255
107.184 106.915 110.308 255 247 239
103.842 115.532 120.657 221 230 255
28.1166 150.086 108.683 202 218 255
104.655 217.632 106.839 187 209 255
125.494 167.981 109.03 192 212 255
103.502 109.784 122.586 239 240 255
137.608 96.4635 86.4047 255 252 247
118.665 106.27 115.821 255 201 158
121.467 59.5916 117.351 255 241 228
153.879 157.175 112.063 184 207 255
127.127 123.847 127.083 255 195 147
113.598 96.3473 92.275 220 229 255
99.9804 119.378 130.213 255 200 156
112.619 151.287 114.124 255 254 250
151.958 80.8732 115.477 192 212 255
70.6313 60.9649 111.942 255 249 255
63.4493 92.0966 110.546 202 218 255
68.9941 141.955 98.9414 207 221 255
94.0246 174.205 110.801 224 231 255
98.6895 64.4129 113.844 197 215 255
82.612 37.6606 113.891 203 219 255
93.5966 174.453 110.541 213 224 255
107.665 117.482 126.684 255 221 193
159.698 128.275 101.648 194 213 255
87.4203 15.7366 99.0508 185 208 255
183.252 87.487 104.018 255 232 213
119.977 93.7464 112.119 238 239 255
8.03369 118.855 114.497 181 205 255
121.347 131.636 108.259 209 222 255
94.7155 128.477 118.141 240 240 255
94.121 174.308 110.756 193 213 255
173.162 86.6353 109.484 193 213 255
132.965 118.643 108.714 210 223 255
77.5171 139.08 100.683 255 247 239
80.0387 137.284 114.352 219 228 255
140.614 83.8001 109.926 246 244 255
85.0174 141.576 113.339 187 209 255
155.497 222.227 113.856 224 231 255
106.571 181.246 113.257 204 219 255
92.8461 174.865 111.494 255 253 249
94.1027 174.302 110.765 209 222 255
46.1542 114.401 112.868 211 223 255
94.1233 174.309 110.754 219 228 255
65.2331 209.876 96.8571 182 206 255
116.355 77.2021 118.524 255 207 168
108.746 126.302 117.155 255 250 243
109.695 116.879 110.81 255 248 240
115.168 102.109 117.76 255 245 235
157.938 28.3199 114.975 181 205 255
66.3201 80.8475 118.407 181 205 255
127.98 94.3398 109.768 255 246 238
148.278 100.767 114.295 230 235 255
146.07 75.1355 119.223 209 222 255
155.638 127.535 108.897 197 215 255
42.9388 125.765 108.584 194 213 255
94.1066 174.303 110.763 189 210 255
96.257 146.466 110.93 255 211 177
163.637 91.8529 116.102 195 214 255
77.5582 102.79 187.403 196 215 255
105.349 112.167 117.875 209 222 255
70.7141 121.079 113.928 192 212 255
52.0138 148.751 113.567 196 215 255
94.1782 174.325 110.73 248 245 255
59.0472 100.528 114.283 255 249 241
63.4398 138.06 127.614 201 217 255
135.808 85.6746 110.259 198 216 255
95.7633 184.191 98.6972 210 223 255
221.721 73.9539 115.485 200 217 255
115.161 111.121 103.575 255 171 98
117.602 115.491 93.6021 255 193 143
105.427 101.554 111.23 210 223 255
115.239 94.994 128.538 214 226 255
74.7306 92.9589 110.941 198 215 255
94.0864 174.296 110.776 186 208 255
101.95 109.485 112.135 255 172 99
55.4628 119.664 139.527 226 232 255
106.775 105.941 111.627 255 254 250
24.0215 133.591 107.623 190 211 255
155.084 123.96 110.515 199 216 255
93.594 99.6825 116.132 218 228 255
94.1194 174.308 110.757 255 249 242
178.025 80.937 111.321 205 220 255
5.74025 156.44 111.785 191 211 255
94.1008 174.301 110.766 255 246 236
132.497 78.891 98.7713 255 251 246
101.486 114.46 112.036 255 219 191
94.6346 174.62 110.21 233 237 255
94.0966 174.299 110.769 199 216 255
101.427 107.839 103.332 255 229 209
117.153 109.424 114.416 255 230 209
108.169 139.183 93.4575 249 245 255
123.411 173.92 105.681 181 205 255
109.975 116.214 113.732 255 252 246
112.016 78.5389 115.588 188 210 255
117.022 122.772 110.545 198 216 255
41.2401 123.355 114.759 194 213 255
108.701 165.962 116.053 209 222 255
96.553 164.469 122.899 197 215 255
112.004 135.628 113.373 252 247 255
91.6653 106.838 106.878 241 241 255
121.442 127.832 109.908 209 222 255
101.542 130.936 135.753 213 225 255
215.89 154.847 117.712 179 204 255
94.1821 174.337 110.748 205 220 255
94.2108 174.343 110.731 216 226 255
163.221 88.3689 111.278 209 222 255
62.1883 38.7641 104.826 189 210 255
165.032 63.5537 111.45 190 211 255
197.722 96.91 116.096 200 217 255
110.465 113.337 113.637 255 241 228
142.111 28.2737 111.57 191 211 255
94.1341 174.254 110.858 192 212 255
94.1045 174.302 110.765 221 229 255
110.782 123.098 104.132 224 231 255
104.447 156.941 114.267 255 209 172
77.441 153.589 101.606 216 226 255
93.3413 162.315 109.782 190 211 255
122.618 116.468 108.965 255 224 199
94.0774 174.293 110.782 211 224 255
162.916 19.1381 102.962 202 218 255
20.881 143.217 107.955 188 209 255
60.0428 146.446 91.4774 220 229 255
183.076 79.6584 91.8893 201 218 255
99.8826 106.13 112.094 220 229 255
94.1123 174.305 110.76 203 219 255
131.504 100.681 114.322 255 224 200
163.95 144.253 110.027 208 221 255
106.499 152.943 103.282 209 222 255
116.877 101.257 118.589 255 243 232
94.5359 174.822 110.088 210 223 255
159.691 180.182 120.887 181 205 255
123.156 103.895 114.285 201 218 255
34.1891 169.089 110.497 184 207 255
115.883 100.7 102.367 255 230 209
122.366 116.86 113.128 204 220 255
109.011 166.035 125.947 198 216 255
113.747 131.819 99.8383 255 249 242
81.6648 102.968 113.372 223 231 255
177.047 52.7245 113.386 211 223 255
94.0375 174.271 110.804 255 252 248
140.053 117.361 111.201 255 249 243
70.3385 61.1674 113.594 203 219 255
108.449 101.885 113.574 209 222 255
94.1119 174.305 110.76 218 228 255
122.618 107.193 102.945 255 224 199
79.5786 58.3393 111.807 246 244 255
116.964 111.617 107.96 242 241 255
117.661 102.477 111.984 255 252 247
113.801 67.1895 120.327 237 239 255
116.631 80.4996 121.169 202 218 255
121.037 148.357 120.363 188 209 255
72.1744 126.053 110.002 192 212 255
123.62 145.418 111.993 208 222 255
123.123 74.5441 108.8 215 226 255
94.13 174.313 110.75 252 247 255
123.585 79.5402 107.049 252 247 255
171.271 72.4599 79.2576 255 224 198
197.649 14.6999 105.263 186 208 255
113.486 108.536 108.635 255 211 176
215.919 96.6398 113.275 205 220 255
120.594 112.269 113.465 255 120 0
94.2178 174.384 110.772 255 247 239
97.8016 185.733 117.201 194 213 255
127.336 113.893 113.8 253 248 255
107.23 47.3458 112.263 213 225 255
94.1086 174.304 110.762 219 228 255
103.3 109.485 103 255 196 148
94.0553 174.286 110.805 191 211 255
42.0236 96.1125 118.792 211 224 255
157.436 79.7461 113.083 197 215 255
153.323 132.805 122.958 204 219 255
174.696 71.5101 112.238 185 207 255
111.584 119.952 106.15 241 241 255
122.135 210.609 116.336 184 207 255
94.1097 174.304 110.762 211 224 255
79.4807 149.514 117.47 243 242 255
102.732 104.989 102.127 255 244 234
120.416 119.382 96.8569 255 242 229
127.421 104.611 119.227 255 211 177
69.2802 190.94 108.802 255 251 246
114.46 131.323 106.054 194 213 255
127.052 115.834 113.702 240 240 255
126.717 124.464 110.348 255 234 217
113.666 116.94 107.307 206 221 255
109.628 107.553 110.592 255 212 177
134.594 85.0588 120.71 207 221 255
98.753 37.7995 175.694 255 229 209
148.371 88.4406 114.942 182 205 255
122.264 82.4723 116.019 216 226 255
76.0784 86.7491 112.101 220 229 255
32.4314 92.3965 114.845 183 206 255
112.74 104.472 111.377 255 219 191
125.695 82.581 111.62 193 212 255
196.163 28.9363 110.97 183 206 255
145.365 58.285 116.049 218 228 255
84.0828 71.8756 111.853 255 249 242
111.711 101.688 121.801 255 248 240
104.184 128.072 111.252 255 209 172
94.118 174.307 110.757 217 227 255
60.4875 110.195 110.538 201 217 255
134.986 76.3883 136.623 210 223 255
62.9661 200.521 111.041 233 237 255
101.347 118.274 120.394 255 222 195
210.378 56.5565 111.326 208 221 255
106.195 104.531 112.744 255 217 186
94.1173 174.311 110.757 227 233 255
175.562 20.9536 113.146 246 244 255
90.9671 182.084 114.837 255 237 221
67.1571 121.673 112.518 232 236 255
125.974 122.494 116.475 249 245 255
66.8192 110.847 110.97 232 236 255
94.1669 174.309 110.739 190 211 255
76.3167 31.9487 100.028 196 214 255
10.6608 179.849 112.68 227 233 255
98.8898 168.014 119.013 247 244 255
6.9598 193.947 108.106 201 217 255
158.426 158.959 113.047 204 219 255
92.1475 44.7088 113.154 251 247 255
119.799 56.3605 117.889 214 225 255
120.759 129.658 123.631 245 243 255
119.904 123.245 106.343 255 247 239
119.263 205.444 133.053 191 211 255
121.137 24.0914 111.113 186 208 255
79.8473 102.202 111.051 212 224 255
127.11 91.3407 104.898 248 245 255
128.428 113.798 125.162 255 231 211
112.878 136.248 110.542 218 228 255
124.647 116.069 106.286 255 180 117
95.3276 145.757 83.5822 220 229 255
101.557 127.891 112.337 213 225 255
100.578 150.616 115.784 196 214 255
138.375 75.3636 131.887 223 230 255
94.1373 174.305 110.776 200 217 255
116.127 18.2015 144.216 195 214 255
62.1293 96.458 109.961 208 221 255
66.9977 120.439 111.649 210 223 255
94.1021 174.301 110.766 255 254 251
127.475 116.489 115.406 212 224 255
114.768 81.9576 117.217 185 208 255
94.1109 174.305 110.761 207 221 255
125.899 82.5323 110.435 207 221 255
112.517 153.419 110.779 255 248 240
118.513 77.2236 117.356 255 175 107
120.343 127.575 113.17 199 216 255
128.918 76.2489 130.991 213 225 255
76.4813 182.331 115.001 255 219 190
97.829 86.5467 112.361 239 240 255
103.692 103.272 123.453 229 234 255
106.937 104.121 115.597 255 211 176
83.8812 107.703 114.12 220 229 255
121.317 136.525 117.701 221 229 255
151.857 96.767 113.601 183 206 255
44.1244 161.039 109.672 255 220 192
56.7239 115.517 119.882 246 244 255
42.049 64.3406 92.9037 219 228 255
164.379 157.154 62.9829 209 222 255
82.7421 49.2382 111.74 211 223 255
156.648 71.0572 98.1761 220 229 255
94.1148 174.306 110.759 213 225 255
84.1209 82.2499 111.588 197 215 255
124.866 90.3459 114.827 255 251 246
84.1923 146.671 118.874 193 212 255
120.311 78.2392 117.93 255 227 205
104.77 131.625 110.868 255 254 250
107.486 125.854 114.178 203 219 255
171.105 109.049 80.6819 203 219 255
99.1204 185.993 111.994 201 217 255
193.634 142.338 131.885 238 240 255
113.289 102.296 112.141 255 226 202
51.1454 136.761 113.115 196 215 255
134.136 74.1731 122.364 217 227 255
128.181 68.6517 118.56 209 222 255
173.589 11.2152 130.124 184 207 255
172.025 21.0896 127.234 193 213 255
54.061 110.151 97.2933 215 226 255
112.508 123.354 101.479 254 249 255
94.096 174.299 110.77 196 215 255
94.1453 177.176 110.914 202 218 255
24.2497 66.2174 108.354 216 227 255
121.845 114.33 124.328 255 255 251
111.15 118.906 112.608 254 248 255
153.662 94.0646 111.382 190 211 255
158.726 112.335 112.461 255 214 181
116.842 186.808 114.821 198 216 255
94.0764 174.227 110.846 206 221 255
60.5955 211.227 80.2484 210 223 255
107.988 101.659 115.802 255 254 250
106.852 105.214 108.047 205 220 255
84.8784 143.95 122.06 200 217 255
23.0724 201.604 110.267 184 207 255
126.154 72.3781 115.297 215 226 255
94.1248 174.31 110.754 204 220 255
94.1 174.301 110.767 195 214 255
157.338 88.1308 111.282 205 220 255
118.706 119.162 113.626 249 245 255
119.116 142.662 105.93 211 223 255
219.065 106.797 112.063 186 208 255
52.8188 113.95 126.767 239 240 255
55.2585 129.113 113.127 202 218 255
70.1912 54.4382 93.1214 188 209 255
63.5194 80.0905 110.332 197 215 255
112.762 125.767 100.43 210 223 255
56.2815 112.116 108.797 194 213 255
116.629 73.8721 122.143 204 219 255
106.222 173.457 117.842 193 212 255
163.529 145.178 109.148 202 218 255
12.5203 117.654 111.568 174 201 255
71.6129 131.645 105.255 196 214 255
94.2164 174.102 110.628 224 231 255
52.7033 98.4846 114.3 255 241 229
39.6498 83.3757 116.606 192 212 255
69.0921 122.491 118.53 201 218 255
37.891 84.6001 103.28 255 229 208
114.029 168.786 108.313 211 224 255
94.1873 174.334 111.284 255 186 128
70.3715 74.927 122.746 203 219 255
103.923 149.428 108.898 219 228 255
127.223 116.458 121.398 255 249 242
161.473 125.739 91.7136 228 234 255
115.808 117.543 114.998 255 221 193
68.246 82.0702 118.454 193 213 255
58.5291 23.9616 135.423 190 211 255
109.295 130.421 110.49 223 230 255
115.027 78.4242 121.306 203 219 255
140.991 84.0349 112.022 255 234 216
106.811 105.337 119.804 255 242 231
102.259 182.194 110.807 195 214 255
104.122 108.633 107.952 255 182 120
140.28 73.7653 138.377 213 225 255
122.411 114.419 109.923 239 240 255
96.3197 41.4198 102.317 185 207 255
102.558 140.141 111.121 252 247 255
94.1152 174.364 110.75 209 222 255
148.118 136.904 120.838 236 238 255
143.987 76.4875 102.731 255 223 197
74.6826 138.985 114.202 206 220 255
117.995 115.683 120.661 185 207 255
150.463 86.3692 124.492 198 216 255
96.8405 147.102 110.281 255 254 250
94.1189 174.307 110.757 236 238 255
117.901 116.923 103.254 255 252 248
69.2429 49.6394 123.419 215 226 255
168.71 146.067 114.857 205 220 255
93.3245 179.194 108.456 255 242 230
73.6298 173.807 110.171 186 208 255
23.0774 166.615 112.89 199 216 255
130.026 84.7622 113.118 220 229 255
116.291 105.604 103.435 255 249 241
116.509 191.446 107.856 192 212 255
117.31 115.613 110.881 255 183 123
70.1098 132.949 108.558 210 223 255
161.677 192.517 104.143 198 216 255
171.428 166.258 111.066 221 230 255
103.293 104.57 106.141 221 229 255
216.762 138.283 116.041 184 207 255
152.675 143.962 108.32 188 209 255
99.4802 90.292 107.19 198 215 255
133.206 7.88 112.358 255 239 225
102.374 179.102 111.047 255 241 228
95.945 99.2784 98.1351 232 236 255
113.713 68.4967 120.989 199 216 255
120.164 85.4364 130.998 201 217 255
92.4934 175.597 112.561 201 217 255
58.4698 110.57 112.953 239 240 255
125.819 82.1268 123.005 206 220 255
80.135 130.607 112.12 228 234 255
45.8378 48.476 115.807 184 207 255
122.514 126.466 108.62 255 249 241
99.2892 186.314 111.92 184 207 255
111.683 103.444 108.603 215 226 255
177.184 74.7846 108.044 189 210 255
142.353 118.412 110.477 255 205 165
120.737 145.81 114.26 232 236 255
127.254 78.8488 117.698 242 242 255
16.8066 117.128 112.59 196 214 255
108.944 111.181 113.306 255 209 172
130.937 124.293 104.211 218 228 255
86.6447 179.74 111.869 255 249 255
79.8152 171.015 113.684 218 228 255
107.431 99.2743 113.107 255 242 230
99.0729 172.053 106.65 255 234 216
71.6545 147.167 109.436 188 209 255
13.2437 205.779 118.486 191 211 255
120.825 167.825 109.766 197 215 255
85.3132 190.066 104.955 205 220 255
102.399 145.817 109.226 255 187 131
46.9298 163.267 112.81 191 211 255
120.424 126.273 123.541 255 147 42
51.6557 9.9611 84.2416 230 235 255
94.6062 141.142 115.022 201 217 255
94.0619 174.288 110.799 216 227 255
76.3374 176.866 102.555 206 220 255
119.95 100.775 112.648 207 221 255
116.075 87.0478 107.626 196 214 255
117.844 209.047 107.74 185 208 255
189.341 76.8174 112.077 185 207 255
167.563 88.7868 140.23 193 213 255
197.768 79.9832 111.893 210 223 255
122.429 88.303 113.203 222 230 255
125.311 119.246 110.975 238 239 255
112.076 94.086 111.404 218 228 255
124.125 77.4427 106.012 215 226 255
77.7684 57.1571 139.251 192 212 255
47.8521 106.828 99.7052 197 215 255
92.751 174.574 111.366 255 243 232
63.4664 117.823 113.324 229 234 255
94.3537 174.19 110.507 255 245 235
74.5072 106.624 110.398 255 240 226
42.2809 91.0834 123.837 186 208 255
96.9713 186.881 112.394 238 239 255
111.427 97.5521 120.903 255 191 139
121.087 132.135 105.254 228 233 255
94.1593 174.322 110.738 190 211 255
105.709 103.603 119.8 255 245 236
74.9413 177 111.84 192 212 255
104.736 125.752 106.982 255 249 242
146.765 120.287 113.919 202 218 255
124.296 75.5471 102.652 228 233 255
88.5344 133.804 108.723 219 228 255
94.1174 174.307 110.757 190 211 255
50.41 126.17 99.6234 186 208 255
79.7817 56.4157 112.129 255 203 162
94.0492 174.232 110.796 209 222 255
151.071 124.856 107.699 198 216 255
118.567 150.406 117.064 248 245 255
110.272 108.116 115.941 216 227 255
74.4667 94.5094 112.227 238 239 255
103.67 174.204 116.603 220 229 255
109.641 118.565 110.659 248 245 255
119.943 84.2677 117.089 238 239 255
153.372 40.6807 116.765 229 234 255
126.546 187.956 122.141 179 203 255
113.717 127.519 115.06 218 228 255
94.1085 174.304 110.762 195 214 255
95.4468 170.597 119.187 255 250 243
102.774 150.225 120.26 205 220 255
113.114 216.051 134.845 181 205 255
69.8573 132.984 113.473 196 214 255
207.93 59.1946 112.605 192 212 255
66.6217 189.172 119.109 196 215 255
94.5935 137.587 111.943 212 224 255
25.9337 56.7731 87.4563 202 218 255
13.9045 60.72 113.219 184 207 255
102.587 111.84 123.477 246 244 255
71.2393 55.201 108.153 255 250 255
153.544 76.5005 98.8017 192 212 255
102.31 153.034 113.996 251 247 255
99.278 169.36 118.293 255 253 248
104.646 118.19 113.865 230 235 255
130.971 71.7496 109.988 200 217 255
83.7224 91.9835 114.962 215 226 255
112.053 98.4591 107.376 239 240 255
97.6145 118.584 118.03 230 234 255
57.0333 192.98 112.673 188 210 255
94.0572 174.284 110.805 206 220 255
121.251 125.147 111.316 244 243 255
146.095 86.0555 111.475 191 211 255
135.559 72.4772 132.625 219 228 255
91.8507 173.938 112.368 199 216 255
105.184 104.106 113.008 255 242 231
94.1898 174.309 110.702 255 236 220
55.4614 155.285 115.87 209 222 255
146.399 158.031 124.553 255 201 158
116.824 110.635 109.032 255 255 252
118.161 145.303 117.738 220 229 255
103.906 122.772 110.339 218 228 255
115.908 57.3536 118.277 193 213 255
151.973 106.345 113.012 214 225 255
117.986 79.162 122.84 217 227 255
219.786 87.1856 113.961 200 217 255
94.1172 174.307 110.757 192 212 255
94.0154 174.351 110.866 192 212 255
177.018 159.762 138.875 203 219 255
99.6273 129.891 116.643 247 245 255
81.6083 175.875 116.228 188 209 255
151.744 129.368 109.637 199 216 255
79.9591 131.422 115.408 210 223 255
76.2629 141.005 106.378 217 227 255
94.1662 174.325 110.731 245 243 255
115.524 77.8408 113.391 195 213 255
163.211 122.001 116.347 204 219 255
120.494 126.964 106.195 255 248 241
94.0502 174.297 110.814 193 213 255
94.1529 174.32 110.737 199 217 255
136.951 73.1233 116.747 255 244 234
103.575 110.927 112.58 237 239 255
129.542 117.891 114.443 254 248 255
94.1047 174.303 110.764 255 240 226
115.188 107.022 116.286 255 149 47
108.453 99.7979 118.98 214 225 255
88.1969 198.625 115.96 180 204 255
46.1505 174.783 114.538 218 228 255
108.44 124.658 115.165 209 222 255
139.908 61.2455 117.404 189 210 255
93.9901 173.519 111.307 225 232 255
121.496 165.952 108.767 188 209 255
151.129 120.204 112.377 255 236 220
167.982 203.636 96.3675 211 224 255
108.876 116.388 117.907 243 242 255
114.03 116.994 108.612 255 214 182
146.257 66.6061 113.64 251 247 255
107.934 64.1401 118.191 226 232 255
199.401 31.9 107.848 185 208 255
102.294 136.846 99.1742 220 229 255
87.5406 180.37 113.331 217 227 255
144.559 58.8599 117.339 186 208 255
107.503 133.032 109.995 255 249 255
57.4974 99.4544 113.678 184 207 255
17.823 126.924 114.038 195 214 255
102.127 100.975 116.73 255 186 128
11.9217 134.067 112.859 197 215 255
94.1024 174.302 110.766 214 225 255
109.442 44.7794 115.292 209 223 255
216.527 101.222 113.741 190 210 255
57.0995 98.2349 109.744 216 226 255
89.8133 113.484 108.617 223 231 255
67.8591 107.208 113.834 244 243 255
119.519 127.785 109.37 208 222 255
36.2289 192.794 106.537 194 213 255
130.226 78.4323 128.575 212 224 255
133.542 179.447 122.569 193 213 255
73.55 42.8576 112.686 236 238 255
111.165 128.567 112.483 210 223 255
172.824 134.446 121.431 186 208 255
118.608 106.251 118.986 255 235 219
68.799 121.373 107.473 255 249 255
57.5927 104.671 100.637 209 222 255
100.672 102.641 116.19 255 238 224
151.06 153.202 115.929 196 214 255
115.231 110.346 100.512 255 244 233
148.122 142.758 111.594 255 219 191
206.784 103.026 114.334 237 239 255
82.9672 44.3876 113.162 189 210 255
102.25 106.319 123.319 207 221 255
195.467 81.5058 108.268 191 211 255
137.235 68.645 114.784 195 214 255
93.2554 13.0638 94.4385 201 217 255
122.703 95.1258 109.606 194 213 255
106.642 124.809 106.872 255 216 185
94.0668 174.288 110.792 209 222 255
143.223 124.558 112.382 225 232 255
99.7972 130.233 106.233 255 160 72
28.57 191.923 113.438 191 211 255
59.2695 77.1527 57.7119 187 209 255
91.3037 176.102 109.413 255 248 240
121.648 120.25 106.614 255 228 206
121.601 82.3887 116.341 255 236 220
215.348 77.0849 114.772 188 209 255
79.5115 38.342 120.26 197 215 255
94.1081 174.304 110.762 192 212 255
94.1269 174.31 110.753 255 252 247
170.364 126.611 89.3511 214 225 255
122.343 94.4854 125.433 255 212 177
111.275 100.862 105.87 204 219 255
104.462 110.191 112.03 255 207 169
110.523 126.844 118.315 255 216 185
78.055 126.191 112.756 255 200 155
70.991 141.085 119.802 208 222 255
80.1384 124.309 112.166 189 210 255
94.9445 51.2891 113.609 206 220 255
109.549 107.578 108.899 255 236 221
169.294 166.467 124.194 210 223 255
215.087 29.7266 115.564 187 209 255
94.228 174.387 110.779 211 223 255
94.1876 174.342 110.721 199 216 255
94.1084 174.304 110.762 207 221 255
38.8152 52.3534 110.481 193 212 255
116.133 148.557 112.369 211 224 255
141.786 165.638 135.894 213 225 255
94.1155 174.306 110.758 211 224 255
83.3856 2.51823 114.854 198 215 255
108.074 98.5744 107.501 255 227 204
63.6732 62.2329 105.64 226 232 255
137.047 80.5697 96.0616 216 227 255
108.853 101.925 109.333 255 253 249
186.955 93.9528 111.064 198 216 255
77.4655 128.127 114.139 255 251 246
117.474 119.147 115.449 224 231 255
94.0996 174.301 110.767 224 231 255
94.1109 174.305 110.761 206 220 255
121.685 130.882 106.115 255 247 238
109.284 19.9155 131.005 185 208 255
214.912 46.4609 113.676 183 206 255
110.804 144.561 106.671 242 241 255
111.508 15.729 117.423 181 205 255
94.1479 174.318 110.743 195 214 255
22.325 156.695 108.699 215 226 255
192.76 157.266 109.611 212 224 255
116.996 120.69 108.414 202 218 255
108.776 115.281 113.209 255 31 0
125.961 133.24 111.144 234 237 255
0.643122 186.726 104.911 185 207 255
114.857 160.959 108.909 255 208 170
57.938 70.0827 108.213 209 222 255
106.599 178.19 114.432 214 225 255
94.2509 174.26 110.756 206 221 255
54.2948 72.98 83.3464 202 218 255
106.839 104.392 114.194 255 251 245
179.322 31.8064 112.267 202 218 255
103.875 126.181 107.843 213 225 255
102.563 105.13 110.124 200 217 255
84.8159 189.116 83.8871 225 232 255
93.9412 174.477 110.92 255 221 194
101.563 131.481 107.324 255 244 234
137.239 10.6828 113.263 213 224 255
58.273 85.2124 120.037 204 219 255
149.557 114.601 109.998 214 226 255
124.18 120.588 110.873 225 232 255
115.372 36.5844 113.403 197 215 255
125.311 215.328 107 181 205 255
94.1032 174.302 110.765 250 246 255
95.7648 151.724 108.289 235 237 255
94.1644 174.316 110.754 198 216 255
109.709 112.379 110.649 203 219 255
128.294 126.937 128.26 255 235 218
73.2655 161.887 120.172 255 255 251
43.1225 116.927 138.985 231 235 255
105.235 104.627 122.342 242 242 255
135.675 20.7839 113.263 215 226 255
94.562 173.541 112.057 209 222 255
145.414 162.407 113.656 185 208 255
116.477 130.683 116.929 200 217 255
119.123 82.0796 110.66 210 223 255
94.0995 174.3 110.768 203 218 255
151.372 118.91 107.089 183 206 255
75.9741 102.791 110.285 255 246 237
72.8788 57.1952 119.132 192 212 255
125.938 148.861 108.41 195 214 255
94.5276 173.789 110.745 193 212 255
204.6 40.8848 108.438 198 216 255
180.208 37.4201 111.249 195 214 255
80.0184 81.3372 111.796 255 246 238
79.3302 136.527 111.297 225 232 255
97.9132 113.3 118.009 209 222 255
140.318 71.7746 110.985 228 234 255
109.448 49.5851 114.196 198 215 255
62.3221 38.6713 89.8142 204 219 255
115.966 123.298 120.504 255 248 239
111.621 119.185 95.1598 255 229 207
94.1688 174.323 110.738 245 243 255
94.0067 174.246 110.797 201 218 255
135.799 39.4405 113.153 191 211 255
129.699 119.905 106.542 215 226 255
115.43 121.223 107.991 255 228 207
152.683 119.679 121.755 241 241 255
112.856 149.422 102.934 184 207 255
71.7162 178.223 92.017 190 210 255
24.4834 104.96 117.118 202 218 255
94.0916 174.298 110.772 194 213 255
73.8116 69.4569 51.1844 232 236 255
102.159 98.7788 116.259 212 224 255
117.685 129.824 107.244 255 231 212
121.955 112.098 118.029 194 213 255
209.386 93.9977 129.387 201 217 255
100.382 123.372 120.103 255 253 249
183.042 111.703 116.587 201 217 255
61.6653 70.4205 114.634 207 221 255
108.196 102.648 118.221 195 213 255
106.855 116.638 120.725 255 179 114
97.9919 105.784 123.317 255 213 180
175.382 129.246 115.847 219 228 255
74.4129 40.3414 114.843 217 227 255
53.1621 73.8305 113.047 195 214 255
188.903 66.3752 112.381 202 218 255
198.93 142.542 121.312 186 208 255
98.8885 135.872 111.604 255 237 222
112.028 128.925 100.835 232 236 255
75.5229 134.901 109.815 192 212 255
55.98 89.1785 101.719 234 237 255
151.685 89.8735 117.3 197 215 255
49.9978 67.8591 95.0084 210 223 255
114.564 110.789 109.991 224 231 255
135.245 77.5216 105.266 255 250 255
94.1077 174.304 110.763 191 211 255
139.676 103.489 87.1055 196 214 255
151.455 74.7556 119.594 250 246 255
135.605 52.7108 116.531 196 214 255
169.835 148.105 151.918 198 216 255
113.103 114.673 121.8 225 232 255
94.1147 174.306 110.759 183 206 255
106.848 140.449 109.238 255 242 230
114.236 1.61156 99.8801 183 206 255
169.85 113.695 98.5539 203 219 255
2.71485 71.3844 112.605 197 215 255
105.077 122.451 109.242 241 241 255
121.361 139.103 109.776 194 213 255
62.9582 47.7771 103.145 205 220 255
32.6382 158.366 115.669 199 216 255
71.8781 148.658 150.432 182 205 255
163.369 87.0446 153.611 186 208 255
125.091 128.476 110.806 255 231 211
199.446 41.1222 105.522 189 210 255
107.568 135.349 123.172 255 238 223
170.875 136.126 89.871 192 212 255
104.766 94.6039 113.08 255 238 224
114.891 91.1239 106.292 229 234 255
123.798 117.527 108.635 255 200 156
109.31 121.326 117.843 200 217 255
94.104 174.302 110.765 193 213 255
58.782 107.671 111.389 204 219 255
46.632 37.4152 116.633 191 211 255
50.4205 85.5752 95.4183 191 211 255
126.239 115.243 105.092 242 241 255
36.9966 222.047 104.112 178 203 255
16.9289 189.041 112.526 207 221 255
26.5671 192.245 110.901 186 208 255
108.099 170.673 120.908 255 252 247
101.77 73.1413 115.166 204 219 255
144.237 74.1971 129.276 214 226 255
96.3597 175.562 113.388 191 212 255
77.1816 221.882 124.282 185 207 255
122.869 199.682 110.953 180 204 255
112.702 110.492 117.396 227 233 255
182.692 140.06 125.534 195 214 255
110.087 96.8928 112.766 255 220 192
97.2283 169.473 125.732 255 228 206
100.572 148.127 118.679 214 226 255
83.2538 220.003 107.03 199 217 255
97.7953 159.171 110.126 238 239 255
137.328 81.5345 87.3015 245 243 255
137.266 149.562 115.876 187 208 255
105.084 125.47 113.845 207 221 255
94.4902 174.368 110.574 219 228 255
90.2873 51.5033 114.143 202 218 255
111.133 170.301 115.977 204 219 255
164.295 72.1749 113.622 255 251 244
94.0998 174.301 110.767 197 215 255
103.295 145.774 107.909 255 240 227
148.363 17.5782 109.659 187 209 255
86.7939 44.9834 117.974 201 217 255
219.053 90.8999 113.368 211 223 255
16.4329 93.3146 96.8543 213 225 255
104.278 123.467 108.194 204 219 255
156.877 132.037 110.707 255 243 232
191.101 157.527 112.708 181 205 255
97.3456 169.209 100.614 212 224 255
54.7741 206.474 111.764 204 219 255
51.5083 207.27 120.935 191 211 255
92.9049 195.637 111.76 196 214 255
44.8235 71.9566 122.604 185 207 255
94.0924 174.298 110.772 207 221 255
68.1401 28.6662 111.473 189 210 255
119.035 104.298 110.338 201 217 255
110.229 109.175 118.596 236 238 255
101.297 131.941 113.001 255 224 199
85.4374 175.609 114.41 189 210 255
94.0133 174.324 110.813 189 210 255
120.156 98.3895 110.47 255 206 167
161.014 158.451 114.361 255 255 251
126.629 125.576 111.723 223 231 255
110.74 104.105 113.939 250 246 255
94.1755 174.327 110.726 202 218 255
30.1656 60.0391 106.617 187 209 255
106.251 127.203 109.717 221 229 255
104.66 131.972 108.661 195 213 255
174.262 129.337 103.851 214 225 255
123.599 166.64 106.289 192 212 255
166.017 29.5304 112.222 190 210 255
76.5662 178.678 115.203 218 228 255
129.678 181.995 116.404 194 213 255
155.307 95.3808 118.267 196 214 255
79.369 36.9484 102.42 192 212 255
115.57 112.177 111.715 235 238 255
96.8235 132.737 105.428 247 244 255
15.8996 141.148 113.919 184 207 255
111.466 132.903 111.65 255 250 243
140.318 84.6209 104.319 234 237 255
99.5374 107.026 113.465 203 219 255
82.0574 119.269 110.43 208 222 255
110.375 90.0515 112.704 233 236 255
28.277 45.5488 99.531 213 225 255
40.5948 37.1411 107.647 194 213 255
94.1066 174.303 110.763 217 227 255
94.0977 174.299 110.765 218 228 255
162.272 115.261 111.451 255 239 226
112.436 105.235 108.937 221 230 255
109.316 103.015 109.979 255 249 255
59.7634 121.413 112.003 254 248 255
156.08 117.481 114.347 207 221 255
43.5525 174.408 109.403 185 208 255
96.8028 127.487 113.078 255 243 231
150.769 75.2282 117.935 196 214 255
197.817 118.566 123.295 198 216 255
64.8599 217.534 115.561 183 206 255
158.207 100.463 117.323 255 243 233
161.266 119.826 136.812 195 214 255
86.4697 108.659 108.316 220 229 255
127.609 169.446 108.905 196 214 255
114.738 99.2924 114.935 235 237 255
108.13 165.033 116.63 209 222 255
122.417 112.895 112.74 255 237 221
156.99 208.293 114.011 199 216 255
94.1003 174.301 110.767 222 230 255
132.917 213.848 128.041 198 215 255
92.1651 173.958 111.537 255 130 0
62.6847 146.671 121.444 198 215 255
43.9317 134.633 99.7354 255 193 141
101.851 99.8953 114.693 219 228 255
94.0827 174.282 110.788 192 212 255
130.251 80.8497 136.879 253 248 255
117.13 130.59 103.57 220 229 255
110.726 131.381 113.666 204 219 255
117.349 170.703 112.789 251 247 255
148.126 149.678 112.897 200 217 255
142.542 159.383 80.047 219 228 255
70.6975 128.897 123.792 190 211 255
115.203 89.1341 110.615 255 236 220
92.8892 173.892 110.946 195 214 255
156.259 158.494 143.959 219 228 255
94.1089 174.304 110.762 199 216 255
90.0689 166.173 108.106 199 216 255
105.519 126.794 111.336 255 231 212
84.0969 37.3386 105.542 194 213 255
75.0567 171.997 111.397 225 232 255
140.288 67.4755 121.146 251 247 255
104.192 136.847 119.08 255 224 200
128.738 83.9995 112.122 213 225 255
57.7051 45.442 109.429 187 209 255
88.8447 184.663 118.042 197 215 255
120.954 149.608 113.812 191 211 255
100.8 131.245 90.4235 199 216 255
98.6459 102.579 120.179 236 238 255
54.8468 103.469 107.694 191 211 255
69.5104 139.36 101.325 187 209 255
106.388 123.277 112.287 249 246 255
116.645 130.536 106.455 242 242 255
172.918 75.2879 93.8783 213 225 255
111.651 82.7921 112.145 238 239 255
95.0171 190.487 111.92 240 241 255
94.1013 174.301 110.766 183 206 255
139.724 73.8323 112.114 247 245 255
94.1411 174.315 110.746 255 250 243
46.8792 128.106 101.247 197 215 255
94.1445 174.359 110.758 189 210 255
125.231 130.72 106.662 255 222 195
128.47 95.2366 82.3034 206 221 255
98.7517 108.439 124.924 255 252 247
93.6254 174.542 110.342 189 210 255
69.2209 215.821 125.168 211 223 255
84.8251 74.915 112.401 195 214 255
148.797 41.0968 112.715 186 208 255
94.1058 174.303 110.764 215 226 255
214.821 134.834 116.749 197 215 255
95.7039 34.4103 109.634 200 217 255
113.271 120.062 105.606 255 250 244
128.988 74.0418 100.306 222 230 255
189.455 82.5756 110.677 201 217 255
56.2695 94.0618 98.8348 207 221 255
149.854 85.267 131.975 208 222 255
94.1097 174.304 110.762 198 216 255
94.0975 174.304 110.768 202 218 255
120.453 77.8343 115.551 245 243 255
122.833 117.844 113.761 223 231 255
49.7839 216.917 100.869 194 213 255
107.593 154.136 105.91 255 250 244
64.7258 62.0815 114.257 200 217 255
124.259 128.055 113.238 255 228 206
115.568 110.209 115.298 255 198 151
109.454 130.476 104.853 255 246 237
123.401 122.983 118.229 255 208 170
96.6094 176.851 102.816 239 240 255
107.67 133.553 109.361 206 221 255
92.0275 122.07 103.919 255 247 239
112.628 116.482 118.043 255 172 100
49.456 105.743 102.66 200 217 255
74.3964 86.1293 112.874 229 234 255
125.651 119.152 111.025 255 229 207
61.2211 77.2623 111.955 199 216 255
9.87569 131.905 109.15 180 204 255
65.6322 160.893 110.172 239 240 255
94.1295 174.311 110.751 213 225 255
94.8284 174.403 110.32 205 220 255
149.061 101.691 116.068 193 212 255
132.219 71.6501 109.538 224 231 255
117.606 126.692 102.317 231 235 255
156.38 74.5116 110.574 209 222 255
116.274 137.831 99.7466 255 231 211
71.3012 24.5675 117.375 183 206 255
88.0496 100.186 114.596 250 246 255
94.1011 174.301 110.766 204 220 255
105.308 112.349 108.438 255 254 250
154.317 118.134 114.985 194 213 255
86.7597 87.6185 141.07 195 214 255
92.2561 98.9246 110.982 255 240 227
154.029 150.749 113.39 255 227 205
102.183 137.657 113.087 242 242 255
111.63 102.867 94.5526 255 200 156
112.793 123.504 104.934 255 235 218
111.23 99.9681 112.483 221 230 255
110.053 119.291 121.522 255 243 232
113.717 128.595 104.885 255 245 235
51.6464 102.956 115.893 242 242 255
68.3067 144.55 119.619 201 218 255
121.25 128.285 113.922 210 223 255
84.6324 45.1941 112.547 254 248 255
173.288 68.3954 113.339 204 220 255
113.108 118.341 110.406 225 232 255
137.175 89.9203 106.918 224 231 255
146.284 70.3636 112.346 222 230 255
51.3106 206.919 105.488 206 220 255
67.6235 24.43 106.706 201 218 255
110.924 106.268 111.908 255 245 235
96.5873 43.7694 115.008 199 216 255
75.8619 176.682 96.4756 255 254 249
10.7329 165.762 113.765 182 206 255
104.893 131.717 109.017 224 231 255
153.537 134.467 113.46 195 214 255
67.4204 98.0335 113.184 220 229 255
