ply
format ascii 1.0
element vertex 1341
property float x
property float y
property float z
property uchar red
property uchar green
property uchar blue
end_header
35.9517 110.993 116.254 191 212 255
145.811 124.958 112.487 255 225 200
111.491 128.459 121.047 212 224 255
84.9242 114.377 107.508 255 246 237
109.207 197.807 112.62 188 209 255
74.1476 143.548 114.353 206 221 255
165.148 111.812 116.188 253 248 255
46.3276 88.5012 111.067 198 216 255
122.348 97.0404 113.645 222 230 255
169.213 97.4133 106.561 214 225 255
115.55 105.87 97.9203 208 222 255
99.2543 151.588 104.067 201 217 255
121.947 63.739 113.38 215 226 255
123.307 33.5609 115.657 194 213 255
106.747 124.835 94.7848 255 249 255
159.87 75.3963 110.283 196 214 255
185.707 118.079 111.699 190 211 255
118.167 94.7406 117.705 255 231 211
48.1002 88.4772 113.343 243 242 255
127.942 110.621 110.866 214 225 255
123.628 99.3314 128.305 226 233 255
100.366 216.622 110.555 203 219 255
68.1371 128.524 109.897 211 224 255
102.249 107.856 106.633 255 222 196
118.512 104.914 94.4573 255 236 219
92.8921 174.792 109.249 195 214 255
176.395 111.797 115.383 212 224 255
100.182 186.122 111.177 184 207 255
92.1978 74.8615 102.77 195 213 255
126.723 110.062 110.072 206 220 255
88.9254 157.917 108.719 209 222 255
27.1103 60.9473 112.057 195 214 255
149.312 55.216 107.142 209 222 255
173.867 112.642 110.805 234 237 255
191.73 173.386 113.34 179 204 255
92.0105 76.523 102.314 209 222 255
166.502 78.6966 115.706 191 211 255
118.619 125.307 120.364 255 201 157
112.914 143.775 113.701 252 247 255
64.7074 95.4995 104.492 219 229 255
136.087 144.241 116.768 255 248 239
65.5594 152.715 112.749 247 244 255
200.528 54.6741 113.857 190 211 255
138.008 118.623 120.599 255 187 130
73.4566 104.406 113.999 208 222 255
97.8093 124.087 113.015 255 231 211
199.627 59.2976 113.391 200 217 255
53.9643 121.268 113.181 219 228 255
92.1575 147.495 106.545 203 219 255
21.6788 166.758 111.15 176 201 255
155.769 31.662 113.964 196 214 255
59.8439 129.277 107.577 200 217 255
215.534 122.484 113.545 191 211 255
145.794 174.386 109.545 197 215 255
105.618 120.582 114.824 255 165 84
134.678 131.412 116.917 226 233 255
158.977 157.347 112.829 204 219 255
107.425 165.626 107.966 200 217 255
25.8656 105.194 110.602 211 224 255
90.4609 125.044 123.517 255 238 224
218.469 131.54 113.169 189 210 255
153.578 41.0221 114.828 207 221 255
134.432 74.865 108.105 255 235 218
145.586 123.965 109.541 255 241 228
123.469 134.306 120.579 255 226 203
165.306 115.1 110.732 204 220 255
61.467 115.705 111.862 217 227 255
105.413 193.771 112.028 197 215 255
106.288 59.8151 108.512 255 255 252
127.128 132.413 113.443 251 246 255
97.703 70.2819 115.935 255 191 138
107.588 39.0181 115.441 220 229 255
185.327 65.2063 113.252 198 216 255
128.842 38.4931 111.659 185 207 255
72.886 100.734 112.791 255 250 255
36.908 132.715 108.334 204 219 255
110.977 109.14 92.5512 217 227 255
101.349 119.9 98.999 255 230 209
106.899 105.204 103.261 255 253 248
66.8878 36.467 112.172 217 227 255
131.906 134.266 118.55 203 219 255
60.871 97.1467 106.996 206 221 255
13.1706 149.078 111.485 186 208 255
166.832 106.976 115.901 189 210 255
93.2703 52.5279 108.84 202 218 255
94.399 104.674 112.411 213 225 255
92.311 47.0007 114.838 222 230 255
90.5 136.631 102.833 255 251 255
175.896 118.139 110.796 211 223 255
69.9928 72.6358 114.101 255 254 250
146.522 116.261 109.953 217 227 255
168.681 66.7779 116.215 201 218 255
125.223 122.593 110.966 239 240 255
36.7143 141.385 116.487 207 221 255
119.198 203.483 111.733 217 227 255
121.866 56.5914 105.994 191 211 255
102.454 109.569 94.0209 255 219 190
95.6886 88.3098 111.48 255 235 218
96.0532 163.789 112.779 202 218 255
98.3102 133.975 100.99 185 208 255
178.656 144.059 115.564 200 217 255
107.847 73.6816 109.142 214 225 255
97.3014 17.1931 112.481 204 219 255
199.87 170.468 109.993 198 216 255
121.023 137.426 118.383 245 243 255
56.6872 85.8906 111.519 217 227 255
48.1371 164.924 109.997 212 224 255
98.9216 113.538 106.719 234 237 255
107.754 150.548 108.084 227 233 255
165.115 93.3797 107.33 213 225 255
55.0447 101.655 115.645 216 227 255
41.1109 108.76 113.25 197 215 255
165.133 102.337 111.015 196 214 255
38.1913 107.463 111.654 192 212 255
104.473 108.192 119.901 255 241 228
118.092 198.725 112.33 196 214 255
49.6878 116.895 105.584 255 212 178
32.3863 182.684 113.548 188 210 255
142.892 182.473 111.303 205 220 255
168.632 115.154 108.945 190 211 255
120.546 179.038 113.141 196 214 255
201.084 122.361 114.829 192 212 255
24.5169 56.4661 110.578 208 222 255
50.1185 85.5904 113.533 219 228 255
72.3645 113.773 105.829 199 216 255
87.3791 180.743 109.469 199 216 255
62.5544 150.671 110.131 207 221 255
172.785 36.4094 113.025 205 220 255
208.938 123.01 111.773 193 213 255
175.31 135.903 109.143 245 243 255
74.2925 59.5545 107.827 255 246 237
128.88 207.409 112.312 216 226 255
149.726 77.5298 114.137 195 214 255
207.104 70.2561 110.682 188 210 255
129.814 85.3745 109.494 255 231 212
117.755 98.0095 95.9336 255 183 123
199.042 110.217 110.944 205 220 255
47.6337 179.716 113.444 196 214 255
122.817 134.192 122.546 238 239 255
90.0059 67.1122 113.571 203 219 255
57.0145 93.3005 117.594 187 209 255
80.092 109.995 102.73 224 231 255
77.4274 135.095 115.003 252 247 255
150.098 122.11 113.85 229 234 255
209.734 130.869 112.636 179 204 255
92.6805 173.171 112.098 201 217 255
170.276 162.922 113.751 206 220 255
110.448 106.011 120.308 215 226 255
166.828 175.024 111.345 206 220 255
148.768 102.893 122.985 219 228 255
119.972 9.04703 110.477 198 216 255
94.9302 175.853 110.375 187 208 255
137.593 63.9505 107.553 193 212 255
45.559 57.3488 113.104 193 212 255
137.038 90.6277 124.905 206 220 255
89.224 83.5872 106.324 222 230 255
209.422 88.5301 112.565 192 212 255
142.896 65.8346 106.73 251 246 255
45.3972 156.249 110.064 187 209 255
81.7153 65.5956 109.914 255 239 226
79.2529 83.4148 106.59 200 217 255
103.606 151.65 112.897 222 230 255
74.5566 67.008 111.857 218 228 255
211.993 111.778 112.081 184 207 255
169.488 61.1403 110.586 196 214 255
139.015 111.759 116.125 255 239 225
209.263 66.8974 114.487 191 212 255
131.008 117.476 113.525 255 229 209
184.235 89.7935 109.252 189 210 255
114.283 95.7556 101.563 255 197 151
145.286 141.81 102.924 255 245 235
110.633 67.7488 115.559 255 253 249
79.8837 187.989 113.009 185 207 255
124.933 112.709 95.5011 255 206 168
165.463 114.425 110.171 255 246 237
114.801 154.344 119.556 210 223 255
122.94 147.788 117.647 215 226 255
118.98 97.7229 115.814 255 169 94
172.75 72.3195 110.673 204 219 255
17.5985 116.735 111.157 193 212 255
111.451 170.126 116.279 241 241 255
87.5745 175.849 110.345 229 234 255
91.3483 51.6423 110.394 192 212 255
72.0596 61.0762 110.583 183 206 255
120.694 105.269 129.972 230 235 255
81.631 127.78 118.609 200 217 255
40.2892 171.307 111.599 183 206 255
61.1699 123.568 112.364 206 220 255
136.484 198.322 112.12 196 214 255
164.413 49.072 109.129 209 222 255
101.66 158.288 115.421 255 163 80
119.554 142.046 104.345 255 196 149
111.765 157.862 112.949 219 228 255
92.8007 174.652 111.235 191 211 255
89.384 149.04 113.644 254 248 255
25.7258 111.188 113.399 181 205 255
120.29 150.176 113.986 240 240 255
58.5995 117.486 107.671 197 215 255
112.774 121.001 105.364 255 197 149
94.7989 91.6317 112.116 255 251 255
17.6886 118.149 113.894 184 207 255
131.002 61.897 105.525 222 230 255
165.294 114.239 118.835 249 246 255
43.0428 135.09 113.466 203 219 255
83.6096 63.9676 114.039 205 220 255
108.385 174.673 109.673 214 225 255
115.48 102.292 124.526 255 207 169
149.089 46.936 114.627 202 218 255
110.596 88.1096 121.779 255 221 193
130.29 126.324 118.513 216 227 255
68.6599 21.9592 112.55 210 223 255
164.516 14.6723 112.194 189 210 255
92.7545 174.806 112.061 198 216 255
58.4522 122.036 113.543 240 240 255
182.309 95.6102 113.91 200 217 255
52.6245 112.225 111.647 201 217 255
149.711 164.556 117.893 224 231 255
92.1525 126.73 118.213 255 253 248
142.904 156.651 108.72 209 222 255
29.0479 95.7763 116.208 193 212 255
92.2622 35.7026 115.334 205 220 255
206.143 115.24 112.298 197 215 255
133.479 187.114 115.566 192 212 255
141.599 159.875 117.394 213 225 255
92.893 113.488 124.667 239 240 255
77.7077 102.194 120.073 255 232 214
146.994 60.7543 111.789 240 241 255
86.3768 107.73 114.98 255 241 228
21.2637 51.0396 112.621 203 219 255
176.223 20.8142 111.768 192 212 255
30.2002 122.536 110.939 201 217 255
94.5746 53.9584 113.458 194 213 255
176.819 115.928 108.531 242 242 255
93.0404 174.578 111.454 200 217 255
131.556 146.593 109.908 234 237 255
77.7119 110.009 105.001 255 244 233
134.066 157.395 114.209 198 215 255
111.335 134.322 105.771 216 226 255
102.848 76.181 113.158 219 228 255
105.329 119.164 96.5945 255 230 210
132.505 162.281 111.571 242 241 255
150.944 141.237 112.535 217 227 255
114.716 74.3657 103.516 228 233 255
41.5155 169.733 113.913 177 202 255
156.706 80.0202 111.544 255 237 222
174.13 97.3749 112.802 219 228 255
189.866 89.8059 114.019 188 209 255
154.118 121.278 117.763 213 225 255
139.63 139.497 111.973 214 225 255
185.007 147.064 115.127 202 218 255
165.885 94.9002 117.81 206 221 255
80.5856 82.2111 121.565 204 220 255
66.1773 98.6358 119.24 200 217 255
134.011 135.331 115.071 221 229 255
77.3248 175.634 109.388 185 208 255
147.836 123.409 124.208 196 214 255
162.195 45.7179 112.867 182 206 255
22.8582 101.954 110.272 194 213 255
167.452 90.7077 108.603 219 228 255
113.737 70.2052 102.925 255 253 249
128.529 50.2706 114.288 206 220 255
134.523 214.256 114.246 200 217 255
99.4506 124.467 98.2407 255 217 186
113.175 156.105 109.759 255 252 247
164.121 40.7794 110.995 205 220 255
134.797 127.405 111.169 210 223 255
56.2206 91.8998 109.874 200 217 255
117.857 181.152 108.473 248 245 255
113.481 21.6235 111.139 199 216 255
98.8744 42.3226 108.097 221 230 255
152.53 25.9802 110.52 196 215 255
40.866 140.921 109.245 195 214 255
145.607 83.8111 117.649 203 218 255
93.1895 91.0762 120.542 242 242 255
141.051 77.8356 113.758 231 236 255
134.234 106.006 107.026 205 220 255
51.0167 147.061 113.182 196 214 255
179.879 140.61 109.873 190 211 255
154.495 67.4113 108.13 208 222 255
139.034 12.6011 111.131 192 212 255
129.21 89.7253 124.344 215 226 255
141.623 75.7622 119.022 195 214 255
128.004 117.018 124.955 226 233 255
168.978 60.4262 115.772 203 219 255
138.534 144.63 118.533 214 226 255
116.516 127.111 120.68 255 210 175
98.7284 80.0365 116.128 212 224 255
155.443 184.221 109.876 199 216 255
120.025 73.8816 106.758 255 248 240
162.65 108.254 115.175 192 212 255
50.9697 76.0966 111.619 208 221 255
119.149 79.3122 121.893 212 224 255
44.2638 157.824 114.021 200 217 255
126.715 118.02 99.1826 205 220 255
142.098 191.611 113.88 195 214 255
142.517 86.43 112.748 233 237 255
124.295 45.633 116.696 245 243 255
44.9893 122.41 113.988 186 208 255
54.121 154.969 116.489 191 211 255
149.415 11.1363 113.188 177 202 255
109.365 183.359 112.955 201 218 255
30.3606 56.6902 109.789 184 207 255
216.773 143.017 113.97 199 216 255
96.4289 77.8667 102.949 213 225 255
83.8715 187.641 113.013 202 218 255
107.309 125.998 128.694 212 224 255
157.567 36.0348 112.32 215 226 255
103.933 55.8977 110.743 255 165 84
96.4828 148.725 117.574 229 234 255
122.21 154.883 104.646 255 250 243
73.041 64.5327 106.34 199 216 255
133.116 73.015 112.188 218 228 255
124.237 119.642 113.925 224 231 255
182.259 174.032 113.034 199 216 255
163.559 86.9875 107.14 255 251 255
157.49 145.43 112.478 255 170 95
67.6664 134.083 108.768 238 240 255
135.546 83.1503 110.084 255 228 207
70.6287 113.988 117.437 210 223 255
165.241 82.5737 115.776 231 235 255
173.023 92.4301 110.311 211 224 255
129.598 144.695 117.953 255 205 165
63.2581 158.735 110.787 201 218 255
97.5484 194.22 111.281 224 231 255
95.5438 174.663 109.87 213 225 255
53.9211 100.378 110.872 230 235 255
54.7441 147.512 109.983 201 217 255
126.928 64.885 116.753 195 214 255
154.286 106.197 103.428 255 228 206
113.642 36.1863 114.53 190 211 255
160.876 53.4746 108.527 204 219 255
88.0119 90.5571 105.709 200 217 255
214.433 138.604 111.752 187 209 255
103.753 109.119 124.621 255 252 247
82.3771 199.797 111.295 186 208 255
103.945 138.913 100.884 195 214 255
160.711 110.102 105.538 203 219 255
73.6025 176.536 112.082 189 210 255
101.494 44.2717 106.967 210 223 255
190.387 141.096 111.207 204 219 255
128.055 192.681 114.211 184 207 255
71.9878 130.094 120.262 255 221 193
110.331 78.9619 124.427 255 243 232
67.0753 66.8857 115.549 192 212 255
12.7518 109.634 111.096 189 210 255
150.111 143.752 114.088 240 240 255
129.039 80.8385 103.14 226 232 255
137.29 133.902 121.104 212 224 255
6.56463 103.965 113.872 192 212 255
90.6653 103.136 112.21 184 207 255
85.4275 160.264 108.617 212 224 255
118.355 110.141 129.817 201 218 255
122.739 122.701 124.816 255 237 222
139.556 46.5795 115.08 194 213 255
208.056 162.332 112.272 190 211 255
102.644 51.4201 111.994 194 213 255
87.2152 89.4036 121.464 255 230 210
141.717 88.9797 112.124 217 227 255
109.448 167.639 117.7 255 242 231
78.4362 198.165 114.749 196 215 255
167.936 111.38 105.993 218 227 255
80.239 116.262 115.113 255 247 238
77.2682 167.597 115.59 229 234 255
118.673 111.838 133.543 255 255 251
50.1774 133.391 109.307 219 228 255
107.623 104.881 105.48 255 250 244
177.888 111.298 108.208 202 218 255
127.883 137.186 111.675 210 223 255
103.043 119.698 109.341 232 236 255
104.74 45.7935 114.728 198 215 255
120.648 126.089 129.09 255 251 255
110.954 101.066 130.84 255 233 215
140.038 78.189 120.822 255 239 226
134.696 151.049 115.208 206 220 255
179.476 128.128 116.768 252 247 255
106.857 100.474 118.448 255 187 130
127.174 107.982 111.443 209 222 255
148.155 166.245 116.571 198 215 255
60.1486 141.535 110.709 194 213 255
76.3092 96.9184 101.303 204 219 255
179.293 89.3177 113.466 190 211 255
98.3105 60.0777 119.77 207 221 255
104.863 79.0049 95.1199 247 244 255
85.3454 62.6131 117.504 212 224 255
97.8326 96.1037 110.715 203 219 255
146.039 160.867 117.026 213 225 255
114.576 74.1761 104.106 255 242 230
185.423 104.134 110.711 192 212 255
125.763 116.533 97.0743 208 222 255
18.4247 85.4141 112.478 186 208 255
105.232 94.654 114.203 255 233 215
111.271 52.2159 106.5 242 242 255
108.148 154.197 98.7198 194 213 255
114.552 178.61 111.001 193 212 255
93.0456 70.7093 114.695 219 228 255
29.2028 143.821 112.818 184 207 255
104.756 150.307 113.741 218 228 255
114.438 177.688 114.921 210 223 255
104.267 140.483 112.761 255 246 236
176.597 53.8897 114.952 190 211 255
121.529 147.942 106.647 215 226 255
175.602 135.647 110.636 247 244 255
84.0229 108.799 101.601 217 227 255
89.5685 110.531 100.143 204 219 255
128.709 169.263 108.048 184 207 255
119.529 193.502 110.24 184 207 255
63.1805 123.935 110.422 232 236 255
172.518 145.663 110.168 240 241 255
90.0923 115.826 122.39 245 243 255
55.5755 78.0938 114.218 186 208 255
112.379 121.626 117.102 255 197 150
114.609 27.1591 108.959 199 216 255
118.533 179.549 113.414 210 223 255
66.104 56.8803 115.422 203 218 255
42.8983 106.079 110.285 210 223 255
142.994 82.3586 113.249 255 242 230
151.345 114.936 121.297 214 226 255
116.934 105.39 128.81 218 228 255
63.6233 14.5903 112.217 190 211 255
126.309 75.6554 103.897 206 220 255
133.988 183.853 110.048 208 222 255
154.563 128.434 107.517 209 222 255
85.4133 124.134 111.773 255 240 227
104.453 128.501 99.9017 255 220 192
118.272 104.881 104.962 255 218 189
96.3536 68.4195 105.204 225 232 255
71.7817 189.344 111.229 190 211 255
114.985 162.054 107.334 195 214 255
81.5927 179.265 113.354 187 209 255
158.412 53.5344 113.158 192 212 255
115.686 164.405 107.181 201 217 255
153.433 40.2661 114.986 181 205 255
35.7305 101.763 113.143 203 219 255
168.488 165.467 111.709 202 218 255
95.9782 102.362 127.596 237 239 255
78.8983 31.482 113.442 189 210 255
93.1187 101.679 108.8 255 235 219
155.817 107.243 105.563 199 216 255
18.1276 158.386 113.879 200 217 255
76.0972 100.985 103.004 227 233 255
116.822 154.167 107.241 211 223 255
53.8848 120.352 115.465 207 221 255
132.822 81.527 118.922 224 231 255
136.602 194.797 113.422 191 211 255
179.147 129.558 116.332 211 223 255
150.049 135.473 117.308 234 237 255
11.9317 138.007 111.839 212 224 255
68.7892 91.8452 104.744 255 247 239
104.279 81.3217 118.995 230 235 255
27.7313 91.2245 113.996 190 211 255
198.632 162.008 111.317 205 220 255
126.861 98.9282 117.856 215 226 255
126.708 136.042 110.98 255 205 164
192.825 185.226 112.55 195 214 255
16.236 112.017 111.169 191 211 255
54.6282 116.272 109.379 188 210 255
126.308 203.725 111.445 197 215 255
74.0862 60.0603 109.731 198 216 255
93.1074 129.606 122.494 255 229 207
112.846 52.5042 115.585 201 218 255
117.959 151.015 114.968 211 223 255
81.5931 88.7706 105.12 255 238 223
122.957 167.997 113.482 221 229 255
56.7384 61.8478 110.483 194 213 255
86.9614 197.621 111.534 223 230 255
55.2564 23.5251 113.2 192 212 255
122.787 33.2981 111.149 199 216 255
91.675 24.0141 112.04 189 210 255
127.866 145.692 119.764 217 227 255
42.151 98.8371 113.392 220 229 255
92.6003 174.943 111.209 189 210 255
135.356 137.332 101.168 246 244 255
151.267 11.1719 111.016 191 211 255
160.317 124.975 113.622 198 216 255
63.4354 184.707 116.307 189 210 255
33.0958 107.14 109.915 186 208 255
151.416 112.007 122.596 202 218 255
167.366 162.891 111.623 188 209 255
150.072 138.951 111.162 203 219 255
36.5147 112.098 115.93 198 216 255
106.514 124.843 118.25 199 217 255
140.406 45.9802 117.927 245 243 255
110.184 82.9008 111.203 222 230 255
118.158 41.4572 110.229 233 236 255
19.2168 151.928 111.997 186 208 255
115.419 75.4644 108.457 210 223 255
83.4063 131.413 118.056 230 235 255
76.9454 92.4676 115.09 204 219 255
127.939 63.7415 112.299 223 231 255
101.074 56.853 113.632 191 211 255
43.1873 36.5696 115.356 185 208 255
121.99 113.902 95.4235 202 218 255
121.979 201.312 112.342 218 228 255
93.1645 174.838 110.026 210 223 255
116.445 19.6157 112.841 186 208 255
43.0405 162.853 113.649 199 216 255
92.5674 104.929 115.539 255 250 255
131.239 34.3949 111.835 198 215 255
40.0687 132.322 112.572 228 234 255
118.168 111.542 124.363 255 157 65
90.5535 80.9769 116.951 232 236 255
64.6739 162.538 117.16 194 213 255
109.224 119.623 122.755 226 233 255
106.748 61.8412 118.621 225 232 255
172.854 118.118 115.997 240 241 255
99.9184 76.5764 103.84 218 228 255
125.431 102.864 124.774 255 237 222
161.441 112.549 116.233 191 211 255
111.388 141.01 111.261 197 215 255
146.397 33.3351 113.958 196 215 255
92.1754 117.391 100.088 255 228 206
99.3569 134.293 105.382 248 245 255
84.7066 9.0119 111.297 197 215 255
198.472 83.1177 110.987 187 209 255
145.142 186.247 110.82 185 208 255
137.8 106.811 125.144 226 233 255
102.414 155.823 118.175 232 236 255
120.226 59.2795 110.859 192 212 255
83.8554 123.835 100.344 229 234 255
154.233 109.413 112.443 208 221 255
172.254 113.48 115.194 255 253 248
101.313 137.749 116.382 253 248 255
147.416 93.2318 107.491 217 227 255
183.169 149.933 114.149 198 216 255
98.6442 104.974 127.115 255 249 255
174.314 160.959 111.071 197 215 255
31.6753 83.9018 114.319 205 220 255
181.197 53.4099 111.677 202 218 255
39.3385 61.0101 110.681 190 211 255
128.527 86.3962 108.935 255 207 169
98.8212 171.33 108.834 208 222 255
46.9245 115.164 111.278 191 211 255
9.68215 96.3682 110.426 180 204 255
145.348 102.87 120.401 205 220 255
145.899 38.2708 111.631 207 221 255
16.0764 158.807 111.63 194 213 255
132.213 46.6728 113.152 233 237 255
27.1542 106.845 113.684 188 210 255
50.6037 62.4619 113.727 197 215 255
30.4899 122.582 114.033 202 218 255
213.562 117.681 113.899 199 216 255
146.391 128.946 104.502 255 221 194
90.5178 146.578 120.336 225 232 255
63.976 45.6436 113.209 208 222 255
13.9726 63.3569 113.656 193 212 255
140.276 18.546 112.712 187 209 255
120.935 97.4938 120.902 255 210 174
60.5513 192.867 113.498 195 214 255
132.582 133.962 117.51 248 245 255
65.9611 130.934 110.282 203 219 255
119.814 77.2885 110.333 205 220 255
92.9344 174.475 112.369 255 247 239
120.004 163.005 120.883 255 221 195
121.195 74.4545 105.15 255 252 247
84.9888 112.627 103.319 251 247 255
194.42 98.491 111.092 255 250 243
72.875 176.729 115.821 204 219 255
147.617 108.528 107.139 220 229 255
144.578 109.413 105.957 255 254 251
132.263 128.647 111.002 255 208 170
123.908 46.3697 108.848 200 217 255
89.0542 154.383 109.986 255 240 226
55.9999 114.946 109.355 225 232 255
161.002 140.978 109.127 200 217 255
18.7175 145.2 113.173 196 214 255
103.105 108.97 116.838 231 235 255
91.6072 113.482 119.216 202 218 255
149.089 133.306 105.832 255 236 220
112.928 128.347 95.2226 255 158 68
93.3265 161.954 109.684 255 238 223
170.975 188.966 111.38 181 205 255
134.757 108.599 121.085 255 241 228
62.8635 107.679 109.176 194 213 255
157.088 199.862 112.037 181 205 255
94.1386 115.365 112.113 255 185 126
96.8706 91.7601 122.854 224 231 255
150.406 126.799 105.299 198 215 255
159.944 103.172 112.532 255 248 240
148.167 137.397 106.279 204 220 255
49.486 118.049 116.723 213 225 255
101.45 187.73 110.424 209 222 255
89.6966 74.2868 119.115 212 224 255
88.951 25.1287 110.571 196 214 255
103.328 99.2992 123.483 255 255 251
192.841 125.61 113.61 187 209 255
177.235 71.7662 114.802 197 215 255
173.856 154.867 111.146 202 218 255
159.104 145.603 112.726 201 217 255
46.3448 128.265 109.903 188 210 255
48.2504 123.993 111.67 204 219 255
103.408 126.234 102.065 255 251 255
62.1882 155.593 108.592 203 219 255
170.851 143.042 107.988 192 212 255
85.3411 87.0419 118.559 198 216 255
131.81 175.509 108.182 255 252 246
101.411 81.2309 102.723 196 214 255
65.6944 40.9514 112.695 226 233 255
163.151 104.724 112.969 213 224 255
95.2462 66.9268 112.827 252 247 255
132.186 10.0532 112.819 204 219 255
87.7394 115.007 101.513 237 239 255
128.065 142.638 103.076 220 229 255
55.6074 118.043 109.541 219 228 255
117.985 122.501 126.954 255 244 233
81.6372 130.432 120.978 228 234 255
97.519 164.549 110.485 215 226 255
148.908 38.02 111.483 191 211 255
117.223 200.755 112.989 194 213 255
84.074 46.1556 113.091 203 218 255
124.918 173.543 117.6 193 213 255
58.8905 53.1391 112.933 206 220 255
48.1688 107.017 107.768 219 228 255
17.059 113.088 110.229 189 210 255
129.36 113.465 103.785 215 226 255
79.1266 143.941 108.747 255 242 230
172.495 197.748 112.393 189 210 255
82.4418 114.752 121.416 212 224 255
63.0406 136.597 112.664 223 230 255
101.243 111.998 106.211 255 206 167
97.1089 182.602 110.714 187 209 255
163.128 132.463 120.631 213 225 255
118.384 120.911 121.103 255 234 216
128.841 141.415 105.821 250 246 255
118.605 85.0383 103.175 226 233 255
63.4105 18.3259 112.655 181 205 255
80.4911 151.241 119.369 255 250 255
111.185 213.914 112.308 186 208 255
129.49 122.625 114.73 210 223 255
92.2302 28.659 114.117 209 222 255
95.2637 43.1743 107.533 198 215 255
111.862 112.773 100.131 255 237 221
80.6708 8.69342 113.83 186 208 255
29.1565 148.991 109.775 189 210 255
124.067 113.067 117.112 255 242 230
87.1102 86.0324 116.097 209 222 255
32.4831 51.3329 111.098 189 210 255
134.582 58.0559 107.701 211 223 255
87.1958 133.894 111.946 215 226 255
130.459 205.194 113.221 192 212 255
113.279 76.6744 109.275 255 177 110
194.348 182.262 113.447 197 215 255
92.6341 174.919 111.198 197 215 255
84.2544 24.5055 105.674 194 213 255
93.4423 125.552 109.607 255 241 228
107.612 96.267 117.661 255 210 174
33.6835 57.3053 113.602 182 205 255
176.734 144.745 113.23 225 232 255
165.326 147.414 114.734 224 231 255
118.525 119.405 108.182 247 244 255
77.6973 60.7534 117.062 200 217 255
124.238 81.8717 117.693 255 251 245
101.388 104.692 119.094 255 234 217
149.312 66.9979 111.973 206 220 255
144.712 97.957 106.353 226 233 255
90.8078 77.3865 102.46 226 233 255
104.657 38.9389 113.807 255 244 233
78.5739 145.611 112.604 253 248 255
149.595 147.763 117.401 206 220 255
152.6 144.637 118.79 245 243 255
172.445 168.151 115.08 184 207 255
68.479 117.609 116.668 202 218 255
154.239 114.464 114.505 255 243 232
44.5447 138.424 116.651 198 216 255
121.84 168.63 117.814 255 247 239
150.33 93.7249 112.746 255 218 188
95.6903 39.3912 112.593 188 209 255
111.91 169.988 112.62 234 237 255
179.197 133.905 111.397 201 217 255
83.932 110.559 108.683 255 245 235
161.226 89.9128 112.734 237 239 255
91.9618 156.664 112.566 212 224 255
101.333 110.406 127.116 240 241 255
95.5279 116.749 109.853 255 224 199
90.9347 155.344 113.417 205 220 255
119.885 64.7469 108.496 205 220 255
32.139 95.3613 109.884 194 213 255
45.1428 154.177 113.8 192 212 255
75.7698 130.018 107.008 227 233 255
133.254 83.819 120.283 255 226 203
112.896 31.7697 114.837 188 210 255
16.0071 138.527 111.223 185 208 255
220.122 119.616 114.79 201 217 255
83.5979 192.768 110.316 207 221 255
106.483 138.716 99.363 242 242 255
108.432 129.657 98.5331 255 212 178
153.43 123.966 111.595 227 233 255
123.312 100.547 115.889 255 246 236
93.0004 95.5554 100.74 255 230 210
60.3054 86.124 106.315 255 230 209
132.543 111.207 108.965 196 214 255
209.882 78.8654 115.741 192 212 255
125.1 45.4333 115.246 247 244 255
109.083 163.792 108.007 198 216 255
130.616 130.147 102.222 255 228 207
115.569 181.407 110.426 246 244 255
144.713 125.195 107.842 187 209 255
113.79 85.5318 116.718 207 221 255
17.4634 81.8108 113.222 184 207 255
62.6741 18.1043 116.292 183 206 255
71.2526 109.428 107.292 215 226 255
55.7518 54.3673 108.428 200 217 255
104.71 84.5537 103.778 239 240 255
142.965 151.406 120.325 198 216 255
117.732 16.641 112.171 188 209 255
125.794 38.2567 109.191 196 214 255
117.89 148.907 113.973 255 227 204
66.5855 17.3234 110.257 210 223 255
71.0723 92.5061 111.055 211 224 255
141.243 56.6632 107.119 208 222 255
152.237 68.2872 109.462 218 228 255
106.594 152.363 117.898 255 240 228
114.074 144.193 100.445 204 219 255
155.442 108.136 108.744 214 225 255
119.516 51.3853 108.158 216 226 255
122.949 119.926 128.935 255 211 176
104.93 161.453 105.312 214 225 255
96.7833 124.631 99.3492 255 222 196
68.4419 202.093 114.158 196 215 255
206.466 70.5798 113.339 188 209 255
92.9131 174.722 111.216 197 215 255
116.921 113.889 102.381 225 232 255
143.266 146.911 111.846 202 218 255
59.6899 23.0741 110.476 231 236 255
183.051 98.1989 117.323 255 230 210
119.861 90.3848 126.096 196 215 255
199.565 172.082 109.297 188 209 255
63.9322 196.107 110.384 193 212 255
73.2661 107.124 106.661 206 220 255
96.9047 142.212 109.097 248 245 255
163.419 170.183 113.919 184 207 255
169.717 18.8795 112.895 181 205 255
91.5005 150.267 113.949 210 223 255
160.823 125.597 112.367 243 242 255
55.498 174.735 110.463 192 212 255
129.529 218.411 110.855 190 211 255
160.149 152.06 107.364 195 214 255
76.0373 210.551 113.559 187 209 255
56.5876 21.6495 109.896 195 214 255
98.2774 156.102 120.893 255 240 226
145.077 96.1358 111.553 255 232 213
132.551 46.2613 110.382 226 233 255
100.313 58.8722 107.559 197 215 255
118.022 92.5484 112.09 255 250 244
142.586 111.483 104.78 214 225 255
130.78 216.437 112.345 179 204 255
190.794 59.7054 110.911 191 212 255
115.483 128.014 113.731 255 193 142
52.649 65.5661 111.914 186 208 255
92.29 128.441 106.62 218 228 255
207.82 139.564 110.989 202 218 255
72.7136 11.3265 109.662 186 208 255
49.4546 72.4243 112.902 211 224 255
159.064 99.1094 110.337 196 214 255
132.466 30.0185 115.686 192 212 255
78.6418 116.729 121.012 212 224 255
119.327 172.385 112.901 213 225 255
61.2057 137.675 114.742 226 232 255
133.428 89.3312 115.664 255 184 124
102.731 119.638 113.398 255 200 155
119.054 25.9628 110.81 191 211 255
130.015 131.519 121.73 231 235 255
60.5685 76.7066 116.778 255 240 227
157.377 32.066 113.742 204 219 255
89.1048 91.0632 120.727 217 227 255
161.655 75.2831 109.06 255 252 246
139.699 51.6346 116.067 217 227 255
115.34 128.233 124.067 232 236 255
118.3 109.552 129.077 246 244 255
86.1232 167.506 113.727 226 232 255
100.993 156.424 117.841 211 223 255
117.75 7.22847 112.152 185 207 255
141.609 15.4015 111.233 183 206 255
162.231 185.007 110.426 201 217 255
102.873 122.45 100.092 211 224 255
38.1149 110.271 108.009 188 210 255
168.84 76.2123 117.599 212 224 255
113.143 205.331 113.272 209 222 255
95.1078 78.6628 104.686 255 250 243
150.917 122.824 104.31 223 231 255
172.108 137.435 110.2 202 218 255
122.504 84.6851 108.934 255 255 252
120.437 215.597 112.83 189 210 255
100.94 29.7409 116.031 214 225 255
28.2972 53.0727 114.592 191 212 255
45.6331 142.772 113.565 204 219 255
86.4576 178.86 111.733 220 229 255
84.6053 106.955 122.66 226 232 255
172.879 124.45 111.13 216 226 255
120.482 85.0736 102.134 203 219 255
147.593 27.7418 112.316 229 234 255
218.888 141.011 115.044 194 213 255
131.992 78.3346 117.261 210 223 255
144.435 69.6186 122.13 200 217 255
125.971 187.518 114.89 194 213 255
77.043 90.3997 112.56 255 220 193
31.5797 45.7347 113.818 182 205 255
124.839 125.436 121.383 204 219 255
130.412 104.357 122.927 236 238 255
74.5608 102.32 103.454 255 219 190
107.486 45.2196 112.673 203 219 255
52.1735 23.9283 115.098 182 206 255
119.418 115.205 101.174 203 219 255
42.5327 102.298 108.591 198 215 255
105.495 135.756 121.565 255 242 230
85.8524 11.1209 112.457 190 211 255
216.932 120.837 111.462 197 215 255
31.469 64.1307 112.073 192 212 255
123.382 101.676 106.149 222 230 255
112.035 161.126 108.685 235 237 255
104.963 147.155 117.796 255 235 218
162.865 72.9192 111.586 211 223 255
131.296 7.50226 112.209 186 208 255
28.1758 56.8331 115.031 187 209 255
94.0074 131.381 109.593 255 237 222
206.623 149.77 110.688 183 206 255
16.6827 97.2355 111.512 209 222 255
65.3397 127.769 104.312 209 222 255
92.9186 174.566 111.519 201 218 255
53.489 101.405 118.511 216 226 255
154.378 126.816 102.463 255 233 215
112.361 108.007 121.725 255 223 197
156.615 100.593 118.096 212 224 255
125.077 114.939 117.886 217 227 255
101.351 142.945 124.654 194 213 255
85.3983 106.317 121.71 192 212 255
127.847 78.0429 105.291 255 176 107
96.8101 66.2188 111.494 231 235 255
114.998 103.932 105.558 255 222 197
151.635 169.552 111.244 213 225 255
161.064 37.587 111.772 181 205 255
44.5968 74.9714 114.358 198 216 255
89.9237 31.6432 112.285 190 210 255
96.5688 93.585 120.179 255 253 248
80.1446 151.708 112.086 241 241 255
150.441 119.51 115.664 225 232 255
138.668 105.524 112.049 224 231 255
134.592 17.7104 112.932 196 214 255
196.012 116.594 110.502 183 206 255
80.6643 89.5147 102.951 255 225 201
122.642 133.406 115.033 255 185 126
51.1745 169.483 108.386 193 213 255
117.824 103.918 125.627 214 225 255
81.6491 74.9266 118.971 217 227 255
59.6817 41.7363 113.365 199 216 255
32.3864 48.2944 111.676 200 217 255
127.692 191.205 110.311 197 215 255
35.8422 40.8236 113.491 187 209 255
76.2509 118.152 101.005 255 237 222
172.522 38.4776 112.209 183 206 255
96.1238 127.639 121.527 255 179 114
128.977 90.1729 114.672 255 226 203
112.909 124.248 123.942 255 241 228
51.74 195.977 114.395 185 207 255
86.1715 155.478 111.974 214 225 255
123.382 162.153 117.842 213 225 255
74.404 99.6346 105.633 255 232 214
93.0297 174.575 111.528 207 221 255
128.064 125.935 117.416 249 246 255
128.278 35.6236 107.641 191 211 255
120.204 92.7805 113.115 226 233 255
30.6314 140.365 113.781 212 224 255
83.1306 197.683 110.379 182 205 255
206.219 162.209 111.261 188 209 255
61.6672 164.472 112.098 193 213 255
95.4991 178.643 110.571 204 219 255
146.365 129.395 110.2 201 218 255
118.28 72.444 118.37 206 220 255
91.3561 120.456 101.835 255 238 223
83.8824 66.2693 108.123 255 245 236
126.942 119.286 101.186 234 237 255
188.474 84.1506 110.522 211 224 255
102.415 181.93 112.019 190 210 255
60.4964 145.123 117.001 207 221 255
138.554 59.7233 112.207 255 222 196
49.3196 101.807 116.108 197 215 255
103.464 127.523 114.616 207 221 255
54.8404 155.012 113.279 210 223 255
42.7187 173.306 111.324 212 224 255
75.0716 71.8005 105.43 213 225 255
116.996 131.669 110.875 255 127 0
207.225 56.906 111.642 182 206 255
114.689 33.5274 112.931 199 216 255
157.042 179.958 112.988 190 210 255
127.483 55.6039 108.824 211 224 255
101.691 88.6909 119.749 217 227 255
37.5944 90.719 114.667 197 215 255
25.803 140.199 113.824 191 211 255
133.445 110.582 125.941 229 234 255
119.574 145.191 111.463 255 250 244
37.8624 174.223 109.6 186 208 255
158.912 139.368 106.213 191 211 255
145.653 180.755 113.651 211 223 255
73.6001 100.525 112.066 255 249 255
108.239 115.59 121.014 255 250 255
130.763 76.002 111.081 255 255 252
35.7509 146.83 111.117 200 217 255
172.245 95.1613 115.946 218 228 255
186.577 60.1583 111.068 186 208 255
134.867 109.691 107.384 218 227 255
183.173 123.307 112.486 197 215 255
117.701 91.968 119.182 233 237 255
47.4143 71.8615 114.437 255 234 217
88.1061 96.7207 103.836 255 226 202
148.243 128.44 113.427 191 211 255
101.728 45.5306 108.182 188 209 255
125.813 49.2321 117.269 222 230 255
163.316 134.693 116.572 210 223 255
175.815 58.5 112.334 216 226 255
115.918 145.949 110.168 217 227 255
149.809 34.4826 113.176 203 218 255
167.905 122.49 109.526 217 227 255
52.8442 116.547 115.082 211 223 255
155.083 172.225 108.542 196 214 255
64.0969 21.1067 109.18 182 206 255
106.327 88.6201 124.29 255 204 163
150.54 63.049 113.99 251 247 255
134.731 86.3838 124.703 187 209 255
64.7492 160.928 108.796 182 206 255
38.1176 106.105 115.119 200 217 255
158.708 128.658 111.998 237 238 255
208.77 72.9364 113.222 195 213 255
52.1851 107.136 110.076 193 212 255
66.7474 71.9656 112.961 232 236 255
174.506 113.238 114.834 237 238 255
170.981 160.881 114.308 196 215 255
119.566 109.919 122.315 255 251 255
47.984 104.281 111.643 193 213 255
130.816 101.073 102.677 237 239 255
58.2641 113.528 118.629 252 247 255
134.722 112.153 125.947 219 228 255
170.81 49.2587 110.324 185 207 255
82.449 216.552 112.328 181 205 255
102.803 80.8379 110.24 218 227 255
106.512 119.061 93.9494 255 209 172
119.478 84.9553 103.73 255 103 0
128.513 58.4301 111.944 192 212 255
164.521 76.9289 113.007 214 226 255
128.129 139.537 123.464 194 213 255
113.882 121.943 107.285 215 226 255
60.8632 165.216 114.255 200 217 255
128.497 131.142 125.003 239 240 255
57.7906 100.232 115.762 193 212 255
102.713 69.779 115.463 221 229 255
94.8314 94.9312 104.035 225 232 255
75.9631 139.908 120.33 204 219 255
166.869 96.7377 110.851 204 219 255
90.3589 138.929 104.476 192 212 255
50.8853 93.979 111.061 201 218 255
126.287 148.105 120.639 223 231 255
118.517 122.47 105.092 255 231 212
147.005 89.1275 109.435 220 229 255
109.462 34.478 117.24 204 219 255
60.8497 96.2288 119.719 255 249 255
114.446 66.4849 111.931 203 219 255
72.771 36.5048 112.162 192 212 255
114.459 98.7632 103.717 255 243 233
131.894 124.492 105.166 247 245 255
141.175 79.2845 103.94 255 245 235
90.5737 154.082 106.512 255 239 225
169.051 117.585 117.067 227 233 255
166.038 18.7551 112.999 177 202 255
93.1067 174.578 110.712 223 231 255
89.3459 68.9311 104.161 198 216 255
170.437 119.759 116.216 218 228 255
55.7181 97.3805 115.359 186 208 255
181.267 126.384 111.053 215 226 255
29.7089 111.473 114.457 188 209 255
144.348 181.519 109.525 207 221 255
79.9454 93.1051 123.399 209 223 255
100.382 149.101 102.707 203 219 255
130.853 96.3511 102.118 211 223 255
167.691 158.132 112.402 218 228 255
125.488 104.418 126.966 200 217 255
136.306 49.0014 108.381 201 217 255
70.3032 171.59 115.945 191 211 255
31.1305 154.21 110.597 193 212 255
109.529 141.911 118.448 255 244 233
75.6375 36.0981 113.107 192 212 255
69.9068 58.0624 116.399 200 217 255
169.772 175.7 116.698 190 210 255
122.858 141.319 123.273 236 238 255
144.167 113.555 111.685 218 228 255
106.304 178.361 110.342 255 218 189
129.031 68.9558 112.184 247 244 255
184.562 148.341 112.821 190 210 255
93.9932 83.4386 103.472 226 233 255
209.286 81.0935 112.914 191 211 255
150.21 75.9912 109.675 216 227 255
90.3686 147.864 120.392 255 235 218
191.292 147.56 111.93 211 224 255
92.5455 174.513 110.856 193 213 255
23.7935 79.6394 113.582 193 212 255
68.1473 53.0409 115.21 255 249 255
76.0972 143.451 107.383 208 222 255
112.672 69.0728 119.592 255 245 235
199.614 136.731 110.911 187 209 255
99.1184 114.65 105.976 255 237 222
153.836 169.533 109.022 207 221 255
50.7418 68.9285 110.914 206 221 255
88.0958 112.903 102.783 255 221 193
135.012 73.0036 116.57 221 230 255
5.99114 103.521 110.908 210 223 255
59.582 72.6628 113.586 205 220 255
88.3627 90.7087 100.517 209 222 255
86.5126 74.2659 113.719 236 238 255
104.54 141.999 117.941 255 254 251
95.6758 209.036 114.02 192 212 255
89.7173 84.8439 113.13 233 236 255
158.568 38.6482 114.145 189 210 255
142.719 142.115 113.416 210 223 255
103.368 74.7871 111.373 210 223 255
112.169 96.0923 104.815 212 224 255
133.367 106.514 107.877 229 234 255
164.862 142.572 108.534 199 216 255
53.2483 67.6498 110.366 191 211 255
122.944 151.819 101.642 202 218 255
161.242 169.17 111.55 192 212 255
84.8581 168.412 116.74 219 228 255
105.209 124.669 118.248 226 232 255
193.035 170.375 113.677 198 216 255
80.2332 137.421 112.581 255 232 213
63.2092 142.425 111.879 255 247 238
157.01 183.126 111.355 197 215 255
83.6008 50.4605 112.129 191 211 255
115.367 126.709 104.986 255 233 215
57.7083 39.9457 112.672 198 216 255
92.8045 174.475 111.113 204 219 255
143.971 68.5293 104.754 201 217 255
139.954 121.331 105.856 232 236 255
128.344 10.5167 112.684 212 224 255
55.636 106.685 113.909 196 215 255
152.221 134.551 118.671 201 217 255
47.111 165.81 112.478 209 222 255
122.978 47.3191 112.74 199 216 255
123.152 77.132 116.824 197 215 255
178.23 66.9604 111.592 200 217 255
120.102 114.664 105.958 255 155 61
118.588 193.582 111.847 188 209 255
115.429 125.016 124.964 255 240 227
92.7243 174.451 110.949 255 250 244
96.7816 175.62 110.524 207 221 255
118.715 115.387 103.577 255 215 183
147.928 128.065 108.52 255 248 240
120.083 133.639 125.889 233 236 255
160.267 137.537 118.709 209 222 255
156.204 173.487 113.647 219 228 255
112.154 120.824 129.732 227 233 255
72.6815 105.519 105.469 237 239 255
99.999 98.797 118.044 255 227 205
88.0403 154.968 110.495 224 231 255
22.0202 105.226 110.746 188 210 255
119.175 113.634 119.239 255 232 213
26.0842 140.188 113.198 192 212 255
175.713 184.63 115.394 185 207 255
51.7969 117.973 112.005 221 230 255
44.1517 72.9184 113.401 202 218 255
105.327 9.49917 112.099 197 215 255
176.163 125.989 110.166 187 209 255
128.007 145.451 116.6 199 216 255
157.052 96.2304 112.419 255 249 242
115.283 106.651 129.194 255 247 238
172.585 137.818 113.1 220 229 255
52.1448 106.354 115.277 203 219 255
157.424 48.7785 110.084 210 223 255
92.7045 174.158 111.435 236 238 255
56.3776 123.38 111.99 214 225 255
109.819 160.171 106.142 255 209 172
142.168 90.2168 107.751 255 225 201
100.013 125.882 124.586 255 245 235
103.101 60.1081 108.987 255 255 251
76.15 112.058 108.792 255 212 179
148.002 98.4055 112.22 197 215 255
99.4427 70.0782 106.081 234 237 255
101.003 134.586 102.97 255 237 222
135.489 57.969 106.452 255 249 242
139.419 126.837 116.9 202 218 255
151.519 206.141 113.156 199 216 255
171.801 113.198 111.943 219 228 255
66.7139 55.1257 116.219 199 216 255
105.991 159.02 117.155 215 226 255
175.101 128.966 111.823 193 213 255
204.155 153.962 114.817 194 213 255
166.177 161.796 110.003 196 214 255
136.766 71.8696 104.359 206 221 255
66.8375 149.819 118.394 208 222 255
85.0892 40.8395 111.487 204 219 255
172.03 104.555 110.978 255 250 244
134.257 81.2379 102.31 213 225 255
152.852 103.825 119.319 196 215 255
202.45 76.7628 111.655 189 210 255
150.199 144.588 119.823 224 231 255
64.8116 41.5151 113.968 202 218 255
89.1625 121.13 107.173 219 228 255
74.6117 43.1441 115.117 194 213 255
41.7872 72.0545 113.214 191 211 255
116.672 68.6101 106.485 228 233 255
100.379 131.268 105.084 255 254 250
198.229 77.0815 113.071 187 209 255
170.649 128.325 111.636 202 218 255
140.87 144.801 110.279 200 217 255
101.169 114.642 97.5839 255 251 255
91.2286 167.961 109.304 197 215 255
172.881 138.346 111.364 196 214 255
136.243 87.4345 124.146 217 227 255
88.8748 157.067 111.765 205 220 255
144.717 72.3386 115.097 204 219 255
118.919 51.6603 118.235 213 224 255
66.1877 53.8614 113.922 189 210 255
132.286 133.477 121.637 255 251 246
167.048 182.58 114.158 190 211 255
70.1832 174.277 110.5 190 211 255
128.986 102.733 103.151 255 224 199
156.273 34.9057 112.643 194 213 255
93.6149 150.078 113.406 225 232 255
152.619 201.353 110.757 193 212 255
153.393 75.5972 113.122 240 240 255
102.74 127.315 96.6195 255 241 228
183.858 184.516 109.82 194 213 255
126.083 147.822 108.442 250 246 255
79.0931 118.208 117.698 199 216 255
89.3254 139.698 121.165 223 231 255
170.516 124.163 116.156 196 215 255
91.5562 95.5869 102.167 220 229 255
121.867 50.3984 116.921 192 212 255
176.887 165.736 111.488 189 210 255
152.73 67.2306 108.966 197 215 255
33.3003 64.2977 112.72 211 223 255
110.847 161.595 105.118 196 214 255
83.519 117.813 113.451 235 237 255
157.128 149.772 112.506 194 213 255
122.464 92.2735 121.507 255 226 203
174.081 134.384 112.93 222 230 255
6.39832 109.225 115.018 182 206 255
110.836 126.888 99.6224 255 245 235
107.693 72.3924 108.984 205 220 255
56.6722 175.395 112.834 191 211 255
138.288 172.903 108.038 195 214 255
112.108 30.4496 114.755 197 215 255
52.5884 114.748 111.207 219 228 255
123.343 133.454 124.417 255 237 222
143.026 97.3749 103.338 255 250 244
141.696 110.188 119.293 223 230 255
43.2901 110.159 110.627 204 219 255
127.306 146.223 116.499 197 215 255
176.875 66.9838 114.169 205 220 255
125.255 74.6611 111.119 201 217 255
47.1648 101.185 109.794 204 219 255
146.771 40.488 113.804 202 218 255
136.334 157.235 112.343 222 230 255
48.3756 107.601 112.158 223 231 255
118.017 122.268 123.118 255 250 244
53.959 95.3855 105.891 212 224 255
39.5799 142.101 113.94 189 210 255
122.837 170.339 109.764 191 211 255
36.9699 145.982 115.776 200 217 255
106.108 121.861 108.728 255 206 166
67.6228 136.283 107.814 227 233 255
150.432 110.817 105.655 255 244 234
70.5777 55.74 108.244 200 217 255
104.504 124.078 123.2 231 235 255
101.406 17.625 112.585 202 218 255
95.3097 139.553 120.122 255 106 0
82.0589 89.8231 103.41 228 234 255
119.603 86.0694 104.698 255 242 231
175.642 132.222 116.722 196 214 255
74.3725 44.3194 110.523 192 212 255
111.574 98.0095 128.261 255 234 216
64.8367 150.766 113.084 198 215 255
41.8683 98.9974 112.202 216 226 255
195.667 90.3515 114.736 197 215 255
115.591 143.843 111.192 255 232 213
23.9921 161.781 111.497 185 208 255
212.318 95.6835 110.577 186 208 255
140.676 38.4482 115.468 189 210 255
96.229 81.0967 120.885 255 228 206
127.284 83.7803 119.172 225 232 255
78.322 81.0368 121.792 255 248 240
118.256 117.386 131.371 255 242 231
112.034 82.6312 101.096 255 251 255
83.4429 108.418 119.961 221 229 255
129.442 75.4631 106.831 216 227 255
182.597 87.2942 109.367 210 223 255
143.454 138.185 116.799 194 213 255
70.7933 191.529 114.197 228 234 255
199.808 149.614 114.966 188 209 255
92.8694 174.681 111.312 199 216 255
136.347 90.2832 117.638 190 211 255
150.073 80.1696 112.399 255 247 238
133.205 122.654 112.211 234 237 255
71.4138 150.307 107.868 255 251 255
50.8723 138.965 109.625 255 251 255
93.6909 175.181 111.277 255 204 163
132.664 134.939 112.632 232 236 255
99.276 150.367 119.39 218 228 255
54.891 54.9694 110.172 212 224 255
130.789 166.35 117.291 194 213 255
120.694 66.0879 113.384 190 210 255
65.1372 147.172 106.643 233 236 255
156.69 85.5023 110.914 250 246 255
162.275 136.227 119.108 221 229 255
134.521 122.959 108.23 217 227 255
23.8934 150.695 113.064 197 215 255
96.7419 156.553 110.952 255 235 219
173.771 111.239 116.652 196 215 255
92.679 101.189 113.65 255 225 201
163.273 154.252 108.407 210 223 255
106.124 135.536 114.569 206 221 255
92.6564 174.417 111.292 203 219 255
98.2772 136.068 121.978 253 248 255
93.4493 70.8134 112.638 201 217 255
71.5516 95.1055 117.278 236 238 255
50.279 98.3375 105.443 213 225 255
40.113 73.0393 113.196 193 212 255
25.2516 61.3381 111.711 198 216 255
204.824 163.784 110.682 185 208 255
145.968 150.321 109.079 194 213 255
56.7179 96.6063 117.571 198 216 255
79.1713 146.238 117.073 203 219 255
138.517 40.1833 114.858 185 208 255
175.327 40.379 114.699 189 210 255
169.108 108.638 108.233 215 226 255
79.7248 175.867 115.342 213 225 255
186.537 77.4392 110.855 255 244 234
77.0394 69.3139 110.875 205 220 255
98.2281 117.397 121.747 255 214 181
114.047 193.393 113.737 200 217 255
107.536 114.499 129.409 255 188 132
102.501 132.938 121.615 255 254 251
103.212 135.098 112.94 201 218 255
162.077 44.1058 109.743 198 216 255
82.6567 10.1607 112.574 188 209 255
106.039 126.272 95.7498 255 250 255
112.84 70.1748 114.372 215 226 255
107.281 91.3545 120.463 255 220 193
83.5731 134.788 118.115 227 233 255
63.2311 94.226 106.709 208 222 255
125.141 167.411 108.232 196 215 255
150.145 90.4255 117.439 239 240 255
106.989 121.66 120.645 241 241 255
142.954 123.108 104.444 202 218 255
101.231 180.725 111.74 224 231 255
133.753 147.662 117.828 232 236 255
106.708 128.017 120.386 255 241 228
95.1218 150.531 121.621 255 235 218
65.3126 87.2851 110.884 192 212 255
211.117 134.584 112.909 194 213 255
123.398 104.813 119.036 255 232 214
38.2006 101.893 114.16 192 212 255
150.07 166.377 108.977 195 214 255
120.209 111.786 105.679 210 223 255
141.212 105.358 103.969 255 227 204
125.865 121.523 121.378 255 246 237
92.8341 174.947 111.38 220 229 255
99.2 140.658 122.624 252 247 255
89.9872 37.7412 114.309 186 208 255
176.658 139.765 113.916 199 216 255
124.366 70.8987 111.024 216 227 255
145.79 87.8771 113.328 255 193 142
164.727 96.0518 119.719 215 226 255
123.369 74.3876 122.897 220 229 255
33.3238 71.1059 114.742 204 219 255
81.1493 188.878 113.913 205 220 255
83.4935 111.738 103.885 255 159 72
135.889 151.892 103.262 221 229 255
132.821 105.619 114.558 255 244 234
127.572 114.541 126.383 255 141 27
61.0242 117.196 104.188 231 235 255
92.671 95.6019 126.973 247 244 255
111.105 96.9028 112.95 240 241 255
163.027 33.0322 114.246 183 206 255
121.429 107.686 112.88 255 247 239
149.831 50.883 110.506 220 229 255
187.05 191.114 112.933 204 219 255
139.31 125.082 112.617 198 215 255
135.21 33.4015 113.957 210 223 255
132.287 145.288 118.335 255 240 228
175.826 98.2247 108.366 225 232 255
10.1364 108.22 114.446 190 210 255
134.258 152.349 109.838 196 215 255
149.009 131.957 109.165 209 222 255
139.161 145.227 109.115 194 213 255
118.152 83.6563 102.987 195 214 255
69.7949 139.623 116.871 192 212 255
131.066 200.996 112.102 185 208 255
139.085 134.85 123.853 199 217 255
84.5181 163.063 112.847 200 217 255
80.9122 194.295 109.772 212 224 255
139.505 135.39 123.678 255 251 255
21.5535 66.4836 109.08 187 209 255
38.4013 177.889 112.657 191 212 255
156.555 165.009 109.435 215 226 255
32.4369 54.7503 114.724 200 217 255
136.762 114.211 109.933 255 240 227
94.1409 77.5692 107.766 197 215 255
42.7158 60.8966 115.065 204 219 255
152.819 86.0213 112.571 193 212 255
93.2011 80.9302 109.674 217 227 255
129.124 101.264 118.049 255 181 118
137.286 101.585 104.296 239 240 255
41.8656 131.317 112.679 196 214 255
88.5435 24.1292 112.077 181 205 255
115.777 92.0629 118.964 255 230 210
142.917 104.302 120.895 255 255 252
82.1742 105.828 118.093 255 226 203
152.705 107.61 103.287 202 218 255
137.963 149.014 114.538 219 228 255
96.2712 55.369 113.195 204 220 255
124.754 52.9942 108.941 255 254 251
168.607 191.679 111.092 196 214 255
66.2359 101.338 120.357 201 218 255
87.4813 159.747 108.337 193 212 255
77.7543 69.005 108.802 217 227 255
29.0844 44.0211 110.19 203 219 255
162.157 73.2582 112.753 228 234 255
180.474 47.8107 112.747 229 234 255
111.734 155.788 108.696 255 226 203
118.506 217.582 113.005 186 208 255
151.251 104.583 118.933 206 221 255
110.842 92.9909 111.696 255 250 255
125.086 91.3921 122.222 255 239 225
122.01 167.213 107.001 244 243 255
64.9083 138.316 107.132 228 233 255
140.508 127.707 123.221 239 240 255
93.2408 61.0427 104.941 183 206 255
122.052 109.459 117.189 243 242 255
96.2276 173.121 112.071 225 232 255
158.355 205.819 115.384 178 203 255
105.65 116.55 132.404 223 230 255
131.296 135.665 121.827 255 240 227
111.248 159.721 118.154 228 234 255
136.166 85.5416 115.735 255 216 185
132.87 82.2848 108.798 200 217 255
113.4 127.061 109.677 255 237 222
87.895 95.3515 99.6712 233 237 255
111.605 108.753 98.5151 255 253 249
75.1967 84.2706 116.119 211 223 255
92.9131 174.664 111.331 231 235 255
73.2284 139.275 118.918 216 227 255
161.437 124.98 103.865 242 242 255
141.613 9.01086 112.179 197 215 255
122.817 104.474 118.845 255 232 214
