ply
format ascii 1.0
element vertex 1341
property float x
property float y
property float z
property uchar red
property uchar green
property uchar blue
end_header
183.89 138.937 182.071 221 229 255
96.5839 191.322 111.546 191 211 255
103.566 88.5004 124.016 213 225 255
150.488 196.154 111.317 193 212 255
131.901 116.428 112.766 222 230 255
42.0022 45.4563 110.24 190 210 255
160.111 128.396 113.746 215 226 255
133.019 110.68 116.325 202 218 255
143.461 82.0068 115.36 254 248 255
96.976 127.865 127.351 203 219 255
73.9196 163.348 113.693 196 214 255
177.521 186.212 114.146 185 207 255
57.0411 39.348 113.248 183 206 255
71.374 150.053 101.226 208 222 255
53.3243 72.5138 115.631 207 221 255
114.852 116.556 116.058 255 214 181
100.744 100.234 114.047 201 217 255
158.666 163.628 111.297 210 223 255
68.7421 139.247 116.303 255 226 203
202.195 68.5999 114.561 196 214 255
57.5646 122.004 110.734 205 220 255
145.414 23.3142 114.075 195 214 255
83.6954 128.879 113.868 187 209 255
111.525 147.202 114.288 255 154 59
98.3265 114.951 112.25 227 233 255
34.8461 134.858 110.215 198 215 255
204.069 91.2542 115.626 220 229 255
48.0244 85.8684 117.672 181 205 255
170.833 170.081 113.267 186 208 255
125.629 158.129 111.298 221 230 255
11.5915 100.47 116.408 200 217 255
89.6842 110.277 115.978 227 233 255
138.548 79.0493 108.071 237 239 255
67.3217 101.747 96.521 205 220 255
78.9939 43.9222 112.252 188 210 255
99.9079 52.8402 120.838 202 218 255
105.002 110.976 112.874 231 235 255
61.4722 108.554 114.665 195 214 255
42.7484 105.769 113.713 193 213 255
110.631 116.796 118.734 255 230 210
88.7457 154.86 110.33 255 228 206
93.6278 173.959 110.982 210 223 255
60.7704 58.0752 113.04 197 215 255
214.003 41.1061 112.756 181 205 255
106.189 114.482 110.265 255 195 147
80.873 210.558 112.706 192 212 255
89.7313 19.97 110.706 198 215 255
17.9271 158.537 112.967 187 209 255
36.9233 221.075 105.163 198 216 255
171.68 95.0574 118.947 219 228 255
187.079 143.79 102.969 255 246 237
131.322 171.67 114.676 209 222 255
112.992 113.893 108.321 255 242 230
83.5497 184.121 141.203 255 241 229
48.7507 104.718 109.344 190 211 255
95.0019 135.413 111.242 206 221 255
172.221 15.266 111.465 183 206 255
49.7334 124.248 112.945 202 218 255
113.865 74.3921 113.136 205 220 255
47.8107 83.8141 110.952 208 222 255
96.827 28.4633 111.713 216 226 255
188.712 83.5827 108.346 189 210 255
150.876 99.6955 115.829 190 211 255
68.4603 52.1377 127.75 199 216 255
91.0278 73.7515 112.278 195 214 255
180.011 40.0939 108.543 196 214 255
61.1217 100.233 103.994 208 221 255
134.335 115.58 111.03 221 230 255
106.525 108.332 114.542 203 219 255
151.269 104.944 111.949 255 250 255
100.087 184.227 112.393 212 224 255
62.9332 94.2151 115.22 206 221 255
145.05 82.0599 119.544 223 231 255
110.813 52.0106 112.93 240 241 255
128.288 74.7947 114.729 255 239 225
37.4833 158.153 110.384 189 210 255
104.473 87.5221 109.616 241 241 255
93.4328 173.417 110.912 218 228 255
93.5837 124.826 150.044 210 223 255
8.07263 129.216 112.157 193 212 255
93.3924 173.446 110.87 196 214 255
37.3388 115.136 110.718 217 227 255
94.275 126.866 112.508 255 244 234
168.405 112.175 96.4299 204 219 255
68.7476 124.725 112.926 212 224 255
112.905 112.419 106.772 255 245 236
83.5829 162.68 122.854 255 249 242
111.321 107.852 109.132 255 251 255
70.1434 86.4795 113.313 198 215 255
111.641 122.213 106.109 255 251 255
173.857 102.826 113.684 202 218 255
93.9639 105.348 107.823 215 226 255
105.919 171.414 109.374 201 217 255
111.207 121.193 107.452 255 231 211
59.4204 123.111 115.424 214 226 255
93.3973 173.495 110.881 202 218 255
93.4014 173.567 110.886 201 217 255
111.992 115.748 113.947 255 216 185
120.551 130.735 119.049 255 244 233
167.816 133.232 110.77 253 248 255
109.113 105.461 113.996 255 248 241
117.649 119.891 116.734 255 209 173
83.6778 48.9393 111.674 194 213 255
139.09 77.8089 114.631 255 241 228
35.7119 132.748 112.221 200 217 255
138.39 76.5422 111.091 228 233 255
33.9368 70.7703 118.159 239 240 255
112.297 74.7612 112.823 207 221 255
89.1554 184.746 107.123 206 221 255
107.357 110.367 116.634 255 220 193
18.3806 55.9306 108.788 181 205 255
98.4468 94.7994 112.429 245 243 255
136.686 73.5765 114.905 228 234 255
137.375 188.261 109.766 204 219 255
115.711 186.028 111.367 199 216 255
128.709 86.4385 114.301 225 232 255
105.016 147.955 114.518 235 238 255
52.4957 76.6882 112.507 238 239 255
60.0453 102.404 108.753 191 211 255
120.975 134.874 107.167 202 218 255
91.1045 160.71 109.035 255 247 239
74.955 78.6705 115.165 204 219 255
98.2435 29.0616 91.9976 204 219 255
96.3959 41.7408 112.849 255 240 226
141.481 30.4765 110.134 202 218 255
99.9178 108.062 111.695 220 229 255
131.718 131.445 112.628 240 241 255
67.2861 169.646 114.25 215 226 255
106.639 113.236 119.147 255 248 240
148.248 127.354 112.727 226 232 255
74.7384 133.864 113.971 209 222 255
45.4488 78.1368 107.277 219 228 255
143.895 118.563 111.045 255 237 222
81.8573 129.33 112.478 255 250 244
139.812 163.233 109.496 188 209 255
42.4053 32.5396 112.844 185 208 255
93.4065 173.587 110.838 208 222 255
126.205 132.094 131.702 255 252 247
110.759 60.0266 117.019 203 219 255
94.4602 129.212 109.247 255 190 136
116.05 82.6468 112.054 255 240 227
93.3979 173.501 110.881 255 251 255
149.684 96.4287 111.847 255 254 251
148.711 134.779 112.17 211 224 255
111.907 150.92 107.092 255 248 240
111.306 42.9438 113.894 211 224 255
117.152 118.522 112.732 227 233 255
114.598 113.546 111.23 208 222 255
39.5089 29.418 112.458 191 211 255
79.0477 60.3752 108.524 217 227 255
90.3356 92.9094 110.974 199 216 255
114.431 137.682 109.811 230 235 255
66.654 108.214 111.635 204 219 255
101.707 102.957 113.721 226 233 255
93.3992 173.54 110.88 194 213 255
167.976 126.199 106.304 234 237 255
146.347 96.3968 112.915 195 213 255
92.8446 78.098 110.144 221 229 255
102.227 121.886 111.504 255 179 115
71.1772 82.7253 113.911 201 218 255
66.542 76.0535 120.217 255 247 238
158.734 101.392 120.789 255 250 243
55.1303 76.8405 106.23 212 224 255
110.338 112.568 111.718 249 245 255
92.8574 175.907 111.11 255 227 205
110.815 118.581 108.224 255 236 220
58.6018 94.5403 116.211 183 206 255
89.0388 37.1378 110.946 197 215 255
135.925 55.2618 115.712 196 214 255
145.991 120.43 114.466 221 230 255
152.605 199.682 115.226 184 207 255
98.9283 18.3153 116.157 192 212 255
195.491 42.6405 111.516 187 209 255
106.15 111.066 114.878 255 0 0
131.86 72.4991 107.683 204 219 255
93.0178 165.957 117.171 190 211 255
111.241 79.4395 115.843 190 210 255
107.306 94.1908 114.611 236 238 255
108.945 115.778 120.895 255 240 226
61.8676 115.86 120.445 248 245 255
200.062 131.12 113.464 188 209 255
132.895 76.7599 94.3068 231 236 255
135.244 176.635 130.599 202 218 255
151.455 8.12697 112.866 182 206 255
121.689 104.913 109.978 241 241 255
61.7294 117.199 114.872 201 217 255
107.855 124.35 108.437 214 226 255
151.989 111.7 112.725 255 175 106
117.754 110.375 107.206 255 236 220
164.237 78.6584 111.128 200 217 255
142.851 151.017 111.432 247 244 255
201.594 173.041 113.322 194 213 255
56.9339 135.595 118.464 193 213 255
103.03 134.21 107.064 222 230 255
88.0772 66.7556 109.023 246 244 255
178.451 72.8929 116.145 188 209 255
112.537 116.301 115.768 216 226 255
186.652 76.8693 114.217 196 214 255
141.606 154.971 112.287 255 253 248
53.8462 111.905 104.151 210 223 255
115.752 115.987 118.81 255 198 152
41.3142 98.6862 112.603 195 214 255
118.852 82.3185 113.077 255 244 233
130.494 119.938 111.226 255 228 207
93.3983 173.517 110.897 198 216 255
105.984 91.8129 112.383 255 248 241
23.9267 51.9099 118.665 195 214 255
109.574 116.06 115.364 255 243 232
204.574 155.45 116.367 187 209 255
121.888 139.084 116.319 209 222 255
105.544 113.265 110.748 255 221 195
156.949 38.7495 115.974 213 225 255
101.89 79.0643 113.212 226 232 255
113.932 117.026 107.006 209 222 255
133.527 138.588 112.176 255 217 187
218.143 130.241 114.204 185 207 255
64.1094 136.921 116.476 193 212 255
94.1376 175.062 111.608 235 238 255
109.319 114.666 116.375 191 211 255
118.856 141.08 111.834 242 242 255
115.446 137.395 110.145 249 245 255
103.297 172.097 119.576 209 222 255
54.4754 85.9419 126.191 242 241 255
108.725 151.96 101.687 255 238 224
92.734 158.26 108.02 205 220 255
138.023 113.953 111.669 216 227 255
110.77 112.486 115.243 255 221 193
102.512 112.46 108.219 215 226 255
75.4116 139.431 110.349 209 222 255
134.184 183.244 112.402 193 213 255
113.378 82.3326 111.585 208 221 255
158.328 136.044 112.34 199 216 255
152.374 88.5423 106.002 191 211 255
93.4396 173.429 110.79 255 246 237
87.3227 98.3302 111.928 205 220 255
93.3703 173.55 110.865 195 214 255
201.194 169.849 117.298 179 204 255
124.15 130.678 111.983 212 224 255
166.49 159.05 107.116 203 219 255
59.952 152.883 112.103 212 224 255
163.144 95.7461 115.099 255 252 247
93.2916 174.147 111.037 207 221 255
105.02 174.935 110.877 183 206 255
93.4002 173.529 110.891 255 239 225
93.3437 173.608 110.759 255 253 248
93.4072 173.981 111.074 197 215 255
126.623 42.3804 114.497 211 223 255
126.126 73.7297 119.492 199 216 255
114.528 149.4 116.396 196 214 255
48.9165 89.8605 120.677 205 220 255
138.441 144.341 112.114 243 242 255
136.968 82.0982 124.135 213 224 255
157.282 135.681 115.138 208 221 255
134.766 116.441 109.881 255 241 229
118.025 179.045 112.982 179 204 255
152.036 87.3183 112.032 217 227 255
176.823 80.0153 111.286 204 219 255
153.867 100.053 110.86 252 247 255
164.495 130.164 159.188 255 221 193
42.4909 135.716 114.521 204 219 255
59.267 185.243 113.201 226 232 255
105.421 118.852 108.881 255 113 0
68.1492 122.997 111.732 255 254 251
151.754 145.185 118.734 193 212 255
107.232 108.947 117.004 255 238 224
125.657 89.3686 114.218 213 225 255
106.551 96.0971 115.922 255 255 251
170.973 146.267 115.678 231 235 255
60.8042 119.539 111.803 192 212 255
93.3012 173.274 110.849 202 218 255
156.214 188.201 113.496 188 209 255
63.1642 123.221 112.72 255 252 246
19.7334 80.276 111.7 190 211 255
132.377 78.5319 122.341 241 241 255
19.3683 140.256 112.053 194 213 255
159.544 100.647 108.51 211 224 255
125.651 32.1058 110.6 198 215 255
185.908 147.854 114.986 204 219 255
105.217 143.415 111.665 255 229 207
110.342 117.062 115.714 212 224 255
84.9868 88.7223 115.129 252 247 255
140.832 182.848 121.309 185 208 255
97.7921 37.7379 110.935 203 219 255
88.7168 154.353 119.263 190 211 255
123.932 161.427 111.837 200 217 255
86.3208 92.8801 115.056 255 224 199
130.484 103.05 109.619 188 209 255
71.7581 168.047 114.485 215 226 255
114.388 118.584 101.271 255 235 218
136.556 157.29 109.021 196 214 255
158.451 93.7945 115.767 223 231 255
93.5183 173.339 110.548 255 250 243
193.342 167.896 117.092 204 219 255
172.108 109.725 117.689 216 226 255
53.8697 105.699 105.861 197 215 255
106.351 148.225 106.714 255 197 150
88.4286 101.7 111.753 239 240 255
87.0109 98.9927 114.102 187 209 255
125.508 75.0883 113.286 255 198 151
90.5397 87.5931 112.783 255 249 255
178.626 112.068 91.402 216 226 255
139.784 165.977 115.325 189 210 255
65.0892 142.048 109.731 197 215 255
152.716 191.661 113.323 183 206 255
92.601 76.8517 114.253 239 240 255
135.289 119.551 111.804 255 206 167
161.52 11.267 111.877 192 212 255
39.6976 118.904 119.867 196 215 255
64.6564 221.494 103.724 185 208 255
183.532 32.5868 111.777 182 206 255
144.324 162.605 113.75 202 218 255
114.658 68.0322 112.312 217 227 255
97.0506 23.7269 106.98 243 242 255
68.1216 71.9991 114.202 229 234 255
41.199 151.744 111.267 218 228 255
76.8828 133.499 110.905 227 233 255
164.183 140.316 112.368 196 214 255
210.362 163.136 108.237 192 212 255
53.0165 69.1855 115.727 201 217 255
152.411 88.9033 109.704 255 250 243
206.543 46.9288 115.223 185 208 255
76.7049 18.7075 125.143 201 218 255
98.0966 84.0884 112.641 237 239 255
133.642 73.8559 105.582 194 213 255
93.3966 173.486 110.879 213 225 255
83.2532 141.068 105.731 191 211 255
97.3022 127.007 115.643 255 245 236
107.025 102.96 112.947 255 224 200
135.934 125.02 112.428 255 220 193
207.766 148.547 116.873 184 207 255
188.828 41.5206 114.724 187 208 255
90.7939 62.7765 109.842 195 213 255
120.971 92.0074 114.818 255 216 186
124.785 108.652 109.841 255 232 213
129.976 94.5891 110.418 255 214 182
65.1271 17.8331 125.078 193 213 255
78.519 123.283 108.494 213 225 255
155.481 90.8441 106.102 214 225 255
108.005 110.015 112.392 255 219 191
112.562 114.675 119.731 205 220 255
156.468 164.635 112.04 204 219 255
90.0386 112.915 111.977 226 232 255
99.7087 97.1655 112.138 224 231 255
128.368 85.9478 114.354 255 249 241
149.985 52.717 112.58 196 214 255
107.079 88.5121 111.936 255 203 161
63.1085 132.201 115.102 221 229 255
51.041 165.253 110.928 202 218 255
118.99 74.1573 116.47 202 218 255
175.12 116.61 112.449 234 237 255
74.1115 79.9706 110.658 205 220 255
58.6213 115.021 111.461 217 227 255
63.2685 132.054 121.6 204 219 255
198.404 117.335 115.614 193 213 255
121.03 189.855 121.333 182 205 255
175.088 23.4332 111.864 190 211 255
130.487 156.166 109.652 255 249 255
175.422 47.4865 115.628 195 214 255
83.6131 141.022 111.665 255 250 244
117.316 118.222 112.122 223 231 255
86.8098 69.7382 109.772 255 249 242
78.5065 26.2233 102.77 219 228 255
143.143 27.3488 111.099 255 206 166
48.2799 133.981 111.436 187 209 255
66.0521 78.5669 113.693 192 212 255
117.695 89.6102 112.273 255 251 244
124.165 184.712 108.654 215 226 255
164.62 14.6488 114.321 190 211 255
81.3206 220.836 113.477 192 212 255
174.501 126.951 99.291 196 214 255
55.2416 109.13 121.879 207 221 255
100.621 38.8236 109.727 232 236 255
93.3789 173.583 110.882 192 212 255
131.495 95.1622 108.358 255 237 221
39.1511 161.689 92.9877 217 227 255
118.956 14.2911 113.704 202 218 255
120.162 133.815 109.384 255 245 236
170.069 161.526 142.674 195 214 255
152.021 100.441 110.766 205 220 255
146.876 18.9296 113.511 189 210 255
165.486 109.778 119.181 220 229 255
89.8254 149.551 110.295 255 209 172
91.8195 106.058 114.436 255 216 185
119.092 139.56 107.425 206 221 255
35.5829 94.3237 110.829 192 212 255
107.57 109.71 110.432 216 227 255
84.3433 32.5666 109.728 191 211 255
111.166 123.61 109.62 243 242 255
185.147 77.3354 111.264 200 217 255
191.297 26.0023 111.984 191 211 255
101.032 121.416 111.78 255 194 144
93.4013 173.512 110.882 188 209 255
115.578 126.273 109.864 255 192 141
118.453 76.6426 112.898 253 248 255
93.39 173.278 110.791 214 225 255
217.161 122.783 108.849 187 209 255
69.5127 90.5115 111.001 215 226 255
93.3892 173.372 110.863 195 214 255
108.036 110.72 112.749 227 233 255
83.2635 25.3254 115.113 186 208 255
117.539 120.195 110.205 255 223 198
201.071 144.891 118.359 192 212 255
105.87 154.555 106.311 255 250 255
188.564 56.6777 107.189 188 210 255
173.449 134.785 120.621 205 220 255
116.163 88.308 111.774 255 225 202
179.118 74.388 115.702 196 214 255
98.9058 57.8256 116.293 204 219 255
112.411 94.8649 112.224 255 238 223
127.421 104.723 115.085 255 216 185
49.8243 88.8271 117.572 230 234 255
139.812 57.6152 116.963 255 253 248
112.481 69.5748 115.193 192 212 255
64.4656 40.8323 117.976 205 220 255
115.674 110.836 113.101 255 239 224
144.103 10.0173 110.173 183 206 255
163.403 92.4373 110.863 186 208 255
116.765 48.4471 115.752 185 207 255
112.46 121.404 107.858 255 238 223
46.6954 111.905 114.437 223 230 255
72.4347 163.152 112.872 208 222 255
113.485 127.472 110.801 255 231 211
55.5188 29.1199 112.023 179 204 255
143.59 100.009 116.058 191 211 255
168.187 109.151 114.19 195 214 255
154.775 18.4213 112.923 186 208 255
108.879 17.1859 108.735 195 214 255
27.9477 140.602 110.653 193 213 255
145.054 123.872 108.597 225 232 255
56.3047 135.178 109.634 187 209 255
105.345 157.543 103.931 208 222 255
150.393 161.787 117.27 207 221 255
100.405 101.789 110.815 229 234 255
107.025 157.634 103.775 255 219 190
104.823 112.843 117.313 203 218 255
128.811 81.5293 113.989 241 241 255
92.7343 172.354 110.068 218 228 255
104.236 165.957 118.21 255 250 244
130.769 128.094 110.943 203 219 255
93.3095 173.376 110.747 255 252 248
144.528 175.699 110.291 181 205 255
110.91 195.56 112.202 193 213 255
63.5047 91.5576 116.667 215 226 255
169.764 146.241 120.839 194 213 255
44.7125 135.052 111.571 200 217 255
95.6321 110.096 108.452 255 185 126
198.949 67.9067 113.163 197 215 255
86.7767 102.78 117.321 208 222 255
110.734 113.935 111.739 203 219 255
148.738 88.3206 89.6595 255 243 231
72.8835 139.321 113.641 212 224 255
116.013 114.552 107.828 255 254 250
93.3982 173.505 110.881 204 220 255
111.701 114.733 110.535 255 171 97
94.9816 101.365 110.583 199 216 255
93.4006 173.587 110.874 209 223 255
129.918 98.1809 117.076 200 217 255
103.218 80.8671 113.227 255 249 255
48.0982 106.698 132.175 255 238 224
93.5697 173.231 110.938 216 226 255
165.03 123.992 113.269 188 209 255
168.101 114.659 103.664 231 235 255
55.2127 144.596 114.817 198 215 255
115.007 116.389 112.618 255 173 101
93.3833 173.406 110.853 202 218 255
106.122 123.715 105.615 255 237 222
124.053 66.2756 118.083 198 216 255
115.8 122.004 109.184 194 213 255
97.0703 93.749 108.634 255 252 247
140.406 97.2695 114.343 251 246 255
75.8878 209.108 114.386 255 216 185
107.156 170.057 111.112 202 218 255
60.5757 66.919 116.358 204 219 255
94.2702 173.822 109.73 190 210 255
117.904 62.8041 112.841 200 217 255
113.308 146.421 121.962 223 231 255
100.113 143.695 112.955 255 230 210
55.1051 83.1237 126.384 199 216 255
93.398 173.502 110.881 202 218 255
108.131 59.4364 111.911 190 211 255
59.0712 98.8105 111.452 207 221 255
102.056 72.6962 113.817 191 212 255
165.232 103.053 114.626 219 229 255
104.83 109.777 116.794 206 221 255
30.228 91.0179 109.011 193 212 255
96.5747 162.254 110.384 255 212 178
147.601 41.8413 112.827 210 223 255
182.314 173.68 116.713 185 207 255
158.737 96.5332 119.854 247 244 255
105.308 120.807 112.684 255 231 212
159.555 135.129 111.312 213 225 255
198.604 61.0188 116.635 191 211 255
93.332 173.815 110.932 210 223 255
91.6517 172.289 113.253 255 235 219
99.3908 84.5211 112.49 221 230 255
128.874 72.8868 109.247 198 216 255
89.9727 120.513 117.666 247 244 255
114.34 108.684 111.257 205 220 255
122.919 128.973 110.445 255 249 255
76.1398 126.726 111.227 215 226 255
80.5619 44.5126 93.5546 208 222 255
81.3267 143.261 109.49 201 217 255
136.981 76.2841 123.376 251 247 255
129.573 77.0895 115.646 235 237 255
197.066 177.619 114.965 219 228 255
110.819 130.316 111.352 255 250 244
76.3783 128.687 109.757 255 237 223
135.991 97.2098 109.265 222 230 255
93.3981 173.505 110.881 197 215 255
110.032 51.8802 112.368 180 204 255
93.3534 173 110.786 192 212 255
65.7286 176.663 114.955 193 212 255
102.052 118.869 116.394 234 237 255
93.4163 173.628 110.951 188 210 255
117.651 75.6786 118.408 255 251 245
93.3962 173.517 110.883 214 225 255
136.031 10.7548 107.721 194 213 255
63.6743 134.61 108.344 229 234 255
74.96 187.269 114.414 219 228 255
93.3965 173.525 110.863 211 224 255
135.166 47.6292 113.17 204 219 255
173.394 108.814 112.991 207 221 255
115.428 116.71 108.43 255 239 225
207.633 116.841 109.33 211 223 255
97.4401 175.543 107.659 199 216 255
87.3882 159.323 112.338 201 218 255
109.78 115.369 107.217 224 231 255
103.497 165.576 107.96 255 252 247
65.9886 68.0856 112.663 193 212 255
101.11 156.461 113.696 214 225 255
107.237 87.3629 114.003 255 218 188
128.784 142.161 113.916 211 224 255
124.756 76.6699 110.791 255 186 128
172.009 28.9935 113.135 207 221 255
93.5698 26.3073 111.06 196 214 255
158.229 68.9572 114.158 189 210 255
139.122 77.9305 113.258 216 226 255
77.4839 166.109 113.404 194 213 255
83.3376 71.8122 109.279 215 226 255
72.9763 99.9221 108.909 204 219 255
68.837 83.6649 115.989 235 238 255
92.8739 59.5371 112.292 255 247 238
194.673 174.962 113.76 185 207 255
93.3981 173.506 110.881 207 221 255
37.1598 59.1248 112.984 189 210 255
46.8806 107.13 112.047 186 208 255
161.73 99.4551 111.545 209 222 255
140.066 112.454 108.587 255 202 159
136.84 186.414 100.132 191 211 255
69.1635 44.4932 116.799 213 224 255
93.3978 173.5 110.881 195 214 255
168.181 130.212 112.205 233 237 255
91.6082 64.9471 114.95 255 232 213
174.702 137.971 115.807 197 215 255
132.434 13.2765 112.287 191 211 255
162.017 154.104 109.03 255 205 165
199.451 172.323 111.378 186 208 255
133.913 77.901 117.777 255 236 220
60.5014 173.762 114.762 212 224 255
41.7586 108.172 110.654 219 228 255
143.062 81.7825 112.791 219 228 255
95.3277 87.4633 110.837 194 213 255
109.632 110.194 108.277 209 223 255
140.548 125.663 111.488 255 249 255
149.525 88.3794 112.761 228 234 255
69.6608 156.952 115.362 193 213 255
39.7897 98.7782 112.735 203 219 255
80.1393 90.5583 111.177 219 228 255
166.787 119.958 103.939 200 217 255
114.841 184.481 109.01 195 214 255
73.4212 194.802 103.256 184 207 255
69.7965 62.634 112.013 200 217 255
169.457 113.748 112.539 255 251 255
125.854 132.286 111.628 204 219 255
93.3981 173.506 110.881 193 212 255
73.7335 43.8389 112.12 184 207 255
133.637 70.963 122.274 192 212 255
93.3942 173.468 110.875 193 213 255
150.783 52.3151 114.572 193 212 255
93.3976 173.499 110.881 206 221 255
215.523 90.0069 115.004 185 208 255
61.3288 126.223 106.903 255 246 238
176.238 89.2873 115.651 201 218 255
208.13 141.005 115.559 191 211 255
166.057 5.93089 106.855 197 215 255
118.234 69.6133 115.152 209 222 255
63.7352 20.8799 100.295 196 215 255
99.632 37.364 112.795 212 224 255
47.7821 68.8827 112.898 185 207 255
93.3581 24.3042 106.71 186 208 255
117.515 115.109 106.014 243 242 255
85.666 204.514 116.257 188 210 255
116.749 79.9114 113.535 226 232 255
133.731 70.9587 120.029 216 226 255
87.906 125.391 108.993 210 223 255
91.6419 166.983 114.411 214 225 255
163.427 170.782 113.308 198 216 255
100.429 146.621 113.179 207 221 255
107.052 131.113 113.415 255 195 145
67.9484 133.758 119.671 201 218 255
112.079 106.245 111.109 255 229 208
56.8543 113.349 116.412 200 217 255
212.475 107.146 113.582 187 209 255
169.855 108.96 114.296 191 211 255
21.4881 63.4201 112.727 198 216 255
121.982 198.547 113.53 208 222 255
75.3997 96.4144 110.899 255 218 188
186.081 65.9094 111.248 181 205 255
4.05676 122.021 112.079 187 208 255
44.3282 28.6887 114.808 198 216 255
77.3394 144.953 109.238 201 218 255
157.544 33.0063 113.309 196 214 255
113.797 121.96 102.926 255 233 216
52.7467 203.064 110.955 186 208 255
78.4669 143.29 119.799 197 215 255
124.222 97.4798 104.366 255 249 255
175.422 24.3581 110.95 188 209 255
48.7909 40.4546 109.422 182 206 255
68.8749 152.178 111.651 201 218 255
51.3398 121.2 106.325 191 212 255
99.7643 164.542 121.947 194 213 255
108.202 122.113 108.782 238 239 255
125.959 93.0199 111.362 208 222 255
106.783 174.783 107.826 209 222 255
93.3751 173.404 110.858 220 229 255
90.7968 88.5367 112.417 236 238 255
174.056 65.5389 116.632 189 210 255
93.4077 173.577 110.861 198 216 255
97.3447 37.0425 113.113 213 225 255
170.245 130.999 121.244 206 220 255
63.3632 123.026 112.097 199 216 255
113.918 146.818 108.904 255 247 239
147.668 117.113 109.158 202 218 255
117.755 116.644 105.886 255 201 157
96.0019 7.23779 108.083 181 205 255
120.454 91.1082 115.342 218 228 255
14.7218 60.7773 110.786 180 204 255
89.4003 160.752 106.41 255 251 255
80.3622 198.85 113.879 249 246 255
120.853 169.454 112.419 200 217 255
169.223 138.482 106.546 189 210 255
74.199 122.388 111.302 249 245 255
125.566 76.8133 98.2911 215 226 255
109.521 104.292 112.633 240 240 255
110.304 166.757 111.894 217 227 255
93.506 173.515 110.986 204 219 255
39.2408 117.875 115.366 206 220 255
107.59 102.903 113.97 237 239 255
90.0179 171.388 117.276 212 224 255
145.746 99.6975 117.361 203 219 255
114.198 148.081 112.473 255 186 128
146.129 162.874 113.123 255 231 211
111.602 116.301 107.368 199 216 255
139.911 64.151 62.2031 186 208 255
106.125 6.73839 113.566 207 221 255
93.3983 173.51 110.882 239 240 255
136.414 101.864 117.049 229 234 255
84.2366 53.6427 110.172 216 226 255
110.623 112.276 111.039 255 234 217
18.8777 92.2962 109.793 189 210 255
73.4335 96.0038 113.882 253 248 255
120.088 68.4209 114.239 211 223 255
48.8246 219.606 109.354 177 202 255
145.735 104.831 117.475 246 244 255
133.205 169.341 115.349 202 218 255
93.8824 173.495 110.552 196 215 255
161.387 51.311 109.412 194 213 255
149.362 56.5425 112.971 190 211 255
18.2326 114.577 118.685 217 227 255
90.5272 154.235 113.731 255 236 221
110.199 111.055 114.651 241 241 255
102.223 102.715 113.082 226 232 255
33.1511 81.6196 112.729 201 217 255
204.877 150.592 117.379 189 210 255
93.3985 173.511 110.882 213 225 255
134.609 61.8652 115.047 199 216 255
105.786 106.149 112.378 222 230 255
32.914 37.8353 107.41 183 206 255
109.714 113.029 117.161 255 241 228
103.503 152.42 111.77 255 249 242
92.3699 173.767 111.425 202 218 255
119.276 92.632 118.409 211 224 255
93.3974 173.498 110.881 255 223 198
114.354 110.178 106.949 216 226 255
168.823 66.6771 114.121 202 218 255
75.1188 136.604 106.074 202 218 255
199.198 24.6651 111.566 210 223 255
112.814 117.342 110.554 255 227 204
94.8079 72.8796 116.136 201 217 255
97.2889 142.313 115.254 194 213 255
139.338 150.865 114.5 213 225 255
76.8203 129.871 107.844 240 241 255
175.788 118.37 119.808 194 213 255
129.168 124.87 111.428 249 246 255
100.806 30.6945 103.492 187 209 255
154.767 154.19 112.589 230 235 255
93.3981 173.505 110.881 218 228 255
127.621 171.652 112.2 215 226 255
147.028 85.9857 113.862 207 221 255
136.577 79.2888 111.519 233 236 255
110.445 113.916 115.305 227 233 255
106.622 107.84 114.882 244 243 255
207.606 160.378 110.305 188 209 255
124.672 11.322 109.348 178 203 255
166.507 103.749 111.879 192 212 255
101.981 146.489 112.162 255 187 131
84.5175 63.9754 111.275 216 227 255
93.4565 173.524 110.978 197 215 255
147.894 164.943 127.703 191 211 255
94.3469 26.3222 102.659 204 219 255
106.598 111.209 117.673 255 253 249
95.7882 181.797 111.307 221 229 255
107.053 109.817 117.755 214 225 255
75.8187 163.908 114.821 204 219 255
26.4466 115.395 114.828 209 222 255
190.759 54.8586 113.282 204 219 255
197.708 178.451 115.24 196 214 255
93.3979 173.502 110.881 235 238 255
81.4174 167.343 115.181 225 232 255
129.781 87.1431 116.976 255 229 209
93.7225 173.639 110.837 206 221 255
98.7127 160.175 128.309 204 219 255
178.761 142.41 110.482 218 227 255
138.467 65.2596 114.51 216 226 255
82.2841 153.208 107.928 201 217 255
113.376 115.477 118.671 224 231 255
106.801 128.315 113.858 208 222 255
180.523 50.6935 112.773 219 228 255
93.4052 173.535 110.887 255 253 248
106.215 83.4669 110.042 235 238 255
94.9768 153.484 117.237 203 218 255
106.497 119.099 115.432 212 224 255
112.69 114.446 114.487 255 191 138
106.482 82.0663 111.576 187 208 255
123.028 171.033 111.88 215 226 255
112.383 120.4 109.815 242 242 255
64.2965 21.7297 111.04 192 212 255
101.48 93.6154 111.81 255 245 235
89.6488 79.8028 110.695 188 209 255
132.641 71.0824 114.278 255 249 255
204.989 173.206 117.194 191 211 255
104.915 217.06 116.687 190 210 255
95.1077 102.578 117.757 204 219 255
122.074 108.389 112.178 255 198 152
95.6379 106.452 115.148 255 230 210
124.746 143.318 111.423 235 238 255
112.488 82.4691 112.18 255 244 234
68.6896 73.5695 113.776 197 215 255
121.35 140.47 115.565 201 217 255
104.898 168.938 108.698 242 242 255
110.131 112.649 112.395 255 215 183
104.518 105.749 112.544 255 240 227
105.201 110.153 116.818 255 185 126
84.4998 44.7558 111.671 189 210 255
118.974 61.3308 113.2 229 234 255
109.745 152.106 115.215 230 235 255
106.66 110.22 117.855 216 227 255
93.4233 173.594 110.869 255 249 241
181.545 143.19 114.837 197 215 255
51.4385 80.769 119.677 213 225 255
127.732 156.418 111.052 226 232 255
114.161 114.207 110.794 195 213 255
210.151 43.8971 114.949 182 206 255
98.5224 119.309 112.078 255 248 241
94.9154 32.5437 111.788 195 214 255
117.375 89.9661 113.594 255 234 217
47.6327 79.6619 116.064 204 219 255
93.288 173.432 110.834 189 210 255
127.733 70.1462 120.502 221 230 255
93.398 173.533 110.878 199 216 255
158.544 35.0779 108.648 194 213 255
117.958 184.242 112.378 185 207 255
77.3463 46.0128 111.682 196 215 255
62.6162 34.0267 102.316 205 220 255
93.3982 173.506 110.881 198 216 255
70.6293 131.411 110.757 235 238 255
103.533 51.2318 115.486 206 220 255
40.3346 132.219 110.652 187 209 255
168.242 117.016 109.022 250 246 255
93.7598 173.215 111.197 202 218 255
62.8245 103.218 111.241 209 222 255
167.792 152.175 110.793 180 205 255
122.129 55.1831 117.035 204 219 255
93.3786 173.369 110.84 191 211 255
150.054 96.4695 113.378 203 218 255
82.1312 162.153 111.383 189 210 255
107.78 118.675 113.362 255 126 0
98.0912 115.122 109.573 255 250 244
30.3617 62.6925 114.478 189 210 255
65.1919 56.516 112.061 209 222 255
114.529 108.797 103.291 255 249 255
113.072 84.9514 111.689 204 219 255
16.9972 154.016 113.267 203 219 255
147.64 36.1682 107.155 185 208 255
88.0987 155.635 122.023 235 237 255
132.505 148.055 109.644 255 245 234
93.0323 173.135 110.668 205 220 255
206.849 124.588 118.533 189 210 255
86.9783 68.0949 117.119 197 215 255
57.099 64.1881 108.41 231 235 255
96.711 160.524 123.764 228 233 255
105.258 150.25 109.443 227 233 255
136.46 174.237 117.486 212 224 255
142.432 155.375 116.439 239 240 255
109.549 90.1155 112.994 255 255 251
77.9805 42.1807 111.772 185 207 255
13.8374 143.24 110.44 188 210 255
67.7813 56.0447 113.857 255 241 229
107.16 159.064 116.245 255 242 230
135.107 99.6067 116.437 208 222 255
224.817 137.505 118.371 195 214 255
102.482 210.328 113.253 197 215 255
28.006 131.686 111.128 211 224 255
24.9698 93.5995 109.977 189 210 255
66.5087 215.214 113.435 185 208 255
93.3616 173.593 110.886 195 214 255
81.5553 181.592 111.656 221 229 255
16.3327 124.196 114.195 188 210 255
88.5925 32.1621 104.844 182 205 255
86.081 76.7235 114.252 205 220 255
113.236 105.377 109.788 249 245 255
93.3931 173.464 110.875 192 212 255
111.966 109.464 111.686 244 243 255
175.707 167.994 111.129 181 205 255
35.3668 115.268 113.504 208 222 255
71.7074 73.1052 113.547 199 216 255
113.076 105.403 110.531 204 219 255
115.991 116.005 110.03 255 231 211
108.807 14.4113 111.701 228 234 255
116.906 133.808 115.668 255 254 251
59.0243 106.086 112.237 208 222 255
122.306 189.944 112.625 203 219 255
111.091 115.762 109.439 218 228 255
112.172 112.707 109.355 227 233 255
111.386 47.9282 113.712 187 208 255
170.197 74.4874 112.123 192 212 255
109.614 122.397 113.568 213 224 255
140.944 136.624 115.74 207 221 255
172.017 57.2055 109.032 244 243 255
56.4187 58.9694 117.978 189 210 255
16.1515 194.288 111.375 187 209 255
47.8277 26.2638 110.486 180 204 255
77.4144 144.749 107.38 255 249 241
93.3935 173.467 110.876 199 216 255
97.3857 66.9665 111.664 208 222 255
137.037 101.621 113.807 237 239 255
116.761 126.882 109.355 255 253 249
93.3985 173.514 110.882 219 228 255
105.521 173.359 111.107 207 221 255
85.2355 101.47 113.125 255 249 242
103.72 90.3665 111.246 216 226 255
55.9552 104.652 110.614 212 224 255
64.325 73.4812 115.094 206 220 255
73.1107 134.678 117.45 238 239 255
204.31 74.9853 111.908 193 212 255
128.622 84.7162 115.826 246 244 255
121.849 99.3086 113.38 255 218 189
109.301 17.5713 95.4464 196 214 255
105.995 132.358 111.314 252 247 255
107.772 97.0007 99.6629 225 232 255
172.985 23.3464 112.412 202 218 255
20.0363 81.9306 111.833 183 206 255
193.223 145.296 116.129 201 217 255
89.673 87.2475 113.507 255 254 250
165.976 171.905 112.979 203 218 255
105.44 24.2527 107.56 184 207 255
93.4495 172.99 110.545 203 218 255
95.8736 82.2374 112.691 255 251 246
63.9014 122.882 113.431 207 221 255
110.651 111.81 114.066 249 246 255
163.567 101.984 121.824 202 218 255
195.03 29.7316 112.173 184 207 255
164.757 118.208 104.628 181 205 255
114.219 144.592 114.535 207 221 255
199.286 75.7634 108.517 186 208 255
132.394 91.0753 114.699 225 232 255
89.6867 100.808 110.872 206 220 255
218.131 55.4225 111.726 184 207 255
93.3965 173.487 110.88 191 211 255
151.617 108.372 110.303 231 235 255
99.6376 92.9739 109.545 254 248 255
63.153 156.023 111.002 206 220 255
94.4655 175.269 110.608 204 219 255
161.705 145.759 108.977 255 237 222
62.8421 129.81 109.207 255 253 249
75.4872 134.702 108.622 255 225 200
98.6091 90.8562 111.2 218 227 255
95.0296 125.783 107.352 218 228 255
164.384 82.4727 89.0211 206 220 255
47.8906 116.423 111.074 197 215 255
120.521 137.668 110.783 255 247 238
30.455 79.7743 111.473 202 218 255
131.817 53.0461 119.177 199 216 255
115.837 25.1786 112.316 191 211 255
106.025 69.0021 113.43 255 239 226
133.223 102.374 110.576 255 248 241
175.559 187.285 110.432 190 211 255
115.565 128.32 108.852 233 237 255
106.111 106.868 114.478 217 227 255
109.132 123.989 106.544 249 246 255
149.917 105.324 110.198 255 223 198
93.3896 173.495 110.917 231 235 255
128.852 98.3609 112.568 255 244 234
181.918 101.57 111.205 218 227 255
144.606 129.009 110.19 208 221 255
115.649 124.872 114.625 255 242 229
121.545 28.0288 113.662 195 214 255
47.6405 68.6414 123.568 204 219 255
142.1 97.4669 112.893 215 226 255
111.089 116.298 121.631 218 228 255
95.3079 99.6194 108.769 217 227 255
72.6568 92.4037 112.338 196 214 255
153.107 116.273 109.037 255 253 248
93.358 173.458 110.855 206 220 255
113.386 117.782 109.754 255 216 185
143.312 61.5142 116.046 194 213 255
106.208 125.742 112.836 226 232 255
196.302 168.803 113.951 198 216 255
109.17 108.349 111.782 255 251 246
93.3964 173.558 110.873 207 221 255
35.1736 121.473 109.771 196 214 255
136.512 170.462 103.142 182 205 255
94.6218 51.7635 112.261 201 218 255
91.3857 149.153 113.496 255 236 220
92.389 18.4917 107.3 185 207 255
163.777 125.533 116.84 195 214 255
111.73 136.867 112.152 255 196 149
106.157 98.8505 116.481 202 218 255
209.303 157.634 115.504 184 207 255
79.3213 146.774 106.309 210 223 255
110.302 175.211 112.74 192 212 255
149.711 127.461 114.251 255 224 200
177.537 78.9183 113.935 236 238 255
95.6544 104.273 106.625 255 245 235
117.921 88.8897 115.838 245 243 255
66.5459 75.2414 114.419 198 215 255
39.1217 97.6212 122.568 236 238 255
119.956 134.692 111.29 195 213 255
168.134 92.8891 130.578 255 252 247
120.589 118.936 107.552 255 226 203
103.74 119.014 110.851 255 236 221
165.083 126.57 112.962 184 207 255
168.697 66.5869 110.367 194 213 255
64.5472 18.4034 110.614 189 210 255
110.024 117.133 116.234 255 217 187
123.696 31.6215 112.79 197 215 255
21.9564 125.942 115.357 197 215 255
155.702 92.8523 116.531 209 222 255
55.65 100.166 111.989 238 239 255
107.74 114.083 120.339 232 236 255
60.054 160.661 112.908 196 214 255
110.025 111.602 108.419 255 250 244
95.762 105.205 107.038 197 215 255
93.3824 173.549 110.871 223 231 255
141.996 124.72 115.303 255 250 255
127.402 147.337 111.923 255 238 223
115.024 114.199 110.64 255 232 214
119.158 116.715 104.295 248 245 255
116.674 131.033 109.217 216 226 255
93.4018 173.534 110.882 201 217 255
109.856 106.548 106.238 255 251 245
155.209 48.8561 114.927 187 209 255
69.4289 115.802 110.443 218 228 255
80.8405 60.6899 117.679 204 219 255
93.4516 173.322 110.858 192 212 255
140.075 53.931 117.091 213 225 255
198.237 79.0982 108.906 195 214 255
115.181 116.788 113.815 255 246 236
93.3975 173.497 110.881 255 245 235
57.9751 98.3195 114.924 205 220 255
84.3993 148.493 121.82 206 221 255
60.058 104.564 114.271 197 215 255
32.1738 42.1343 111.558 214 225 255
1.69353 144.9 110.86 182 205 255
93.5533 174.506 110.821 193 212 255
212.069 54.9555 111.736 189 210 255
103.655 138.006 109.789 255 229 208
129.69 120.752 114.443 255 252 246
59.4486 30.4849 108.778 191 211 255
81.2643 222.114 108.891 204 219 255
52.8791 68.6171 114.495 195 214 255
121.353 75.9363 110.874 255 251 245
150.787 121.625 112.224 224 231 255
83.526 86.4469 116.616 218 228 255
93.3981 173.544 110.88 204 219 255
131.024 100.646 114.52 212 224 255
117.183 115.541 107.095 255 69 0
82.5463 160.676 108.15 200 217 255
114.353 109.856 118.885 208 221 255
114.487 75.744 113.095 242 241 255
109.266 110.933 112.795 255 250 255
141.577 87.5021 112.519 234 237 255
62.0908 48.3037 107.363 223 231 255
108.503 117.183 113.482 255 210 174
154.559 96.1309 111.898 255 184 125
124.847 138.096 142.098 210 223 255
108.184 123.835 110.606 255 237 221
127.407 119.491 109.89 255 250 244
111.449 109.483 120.189 223 231 255
95.1734 98.0863 108.172 255 253 249
200.065 143.195 114.166 188 210 255
90.962 51.1609 113.054 194 213 255
154.141 121.346 110.796 209 223 255
156.425 122.344 116.574 255 255 251
116.244 115.323 116.612 213 224 255
93.2345 172.782 110.742 183 206 255
103.629 126.203 111.135 215 226 255
4.58504 130.962 108.142 185 208 255
20.5728 190.953 110.979 186 208 255
166.269 101.207 103.478 255 253 249
147.176 171.101 111.77 202 218 255
8.80147 81.9559 110.336 185 207 255
139.159 77.911 113.108 255 245 236
109.653 112.779 108.616 255 229 208
159.046 136.418 109.502 201 218 255
176.344 50.7573 115.281 225 232 255
57.6865 128.833 112.336 212 224 255
143.992 75.6145 110.339 255 236 220
93.3948 173.48 110.877 194 213 255
10.0894 63.5872 110.696 188 210 255
193.363 61.0171 109.999 189 210 255
188.8 167.531 117.258 205 220 255
59.7004 222.31 114.62 187 209 255
138.548 100.381 113.546 193 212 255
152.331 133.711 108.702 255 255 252
196.574 96.6391 113.675 184 207 255
2.2168 136.133 114.949 183 206 255
151.789 90.3432 102.145 203 219 255
124.149 5.64574 106.227 199 216 255
112.558 106.647 113.625 243 242 255
87.9503 124.877 108.387 255 249 255
93.3967 173.49 110.88 196 214 255
15.1781 137.143 108.246 191 211 255
93.4812 173.415 110.856 189 210 255
97.9586 109.618 110.419 213 225 255
126.143 77.9358 134.012 234 237 255
115.59 117.932 106.393 255 225 201
90.1391 158.217 123.98 219 228 255
93.4421 173.419 110.888 209 222 255
165.589 26.209 111.157 194 213 255
119.093 118.839 113.397 255 247 239
118.947 123.733 110.321 255 237 222
64.1483 77.7885 111.98 199 216 255
66.3177 133.653 113.754 255 220 192
93.1264 175.884 111.012 226 232 255
85.687 150.051 129.558 183 206 255
112.105 143.23 107.322 255 249 242
172.079 56.971 111.862 203 219 255
95.2047 173.36 112.952 209 222 255
144.245 8.51616 119.219 181 205 255
117.29 95.0729 119.628 255 233 214
109.768 153.393 118.97 255 240 227
135.434 95.3195 115.044 214 225 255
156.086 182.156 109.978 225 232 255
122.718 120.66 113.003 237 239 255
109.537 105.988 110.862 255 203 162
169.592 37.891 111.839 204 220 255
93.3932 173.49 110.879 194 213 255
93.699 173.68 110.879 231 235 255
50.6724 212.021 114.362 192 212 255
115.204 116.062 110.135 215 226 255
178.326 30.573 112.4 180 204 255
93.3983 173.507 110.881 194 213 255
116.07 122.798 107.642 211 224 255
69.6474 137.942 102.857 205 220 255
114.16 126.317 109.695 215 226 255
105.495 113.224 118.049 217 227 255
31.3447 145.469 108.307 230 235 255
125.237 11.2375 106.457 192 212 255
165.578 119.918 112.582 211 223 255
75.2977 50.6856 114.104 200 217 255
106.897 105.835 113.087 255 189 135
117.469 114.804 109.145 248 245 255
170.083 4.58617 117.051 188 210 255
151.393 182.851 119.7 210 223 255
142.698 169.449 117.153 186 208 255
145.501 155.151 135.889 209 222 255
131.798 5.79949 118.113 186 208 255
192.363 165.99 118.037 194 213 255
204.155 159.819 116.828 187 209 255
156.875 158.707 111.47 186 208 255
114.228 139.084 110.349 216 227 255
115.778 120.387 108.173 255 47 0
66.2347 211.669 111.866 208 222 255
204.831 117.504 114.079 181 205 255
186.416 132.472 114.461 201 217 255
112.844 117.661 116.35 248 245 255
109.697 104.301 106.078 242 242 255
131.813 68.5851 114.847 215 226 255
107.33 155.909 121.842 255 255 251
115.967 131.705 112.53 200 217 255
165.427 63.3045 112.365 194 213 255
58.4588 135.448 112.785 222 230 255
169.797 86.9121 111.619 199 216 255
148.578 123.944 112.677 234 237 255
120.135 139.546 112.208 228 234 255
107.249 93.3599 113.444 255 237 222
115.795 171.015 111.672 200 217 255
189.388 50.5373 110.28 179 204 255
88.7469 210.441 109.254 200 217 255
104.921 169.802 108.233 199 216 255
82.0064 22.9909 116.695 191 211 255
113.035 110.572 109.075 211 224 255
126.588 40.1607 115.227 205 220 255
73.5335 180.664 112.601 195 214 255
72.4824 144.639 108.561 205 220 255
87.5366 76.5949 110.01 215 226 255
139.005 107.184 109.12 248 245 255
139.297 102.627 113.868 255 254 250
64.0193 90.0278 111.146 218 228 255
127.537 114.937 110.477 221 230 255
99.1584 108.474 110.995 251 247 255
155.558 2.03132 102.042 193 213 255
93.4707 173.762 110.874 193 212 255
102.482 98.9638 113.841 210 223 255
110.556 116.026 118.876 255 249 255
93.3937 173.505 110.876 229 234 255
130.865 79.8193 117.837 209 222 255
111.617 148.659 119.953 255 255 252
161.719 68.5721 110.355 193 213 255
87.7601 42.3344 103.655 214 225 255
116.874 129.459 113.578 205 220 255
76.8687 144.887 109.296 255 222 196
127.882 81.8159 109.144 198 216 255
86.9395 147.602 126.765 200 217 255
27.2149 124.49 112.514 255 212 178
200.307 85.4224 112.33 186 208 255
117.988 115.438 108.425 238 239 255
132.371 79.8627 113.688 193 213 255
109.684 112.326 113.319 255 254 249
65.8473 93.7357 115.633 203 219 255
46.5907 189.598 110.83 212 224 255
127.171 90.9984 115.593 228 234 255
159.811 121.662 112.772 206 221 255
133.543 93.5259 111.29 255 198 151
98.0979 26.6285 111.199 211 224 255
93.3537 173.46 110.837 215 226 255
123.032 73.6165 107.336 217 227 255
83.1103 203.574 111.462 194 213 255
116.86 121.118 108.822 255 254 250
18.8712 158.75 113.25 191 212 255
161.134 92.714 123.693 228 233 255
150.962 91.6223 112.56 209 222 255
97.2396 176.203 108.838 205 220 255
112.505 116.206 116.378 255 214 181
109.828 109.448 106.511 210 223 255
186.341 66.7287 109.474 186 208 255
93.3946 173.475 110.878 204 219 255
145.619 139.862 105.324 198 216 255
93.3988 173.526 110.881 255 250 255
57.6958 117.534 109.769 201 217 255
153.921 9.82497 112.414 190 210 255
219.919 151.468 111.089 181 205 255
87.7362 106.837 112.076 255 249 242
115.511 135.231 114.533 255 230 209
109.79 112.458 111.213 255 234 217
97.5326 28.7656 112.155 185 208 255
50.6926 127.956 107.783 205 220 255
110.858 100.162 112.454 216 227 255
93.3704 173.412 110.884 225 232 255
124.663 146.182 110.893 208 222 255
93.3963 173.486 110.879 223 231 255
218.087 146.85 109.773 174 201 255
169.101 135.048 119.969 207 221 255
134.028 78.0096 109.799 238 240 255
116.19 116.237 116.457 255 202 160
97.7955 173.037 113.287 254 248 255
111.233 114.073 111.606 255 224 199
98.1091 97.5069 120.959 255 244 233
151.741 153.512 110.635 214 225 255
106.011 128.019 110.947 255 253 249
69.2425 25.8477 116.216 200 217 255
95.8017 78.9242 115.858 193 212 255
107.882 107.741 114.967 229 234 255
93.3958 173.546 110.871 250 246 255
107.682 31.1296 111.367 179 203 255
169.083 134.31 107.58 196 214 255
5.53176 106.772 118.157 201 217 255
108.742 105.695 113.885 217 227 255
110.228 84.9972 115.511 213 225 255
40.7889 47.8089 110.209 204 219 255
123.482 31.9592 108.341 205 220 255
102.967 109.529 111.155 243 242 255
146.748 95.1956 109.981 211 223 255
106.065 149.324 100.01 240 241 255
134.028 158.138 111.074 255 241 228
94.376 78.3393 112.544 243 242 255
161.207 121.853 135.327 197 215 255
34.9802 61.484 108.45 200 217 255
103.815 89.9912 113.445 210 223 255
74.7091 81.7083 113.417 255 248 241
168.188 38.0162 111.101 199 216 255
114.85 120.21 102.773 255 222 196
167.721 162.218 141.243 226 232 255
213.406 83.1841 111.912 195 213 255
93.399 173.512 110.881 200 217 255
114.506 121.081 106.425 255 245 235
99.7997 71.7449 113.551 213 225 255
111.186 111.507 116.76 242 242 255
167.038 84.1551 108.552 230 235 255
204.831 160.903 112.969 194 213 255
155.992 90.0242 109.529 255 215 184
178.362 105.436 111.035 198 216 255
130.265 187.583 112.394 195 214 255
136.532 137.136 111.161 201 218 255
138.869 65.62 119.727 186 208 255
107.331 109.712 114.324 195 213 255
93.3969 173.537 110.881 200 217 255
55.9478 71.7109 113.487 204 219 255
107.147 116.76 116.071 255 230 210
140.82 101.716 116.302 203 219 255
136.675 76.8401 108.011 213 225 255
133.696 29.934 114.146 184 207 255
52.5532 94.7299 115.981 201 217 255
65.3646 43.1609 110.538 199 216 255
36.2724 39.9251 117.342 181 205 255
71.8735 30.7216 114.99 182 205 255
58.2848 100.757 113.687 245 243 255
103.593 117.924 110.265 238 239 255
106.68 105.779 113.306 206 220 255
49.0004 114.338 114.298 208 221 255
100.432 52.3699 113.832 198 216 255
97.5339 126.969 114.098 255 232 214
120.118 78.7785 113.517 195 214 255
81.2349 64.303 117.186 255 241 228
110.856 112.321 122.239 255 245 235
167.525 0.410632 109.554 182 206 255
119.724 116.936 105.674 227 233 255
45.5974 120.039 112.379 202 218 255
116.852 117.845 104.205 255 222 196
72.2724 93.0737 111.191 193 213 255
116.62 116.255 115.487 245 243 255
146.684 156.661 116.437 213 225 255
157.417 45.3981 112.367 198 215 255
32.4278 63.2947 114.565 216 226 255
124.679 75.7719 112.112 209 223 255
133.525 77.3882 119.9 193 212 255
109.832 174.544 111.964 192 212 255
110.909 112.542 107.455 255 248 241
118.306 92.2404 110.468 237 239 255
156.455 64.4704 109.756 198 215 255
43.3997 90.7397 115.566 208 222 255
32.5296 64.7429 113.038 185 207 255
94.5785 34.0606 113.628 217 227 255
50.6912 101.091 117.269 219 228 255
89.3195 52.8983 110.884 255 245 236
88.15 118.701 114.701 236 238 255
157.599 126.525 112.195 201 218 255
93.0483 173.582 110.388 221 229 255
188.016 123.748 111.465 194 213 255
7.96697 172.621 113.643 184 207 255
93.3989 173.52 110.882 233 236 255
131.835 114.407 113.171 255 205 164
3.91789 88.1095 114.94 179 204 255
164.191 75.8184 109.925 228 233 255
93.3999 173.549 110.879 224 231 255
105.421 166.794 116.784 255 249 255
119.479 181.841 116.714 190 211 255
112.614 118.609 106.553 231 235 255
63.6392 70.299 111.735 204 219 255
112.572 102.068 112.425 208 222 255
114.883 146.007 115.59 255 249 242
92.1777 158.431 122.675 199 216 255
94.9333 20.2281 89.3243 212 224 255
131.523 78.1715 123.158 200 217 255
93.5262 174 110.698 199 216 255
46.031 98.5602 122.569 255 232 214
102.981 111.571 111.047 232 236 255
93.3811 173.39 110.847 184 207 255
179.872 157.092 113.762 197 215 255
111.737 137.802 111.41 255 214 181
152.253 159.84 111.382 221 230 255
153.029 94.4814 112.236 227 233 255
68.2477 139.614 112.51 229 234 255
186.064 17.0537 111.198 184 207 255
198.062 101.668 114.816 192 212 255
100.244 202.068 113.744 194 213 255
127.563 56.6657 120.375 198 216 255
113.805 92.1422 117.457 198 216 255
110.477 114.457 109.706 255 149 47
101.633 180.361 110.975 206 220 255
98.9405 162.782 101.497 203 218 255
108.582 107.527 117.173 241 241 255
118.877 142.916 108.079 255 231 212
107.555 110.46 111.061 255 231 212
145.248 145.717 111.997 228 234 255
12.7469 134.828 114.27 190 211 255
82.7487 176.372 112.209 196 215 255
130.069 74.5843 116.026 200 217 255
106.72 89.4601 114.244 211 223 255
41.4347 104.777 133.93 199 217 255
106.462 47.7353 113.021 196 215 255
116.154 93.7348 113.493 216 226 255
207.32 43.1426 112.113 192 212 255
163.085 130.342 113.433 210 223 255
110.343 109.881 107.646 226 232 255
49.4063 105.99 111.124 185 207 255
57.7928 104.021 112.068 213 224 255
77.0227 37.2521 113.354 220 229 255
55.6593 80.4086 109.554 204 219 255
199.463 50.3015 109.252 195 214 255
71.6983 51.9701 111.048 198 216 255
185.634 124.913 117.601 211 224 255
131.133 79.1544 114.201 212 224 255
122.907 81.993 114.328 218 228 255
203.381 112.403 109.308 188 209 255
93.3796 173.409 110.861 199 216 255
93.3011 173.701 110.915 214 225 255
130.042 114.637 113.885 244 242 255
122.513 203.515 110.227 189 210 255
212.685 55.5279 112.856 188 209 255
67.8865 107.497 111.954 255 246 236
165.965 181.05 120.91 198 216 255
150.052 84.5411 107.753 185 207 255
64.3936 73.2464 112.348 195 214 255
133.28 64.252 120.424 255 241 228
111.446 121.776 113.211 218 228 255
207.248 72.2785 114.505 212 224 255
158.37 70.4588 112.484 218 227 255
93.3972 173.494 110.88 202 218 255
114.42 114.073 111.596 255 250 255
155.671 188.059 119.101 213 225 255
45.7162 130.858 109.36 213 225 255
60.5363 133.46 108.843 220 229 255
53.4373 82.1636 106.145 192 212 255
66.9314 136.663 107.041 219 228 255
94.0114 175.622 111.263 213 225 255
133.26 94.2841 110.408 255 254 250
57.7213 67.345 106.475 220 229 255
29.2856 155.63 111.232 201 218 255
75.6545 86.4214 114.37 212 224 255
63.6153 135.682 109.186 234 237 255
107.62 109.315 117.672 255 237 223
198.901 62.7518 110.445 216 227 255
179.275 58.1105 115.779 193 213 255
113.21 109.828 113.429 208 221 255
131.912 63.858 113.226 213 225 255
94.95 77.3116 110.708 248 245 255
85.4876 51.818 102.309 195 214 255
82.3053 107.314 109.424 211 223 255
79.9266 30.3702 106.116 186 208 255
