ply
format ascii 1.0
element vertex 1342
property float x
property float y
property float z
property uchar red
property uchar green
property uchar blue
end_header
110.234 98.6096 116.061 255 237 221
93.5964 152.891 108.306 228 234 255
150.308 129.381 117.9 195 214 255
95.8769 142.987 110.168 198 216 255
14.0315 203.983 118.036 182 206 255
77.8664 131.745 113.333 255 213 179
55.3381 171.057 114.313 201 218 255
103.902 171.231 125.739 227 233 255
100.222 154.774 114.502 255 241 228
72.5171 138.425 116.813 252 247 255
180.127 91.8743 130.973 200 217 255
116.33 107.501 93.9982 255 182 120
93.7924 114.333 108.151 201 218 255
56.0432 94.3596 100.73 199 216 255
108.373 123.128 107.491 255 237 221
24.3799 75.7883 106.321 201 218 255
29.5788 20.0546 49.7948 187 209 255
122.115 34.6966 114.238 193 213 255
119.606 111.408 94.665 225 232 255
170.471 102.543 101.28 255 250 243
122.277 131.437 114.135 230 235 255
93.6944 173.617 110.722 224 231 255
89.3029 147.115 106.986 213 225 255
96.9592 111.749 119.226 202 218 255
114.721 113.448 109.003 224 231 255
169.124 113.627 97.2084 255 236 219
159.371 118.6 113.042 207 221 255
114.55 145.943 105.077 255 245 235
103.587 65.6319 112.772 202 218 255
111.855 104.295 117.763 255 215 183
105.585 105.293 115.198 255 251 245
146.172 97.0087 109.172 235 238 255
124.993 11.547 109.028 255 252 246
91.1246 172.505 104.611 203 218 255
117.689 176.151 107.274 199 216 255
105.944 104.591 108.482 211 224 255
67.1412 77.6852 114.865 200 217 255
93.6956 173.554 110.664 255 250 244
87.8936 223.739 108.704 187 209 255
81.8913 134.75 114.909 255 209 172
110.697 128.303 109.87 255 247 238
78.4417 124.891 112.498 205 220 255
105.636 189.201 111.574 255 202 159
159.457 105.91 113.268 255 241 229
101.48 112.951 111.815 233 237 255
54.3994 100.653 106.448 183 206 255
156.952 102.23 110.853 185 208 255
136.928 86.0006 104.302 186 208 255
127.522 178.583 116.687 185 207 255
79.5477 25.7944 97.3787 197 215 255
127.131 86.1219 116.147 255 181 118
101.733 99.5101 125.618 233 237 255
93.714 173.435 110.619 203 219 255
79.1275 160.62 111.852 206 220 255
114.091 148.484 125.377 203 219 255
100.379 205.487 121.926 195 214 255
107.14 123.308 127.563 237 239 255
107.345 105.872 103.518 205 220 255
71.8065 75.8759 111.985 255 248 241
90.0564 25.923 87.5831 184 207 255
206.657 93.8309 107.817 194 213 255
146.311 184.949 117.925 184 207 255
73.6246 119.165 112.404 255 241 228
160.391 145.059 107.845 199 216 255
28.1213 42.8973 109.763 187 209 255
116.012 116.528 110.713 226 233 255
94.8206 149.19 105.715 200 217 255
97.1036 182.888 102.798 238 239 255
113.046 121.76 106.868 255 228 207
195.729 29.2007 110.86 203 219 255
69.3329 131.826 105.727 199 216 255
67.9084 46.6338 103.953 191 211 255
128.109 121.414 109.739 219 228 255
152.774 103.949 115.831 200 217 255
108.908 85.5705 111.317 245 244 255
119.813 123.096 107.421 255 228 206
28.0718 154.304 113.549 190 211 255
76.665 82.7039 111.052 211 223 255
122.749 103.74 121.061 195 214 255
116.256 122.452 106.052 255 224 199
121.066 116.77 105.462 247 244 255
113.173 205.261 119.248 196 214 255
16.7495 67.0288 112.519 184 207 255
186.171 177.083 110.534 182 206 255
106.091 41.8575 114.433 194 213 255
93.7111 173.544 110.688 229 234 255
17.5355 107.977 107.838 190 210 255
93.7075 173.565 110.7 206 220 255
126.567 16.7228 109.234 196 214 255
153.134 158.106 113.522 185 207 255
113.477 107.6 116.384 220 229 255
84.9884 65.5329 92.6162 195 214 255
107.844 126.878 116.77 255 225 201
79.9938 86.001 112.822 210 223 255
218.3 47.7926 112.229 180 204 255
143.52 87.2291 102.747 238 239 255
70.2868 33.3714 102.947 193 212 255
121.217 115.799 119.573 241 241 255
215.328 51.0035 111.743 191 211 255
93.705 173.578 110.706 200 217 255
95.0586 171.268 110.487 255 253 249
104.039 148.374 114.231 217 227 255
93.6121 173.64 110.474 255 212 178
162.561 132.715 111.734 210 223 255
73.8064 144.266 103.596 200 217 255
110.862 143.984 102.04 255 217 187
115.977 119.7 112.142 255 245 235
179.948 33.0691 112.769 200 217 255
93.0222 173.687 105.901 204 219 255
96.1722 35.4507 112.429 217 227 255
107.083 104.293 109.989 239 240 255
116.822 81.941 116.178 255 219 191
117.933 108.783 110.901 232 236 255
113.503 51.3839 114.207 189 210 255
171.035 62.1313 112.394 190 210 255
186.384 153.504 59.3856 194 213 255
167.452 92.6373 99.2315 204 219 255
93.3401 40.3306 112.566 240 241 255
102.828 172.715 107.147 251 247 255
114.179 85.3813 121.661 220 229 255
110.154 99.8736 99.381 255 234 217
106.235 171.102 116.366 219 228 255
135.271 69.7818 109.201 215 226 255
136.032 120.29 111.51 255 243 233
121.253 84.4355 116.286 255 241 229
93.7037 173.584 110.709 184 207 255
32.6726 140.432 109.117 197 215 255
114.055 111.822 118.97 255 229 207
78.5131 106.119 111.84 235 237 255
115.425 105.322 97.523 255 206 167
5.90204 162.864 112.531 183 206 255
112.185 116.989 112.916 224 231 255
137.705 156.61 106.614 192 212 255
89.6018 155.343 117.211 210 223 255
95.3447 155.505 139.821 215 226 255
122.137 119.54 109.71 226 232 255
62.5833 137.896 123.912 197 215 255
160.989 164.586 113.866 207 221 255
120.008 123.561 112.061 208 221 255
91.3839 140.756 109.718 211 223 255
75.8089 139.694 109.396 190 211 255
208.185 99.2517 112.275 206 221 255
120.503 111.14 98.9398 255 212 179
101.099 102.592 110.304 255 243 232
98.1044 109.416 109.633 229 234 255
103.701 174.547 109.983 223 230 255
113.388 160.167 101.383 196 214 255
108.154 108.729 102.685 255 206 166
114.453 112.218 101.585 209 222 255
99.3456 115.245 132.838 255 215 184
164.836 108.912 100.858 199 216 255
77.1863 55.7266 112.355 207 221 255
24.9297 61.9479 126.561 198 216 255
117.445 128.161 109.62 255 253 249
50.217 123.868 101.506 193 213 255
64.2063 135.793 113.053 206 220 255
93.6834 173.617 110.73 199 216 255
166.14 153.021 108.739 255 251 246
132.069 164.269 112.62 231 235 255
143.44 91.4108 121.805 222 230 255
103.662 163.111 108.142 208 222 255
183.691 122.924 107.869 240 241 255
148.212 54.5875 111.074 247 244 255
143.989 167.205 107.174 222 230 255
92.7031 166.379 117.088 218 228 255
58.7623 112.086 112.661 255 252 246
114.49 89.796 121.98 190 211 255
105.52 104.324 109.423 255 171 97
93.7012 173.343 110.733 255 201 158
93.7061 173.572 110.703 241 241 255
138.351 80.8492 112.232 227 233 255
107.305 115.335 120.586 228 234 255
79.9565 130.824 112.16 188 209 255
99.9645 109.031 111.33 214 225 255
137.748 81.7914 104.468 243 242 255
95.9793 30.2492 110.401 204 219 255
198.774 41.9723 111.401 185 208 255
49.1292 92.5848 110.888 241 241 255
62.2596 120.003 101.111 255 251 246
114.363 107.394 114.946 191 211 255
170.32 116.513 117.524 193 213 255
123.069 161.672 110.006 200 217 255
41.3565 149.4 109.654 197 215 255
93.7287 174.286 111.296 197 215 255
99.8967 132.752 100.021 204 219 255
56.6139 116.353 106.185 217 227 255
71.8705 69.9216 118.879 190 211 255
121.594 78.107 108.597 202 218 255
93.71 173.55 110.691 201 217 255
93.7074 173.566 110.7 217 227 255
110.291 114.033 114.979 195 214 255
111.339 46.0756 111.017 228 234 255
152.494 24.1309 104.119 194 213 255
118.519 123.624 108.347 221 230 255
112.839 63.0609 115.56 216 227 255
179.974 91.152 108.146 195 214 255
35.3373 199.102 111.225 189 210 255
110.148 172.286 112.007 219 228 255
148.176 13.3437 111.592 193 213 255
59.7956 80.0827 110.756 181 205 255
91.9953 91.3661 110.776 202 218 255
121.661 51.0728 116.692 197 215 255
126.771 116.552 113.53 225 232 255
65.4537 70.0048 121.178 191 211 255
114.265 146.306 105.792 255 187 130
38.9658 106.38 110.936 203 219 255
114.76 129.351 105.513 255 244 234
110.663 106.604 115.317 228 233 255
123.675 95.7529 115.983 217 227 255
78.1303 146.224 127.281 202 218 255
106.062 112.495 126.232 255 211 176
117.494 124.628 115.049 254 249 255
148.438 81.3829 123.008 202 218 255
114.749 113.813 97.1348 218 228 255
157.879 136.725 56.9407 197 215 255
129.968 200.716 118.589 197 215 255
71.5872 72.9659 101.918 188 209 255
111.067 162.942 115.134 221 230 255
93.7376 173.397 110.59 255 223 197
171.937 154.564 119.362 190 210 255
128.447 57.1737 116.51 226 232 255
93.7005 173.597 110.715 211 223 255
119.438 125.106 116.543 255 254 250
160.277 85.6798 126.253 205 220 255
101.332 87.0842 118.042 204 219 255
118.762 104.469 111.705 221 229 255
129.44 112.903 110.882 201 218 255
151.263 88.6778 133.121 255 223 198
162.286 125.128 129.631 201 218 255
113.49 115.982 130.369 255 90 0
158.385 133.828 109.354 201 217 255
107.852 127.665 106.767 241 241 255
127.543 119.476 122.008 242 241 255
80.1486 56.6723 123.762 210 223 255
169.731 120.262 129.406 207 221 255
96.7305 83.3667 115.63 226 232 255
160.032 120.269 115.119 204 219 255
106.086 102.418 112.441 255 232 214
45.4379 65.5875 98.6702 196 215 255
93.7084 173.56 110.697 202 218 255
105.33 124.111 111.344 255 238 223
46.746 54.5545 94.5425 194 213 255
93.7175 173.476 110.644 210 223 255
93.7127 173.531 110.681 212 224 255
149.48 101.821 108.521 205 220 255
93.9949 173.843 110.984 229 234 255
13.4387 64.2104 116.065 186 208 255
112.192 127.402 120.584 201 217 255
58.4311 104.162 114.422 252 247 255
109.256 118.399 112.035 255 233 215
149.616 64.2933 114.815 211 224 255
145.416 93.8546 108.177 209 222 255
96.919 8.02289 108.361 193 213 255
14.5144 153.361 107.953 187 209 255
135.553 30.6207 109.084 212 224 255
108.35 133.266 111.684 193 212 255
55.3048 115.371 121.988 230 235 255
117.839 138.928 108.848 207 221 255
37.0368 118.438 113.674 223 231 255
11.7382 64.9971 118.545 194 213 255
101.1 167.605 100.288 234 237 255
105.014 110.152 111.874 254 248 255
157.088 140.652 112.302 238 240 255
86.7501 148.144 110.49 210 223 255
110.765 128.063 101.23 255 176 108
93.6867 173.452 110.597 187 209 255
117.877 89.8084 110.793 222 230 255
87.9525 127.11 111.477 255 213 180
104.209 129.041 109.644 255 228 207
102.825 23.069 109.295 205 220 255
109.719 135.619 102.524 255 242 230
120.297 170.47 113.736 205 220 255
111.882 116.282 130.637 255 247 239
78.8502 140.3 106.247 191 211 255
223.905 62.6984 112.049 204 219 255
93.7045 173.58 110.707 184 207 255
184.893 51.7077 107.138 202 218 255
118.438 110.582 110.122 201 217 255
5.51317 200.374 122.607 196 215 255
81.7237 185.042 115.431 213 225 255
105.585 115.227 116.137 255 243 231
121.779 122.39 110.436 209 222 255
170.964 120.028 101.653 255 216 185
59.2435 112.394 115.827 194 213 255
219.828 71.925 112.457 181 205 255
107.552 114.492 137.275 212 224 255
61.879 68.7117 100.581 183 206 255
167.331 61.6282 111.762 255 245 236
83.8995 177.506 106.082 216 226 255
93.7384 173.034 110.219 203 219 255
93.699 173.632 110.434 255 241 229
97.9636 155.349 110.756 255 90 0
119.224 117.089 105.904 255 242 231
158.051 94.7318 112.259 218 228 255
103.716 145.307 112.575 205 220 255
100.675 99.7171 127.079 216 227 255
148.124 160.275 108.22 200 217 255
139.901 82.0017 73.2417 219 228 255
128.935 69.3178 127.943 200 217 255
113.16 133.295 114.683 226 232 255
100.123 116.805 114.263 221 229 255
131.51 81.3698 117.742 255 253 248
146.362 74.291 120.822 210 223 255
108.05 119.842 111.736 195 214 255
66.7703 76.9343 109.174 193 212 255
128.75 115.263 115.003 226 233 255
45.9389 66.6821 104.433 189 210 255
125.039 165.164 109.087 198 216 255
116.851 211.15 156.357 203 219 255
202.119 38.0226 111.311 197 215 255
102.383 128.163 122.624 233 237 255
121.295 125.478 119.214 255 222 195
136.537 88.8648 101.724 205 220 255
93.7054 173.577 110.705 234 237 255
52.9373 85.9593 135.567 197 215 255
217.263 119.727 115.938 184 207 255
131.431 123.675 111.468 255 208 171
165.862 109.688 105.963 192 212 255
176.565 97.5986 110.684 199 216 255
122.885 86.1235 108.471 221 229 255
116.868 133.449 106.924 255 226 203
113.244 74.0696 110.156 212 224 255
81.1417 143.495 106.056 216 226 255
114.003 128.205 112.64 250 246 255
93.7091 173.557 110.695 223 231 255
60.6378 68.9403 113.265 190 211 255
58.2985 114.289 123.127 220 229 255
108.663 24.1436 106.01 197 215 255
43.1923 187.276 112.409 195 214 255
126.826 117.526 113.923 226 232 255
104.584 106.563 103.044 255 241 229
71.8889 22.162 116.941 199 216 255
117.277 103.132 112.306 206 220 255
127.535 72.7835 130.728 255 239 225
78.3468 134.478 111.645 202 218 255
104.817 176.176 114.989 245 243 255
100.931 98.4282 126.837 223 231 255
106.243 90.3107 122.235 210 223 255
72.1947 47.6074 103.559 186 208 255
123.284 203.861 120.84 181 205 255
63.2529 96.5797 111.745 191 212 255
168.587 36.6165 113.941 185 208 255
100.186 184.997 109.606 207 221 255
93.7078 173.563 110.698 222 230 255
121.504 115.268 118.18 221 230 255
120.772 182.58 109.986 186 208 255
107.613 180.155 104.823 251 246 255
204.119 186.942 95.759 217 227 255
88.1416 47.3941 112.38 201 217 255
105.055 143.763 109.468 197 215 255
43.6878 95.8675 99.3361 198 215 255
197.236 24.2441 125.951 187 209 255
163.982 113.623 122.308 196 215 255
100.49 179.498 112.735 235 238 255
87.4082 87.6712 150.102 255 218 188
47.531 154.605 113.905 255 249 242
73.4897 138.495 109.406 199 216 255
166.045 150.964 110.21 217 227 255
107.722 90.1007 111.891 228 234 255
110.183 211.76 100.138 188 209 255
136.913 146.406 110.056 189 210 255
85.6611 150.731 107.573 205 220 255
109.816 50.9594 115.146 238 239 255
112.896 143.085 104.471 255 161 76
104.601 101.445 123.91 255 184 123
169.271 177.517 99.6084 184 207 255
78.148 108.987 112.012 210 223 255
62.0668 85.6608 105.137 197 215 255
102.387 132.776 79.7832 221 229 255
104.994 86.1077 109.234 199 216 255
70.7091 141.566 121.714 241 241 255
93.7069 173.568 110.701 203 219 255
100.248 110.788 120.156 201 217 255
101.876 105.811 108.912 205 220 255
109.034 63.7892 115.104 200 217 255
146.742 97.9321 110.861 234 237 255
127.927 38.6946 116.261 210 223 255
84.1909 38.0555 109.775 214 225 255
110.743 115.543 110.653 255 228 206
138.652 93.0906 131.826 218 228 255
112.166 104.909 109.723 255 195 147
93.708 173.563 110.698 191 211 255
163.269 98.9912 112.947 219 228 255
211.107 156.645 106.587 185 207 255
99.8242 22.9988 95.3716 206 221 255
118.255 115.53 110.05 223 231 255
121.5 121.359 107.192 221 229 255
124.47 122.035 108.15 255 246 237
130.397 79.87 107.786 255 242 230
107.842 126.048 114.467 205 220 255
104.882 126.033 109.197 222 230 255
93.7107 173.547 110.689 199 216 255
111.484 94.5357 112.245 255 149 47
81.7562 69.3053 112.627 254 248 255
105.127 93.4701 100.815 255 213 180
115.129 33.8142 113.731 194 213 255
112.106 124.051 128.558 255 233 214
84.6612 9.31301 98.9495 185 208 255
101.732 143.357 110.499 255 222 195
137.395 11.705 115.584 193 212 255
105.948 6.59051 116.179 199 216 255
92.2246 30.8383 107.344 195 214 255
13.6195 108.295 112.082 206 221 255
69.4506 54.677 110.216 212 224 255
141.353 80.8498 118.732 202 218 255
82.9649 34.1878 104.394 202 218 255
111.706 97.0519 119.824 253 248 255
112.68 183.467 108.297 231 235 255
60.7188 151.729 114.724 255 211 176
138.199 75.8344 134.679 213 225 255
41.6546 75.8563 112.264 209 222 255
105.243 113.591 120.556 255 240 227
167.763 218.078 129.576 183 206 255
93.708 173.562 110.698 194 213 255
175.568 67.0724 116.714 191 211 255
137.329 119.219 112.644 210 223 255
120.106 125.148 108.063 255 242 230
93.7053 173.507 110.67 212 224 255
78.4861 48.6563 106.532 255 217 187
59.4931 169.142 114.674 202 218 255
104.329 101.501 107.4 255 223 197
130.937 78.8675 111.993 221 229 255
84.4739 127.479 112.641 192 212 255
112.968 107.816 109.616 255 127 0
104.765 87.3683 90.9579 197 215 255
112.011 21.8026 111.697 204 219 255
166.227 131.17 118.817 200 217 255
21.6935 153.58 112.72 181 205 255
26.1471 106.876 112.926 189 210 255
121.038 107.069 112.17 255 238 223
118.743 85.493 117.758 193 213 255
26.0499 138.817 109.986 188 209 255
57.2264 100.273 81.7732 255 253 249
100.215 130.128 111.433 210 223 255
93.7073 173.566 110.7 189 210 255
119.817 76.4028 112.437 203 219 255
155.173 104.249 121.305 242 241 255
35.8836 65.4008 116.445 178 203 255
146.959 99.2897 108.363 217 227 255
111.269 172.926 107.553 188 210 255
107.942 130.337 102.949 255 178 113
121.822 106.807 127.032 255 249 241
92.1779 27.5657 111.85 198 216 255
88.7402 191.033 98.1808 255 205 164
103.028 102.574 116.581 221 229 255
93.7082 173.562 110.697 197 215 255
71.2597 202.137 113.465 226 232 255
156.699 111.112 103.923 189 210 255
79.2272 134.225 113.112 207 221 255
49.9786 170.124 115.311 206 221 255
186.245 109.549 130.259 255 220 193
92.043 163.038 121.799 215 226 255
152.867 88.1619 118.672 255 253 249
111.853 87.4408 113.431 210 223 255
123.544 121.99 121.121 255 244 233
70.9441 113.003 122.582 199 216 255
93.7126 173.533 110.681 255 238 224
130.614 185.142 115.716 188 209 255
201.35 30.7159 77.9144 255 254 251
51.8818 117.753 110.815 255 253 248
117.313 135.9 114.926 252 247 255
61.7786 103.99 138.744 206 220 255
109.219 66.6856 116.069 200 217 255
131.276 69.3762 112.744 200 217 255
126.883 54.8318 119.45 188 209 255
93.3621 177.564 113.071 207 221 255
93.7068 173.569 110.701 255 247 239
175.782 18.3846 110.695 197 215 255
110.166 103.854 109.115 255 0 0
84.7238 76.7427 112.692 228 234 255
24.6663 198.011 111.09 188 209 255
7.24505 178.421 110.037 191 211 255
116.35 137.504 107.253 228 234 255
82.0894 78.0798 111.538 232 236 255
84.1541 84.9296 112.076 184 207 255
118.815 120.016 106.12 230 235 255
120.319 117.14 126.369 255 242 230
157.419 111.795 112.617 195 214 255
77.219 215.896 118.257 197 215 255
117.086 119.067 104.916 227 233 255
94.4073 173.471 111.426 246 244 255
114.325 130.751 111.299 255 217 186
93.7027 173.374 110.545 255 249 242
115.655 125.009 120.778 255 196 147
128.54 76.077 110.538 223 231 255
122.803 83.7345 126.659 211 224 255
157.562 144.926 110.19 255 249 241
23.2573 145.654 113.339 215 226 255
93.224 173.187 110.443 203 218 255
78.2143 75.6844 114.322 255 255 251
110.143 105.869 108.042 255 242 230
167.161 105.234 75.1764 215 226 255
93.7019 173.592 110.713 218 228 255
93.6573 173.368 110.772 209 222 255
12.798 78.3375 110.232 210 223 255
91.6941 146.753 112.284 190 210 255
104.132 165.115 115.983 203 219 255
103.638 59.9407 116.446 221 230 255
152.337 111.116 112.477 199 216 255
114.363 113.472 99.6901 255 252 248
129.301 97.9495 117.832 216 227 255
115.189 121.224 98.222 255 209 172
105.252 122.118 104.214 255 215 184
123.693 99.9227 103.515 255 228 206
125.119 116.84 123.795 222 230 255
82.6555 147.32 109.169 212 224 255
115.206 91.0919 117.623 212 224 255
93.7055 173.575 110.705 208 222 255
161.261 124.78 113.355 255 211 177
103.644 104.311 117.846 255 219 190
93.6849 173.784 110.758 235 238 255
185.29 161.053 115.92 180 204 255
93.707 173.568 110.701 208 222 255
143.122 97.1304 108.863 222 230 255
53.8203 34.2296 123.139 207 221 255
114.822 204.677 90.9018 182 205 255
115.934 126.163 119.762 229 234 255
46.8 175.645 107.457 212 224 255
63.8458 64.3907 104.803 216 226 255
152.493 106.767 112.82 204 219 255
79.1006 130.531 110.611 219 228 255
116.08 171.85 107.926 206 220 255
79.844 66.8571 60.7707 194 213 255
122.134 117.462 112.309 213 225 255
116.562 105.183 116.03 225 232 255
145.257 100.66 113.335 197 215 255
118.148 133.86 115.07 255 234 217
93.6815 173.658 110.734 210 223 255
13.2372 177.576 98.123 206 221 255
93.9892 72.968 112.984 224 231 255
58.5575 145.116 113.817 204 219 255
103.038 110.688 103.415 205 220 255
124.958 77.499 108.478 222 230 255
106.194 142.402 111.337 230 235 255
110.873 104.837 113.581 255 245 236
93.7134 173.527 110.678 222 230 255
118.622 108.279 103.834 255 246 236
93.6894 173.51 110.683 244 243 255
148.968 69.8346 111.559 202 218 255
110.058 132.409 109.526 255 220 193
135.7 211.275 116.336 191 211 255
159.667 113.32 106.626 241 241 255
124.891 68.9709 118.766 183 206 255
157.242 94.9094 134.617 197 215 255
87.7253 141.721 112.318 227 233 255
108.474 85.5133 91.4062 255 221 194
114.728 126.74 107.126 255 223 197
43.8875 32.2316 114.177 183 206 255
107.743 74.0918 113.977 205 220 255
115.538 145.92 113.706 239 240 255
123.22 120.966 118.043 255 254 250
121.123 83.0153 131.909 224 231 255
95.0069 173.142 110.909 216 226 255
116.141 166.631 108.182 189 210 255
130.815 155.893 109.728 196 215 255
110.658 105.574 115.502 223 231 255
121.633 80.8786 110.638 255 244 234
188.816 27.6856 110.356 229 234 255
115.043 98.4674 120.242 255 239 225
174.41 145.147 111.512 255 233 214
133.015 197.023 66.6929 255 254 250
113.381 113.497 110.933 219 228 255
100.151 100.879 116.898 223 231 255
93.7206 173.701 110.711 255 246 238
93.7067 173.57 110.702 198 215 255
128.236 79.4797 124.317 207 221 255
104.131 84.07 109.219 255 249 242
116.247 111.494 108.436 255 254 250
134.914 110.457 113.248 210 223 255
138.203 86.493 112.218 201 217 255
177.238 97.3533 123.346 255 250 255
97.2345 204.545 120.205 195 214 255
119.277 86.469 118.05 203 219 255
58.7287 88.5775 98.6677 186 208 255
127.984 172.768 114.01 182 206 255
93.7069 173.568 110.701 218 228 255
128.786 98.7771 114.997 229 234 255
89.8823 191.03 111.95 184 207 255
162.911 111.171 101.144 195 214 255
85.1667 147.824 105.507 241 241 255
93.7232 173.45 110.628 255 242 230
93.7068 173.569 110.701 194 213 255
65.9798 107.198 112.599 221 230 255
38.943 132.659 112.872 195 214 255
9.54858 93.2011 116.446 179 203 255
64.6614 43.5564 100.468 200 217 255
157.833 89.1224 106.794 207 221 255
93.7074 173.566 110.7 222 230 255
93.6743 173.635 110.782 202 218 255
119.815 110.802 122.544 255 251 246
128.875 114.517 114.319 210 223 255
125.221 121.729 113.459 223 231 255
114.441 136.882 101.886 205 220 255
139.974 121.263 113.294 255 246 238
144.589 13.2865 111.745 209 222 255
107.351 154.493 117.05 201 217 255
93.7033 173.585 110.709 216 226 255
157.216 155.58 102.532 190 211 255
27.2004 42.6907 109.162 185 207 255
108.579 117.06 109.896 255 170 96
97.1218 178.028 114.514 250 246 255
54.2 59.9476 104.546 237 239 255
117.71 95.2921 117.179 255 250 255
107.348 129.33 101.124 237 239 255
93.6816 173.566 110.631 198 216 255
175.906 146.295 105.841 236 238 255
107.552 104.419 111.402 211 223 255
142.694 44.5192 112.263 211 223 255
91.5355 56.3598 111.732 200 217 255
96.3009 138.548 108.165 217 227 255
85.0298 149.278 111.769 201 217 255
84.7018 118.88 112.529 194 213 255
92.9793 176.217 111.508 213 225 255
141.634 97.4378 111.307 255 251 246
93.7055 173.575 110.705 201 218 255
93.6939 173.618 110.724 205 220 255
116.345 114.969 100.666 200 217 255
125.351 117.426 116.211 219 228 255
119.152 107.341 118.84 255 238 223
101.966 128.614 111.549 214 225 255
192.185 86.9621 117.268 176 202 255
129.016 118.074 117.298 202 218 255
72.9204 111.111 113.263 222 230 255
56.2699 57.0662 131.494 197 215 255
58.0138 53.1963 109.991 189 210 255
128.541 172.881 112.444 201 217 255
94.9764 181.164 111.392 255 243 232
193.42 101.681 108.285 186 208 255
144.032 73.7919 87.8893 210 223 255
55.2969 87.261 126.094 202 218 255
67.9226 112.461 111.365 203 218 255
104.404 107.38 101.058 209 222 255
93.7121 173.538 110.683 203 219 255
93.7732 173.508 110.582 196 215 255
93.7217 173.48 110.642 209 222 255
114.574 153.385 108.652 208 222 255
115.001 120.175 111.275 255 233 215
80.3955 131.013 112.114 245 243 255
89.0772 96.6358 142.649 189 210 255
131.859 128.204 109.757 220 229 255
110.917 24.5215 106.085 192 212 255
105.696 166.905 112.44 191 211 255
193.366 72.397 113.905 197 215 255
92.6348 175.186 108.276 204 219 255
110.192 110.636 112.546 255 228 206
37.3634 55.863 149.215 195 214 255
135.231 85.0201 108.805 222 230 255
207.34 14.4188 110.673 219 228 255
120.536 82.9596 113.502 218 228 255
110.771 102.59 110.741 231 235 255
106.021 100.987 113.176 255 253 249
81.9216 42.8585 107.592 188 210 255
148.419 89.1487 135.546 190 211 255
100.797 55.4185 115.985 194 213 255
125.944 77.7012 103.851 255 246 237
118.513 112.031 92.8664 226 232 255
93.7078 173.564 110.699 255 247 238
110.713 97.1161 114.157 225 232 255
53.5502 169.577 112.826 199 216 255
107.549 29.563 110.27 190 211 255
60.5995 146.811 110.826 194 213 255
109.624 127.954 99.3363 204 219 255
113.899 82.9488 103.331 226 232 255
102.485 120.729 128.372 255 208 170
68.2144 148.192 96.1056 224 231 255
65.0432 130.677 102.705 217 227 255
81.1062 144.633 112.755 220 229 255
98.9683 65.5513 111.701 229 234 255
68.8667 151.473 116.846 216 227 255
154.526 96.649 116.191 217 227 255
69.7652 60.7344 110.193 187 209 255
106.933 126.976 110.902 255 192 141
93.9268 173.503 110.521 210 223 255
103.386 109.79 111.28 234 237 255
59.5154 135.587 115.775 200 217 255
149.123 124.1 111.287 229 234 255
109.071 92.0227 99.274 255 252 247
85.3828 64.3342 112.999 255 254 251
38.9141 150.476 111.877 209 222 255
181.33 65.3249 109.566 255 238 223
130.52 83.9096 111.931 201 217 255
101.875 112.548 104.636 219 228 255
130.372 72.3838 111.25 215 226 255
102.136 115.778 118.43 207 221 255
93.7131 173.529 110.679 199 216 255
66.5272 74.5826 109.892 183 206 255
93.5942 173.693 110.834 203 218 255
99.7593 162.129 105.274 255 253 249
93.814 173.653 110.815 255 249 255
85.717 98.9888 113.565 195 214 255
93.7012 173.594 110.714 197 215 255
125.542 122.151 109.725 255 245 235
106.555 131.5 108.259 212 224 255
143.88 130.319 122.672 213 225 255
52.2707 91.8156 92.9786 213 225 255
92.9511 79.2206 115.533 197 215 255
75.9898 89.8981 112.116 203 219 255
122.831 98.8383 107.681 255 233 215
87.8209 161.915 106.751 200 217 255
155.804 153.12 110.244 195 214 255
42.7626 81.9682 108.773 255 252 246
116.554 123.268 111.528 255 253 248
97.5426 87.1965 112.619 233 236 255
60.5655 22.7692 135.445 192 212 255
58.5115 93.3326 112.278 189 210 255
153.521 143.488 112.572 255 126 0
195.666 98.2545 110.868 211 223 255
157.415 101.628 105.093 193 212 255
154.893 107.642 115.31 201 217 255
129.135 126.019 109.725 255 247 239
41.1593 98.8123 114.993 185 207 255
168.172 100.898 124.348 255 250 255
49.6789 44.4335 113.737 180 204 255
131.954 175.657 109.855 214 226 255
69.1484 142.556 122.835 228 233 255
148.351 168.073 111.574 197 215 255
80.4906 112.708 112.585 248 245 255
121.848 27.2701 116.565 190 210 255
111.478 109.564 128.985 236 238 255
111.734 102.005 101.863 255 187 130
142.45 93.9571 116.674 194 213 255
117.078 142.109 111.488 255 225 201
97.6644 166.878 111.86 217 227 255
94.2855 21.1454 95.0756 219 228 255
104.708 133.043 106.61 234 237 255
108.775 104.097 114.315 238 239 255
86.5835 156.538 126.876 198 215 255
124.042 199.219 120.27 197 215 255
116.586 115.83 118.057 209 223 255
152.253 99.1493 113.917 207 221 255
118.371 111.525 101.638 255 249 255
92.1437 162.702 125.078 198 216 255
98.0023 177.16 111.26 203 218 255
176.493 34.2504 113.512 192 212 255
67.3921 97.8133 110.361 215 226 255
93.7135 173.526 110.677 217 227 255
118.487 81.6599 122.585 212 224 255
123.406 117.344 113.205 222 230 255
108.182 128.468 109.011 255 221 194
43.1823 192.569 112.467 181 205 255
96.616 183.928 112.048 204 219 255
75.7502 176.431 112.533 202 218 255
100.008 142.154 109.856 204 219 255
106.496 108.142 108.949 209 222 255
61.0301 53.9473 111.901 195 214 255
113.468 102.966 105.681 189 210 255
93.7087 173.559 110.696 186 208 255
102.277 151.099 109.153 255 249 255
205.515 106.599 109.538 180 204 255
119.053 116.251 102.307 230 235 255
93.7154 173.503 110.662 189 210 255
56.3574 180.5 112.019 184 207 255
122.696 115.308 115.778 197 215 255
165.702 166.032 104.851 191 211 255
99.9854 110.601 106.008 214 225 255
119.359 70.3457 122.209 210 223 255
111.487 132.617 114.444 211 223 255
47.6908 69.1051 108.031 213 225 255
179.448 39.3234 114.153 205 220 255
142.926 30.0748 111.872 191 211 255
102.531 182.071 114.324 200 217 255
118.026 0.898465 120.31 185 207 255
71.8167 40.9813 107.087 200 217 255
92.852 173.781 111.111 214 225 255
161.492 115.321 99.9207 206 220 255
114.364 123.847 125.839 246 244 255
97.8119 105.408 105.322 199 216 255
212.204 65.4361 93.0326 206 221 255
66.223 132.808 103.734 191 211 255
93.3896 194.852 112.064 199 216 255
185.115 18.0429 114.208 192 212 255
96.337 132.084 107.956 207 221 255
103.855 154.443 101.928 197 215 255
118.612 112.971 110.953 249 246 255
105.919 195.154 113.549 198 215 255
126.005 108.179 120.251 217 227 255
93.7046 173.58 110.707 191 211 255
67.0229 78.0022 111.148 192 212 255
76.5064 174.222 115.43 219 228 255
110.57 141.959 120.491 255 247 239
93.5022 172.931 110.327 196 215 255
61.1496 77.4622 125.481 197 215 255
93.7068 173.569 110.702 217 227 255
137.885 25.0862 111.863 211 223 255
100.984 126.001 115.353 204 219 255
8.29702 112.378 114.004 189 210 255
213.984 25.2225 112.743 191 211 255
93.7097 173.552 110.692 185 208 255
103.5 125.854 105.011 255 204 162
69.008 150.706 127.897 255 250 255
111.262 173.006 110.671 183 206 255
93.7141 173.522 110.675 255 225 201
99.6461 191.065 115.478 189 210 255
67.4998 51.6283 89.6047 231 235 255
93.6947 173.617 110.723 255 225 201
165.064 107.831 112.864 201 217 255
125.777 91.7898 120.931 222 230 255
34.7668 174.876 115.475 200 217 255
114.924 139.048 120.751 242 241 255
80.0135 51.465 104.111 206 220 255
74.6507 151.093 114.883 255 232 214
104.315 154.927 110.369 255 242 231
102.223 103.203 116.52 255 218 188
113.639 79.6439 109.487 224 231 255
117.802 117.824 105.475 234 237 255
100.062 26.202 112.46 194 213 255
108.718 107.031 112.772 255 243 232
93.7036 173.584 110.709 207 221 255
129.681 74.2242 109.202 213 224 255
109.57 14.9188 98.4393 192 212 255
93.7198 173.508 110.671 221 230 255
103.357 194.014 140.263 181 205 255
66.6597 83.8191 113.427 233 236 255
125.063 66.0169 118.467 190 211 255
132.599 43.7032 117.299 223 231 255
161.157 132.989 110.772 216 227 255
73.0079 24.7516 126.148 205 220 255
65.9375 132.474 100.335 231 235 255
19.9855 75.9889 115.021 184 207 255
93.7105 173.547 110.69 205 220 255
128.721 166.023 137.681 188 209 255
80.85 94.6867 112.599 200 217 255
93.7016 173.592 110.713 200 217 255
104.248 165.875 108.719 188 209 255
93.6606 173.647 110.75 186 208 255
110.882 79.8569 112.909 255 245 234
109.764 103.731 110.235 255 124 0
51.3153 90.9028 110.462 200 217 255
93.6936 173.613 110.727 201 218 255
93.7166 173.499 110.659 213 225 255
117.459 79.5714 114.226 217 227 255
178.097 101.913 124.1 181 205 255
113.053 50.0092 116.086 250 246 255
53.3597 26.3323 125.889 192 212 255
106.375 216.506 137.143 175 201 255
85.8983 144.073 118.318 195 214 255
93.7173 173.738 110.799 255 234 216
182.512 67.5251 110.374 198 216 255
173.649 26.2696 110.782 210 223 255
86.3386 133.95 113.662 212 224 255
71.42 133.818 106.428 201 218 255
109.431 109.259 132.572 217 227 255
163.617 2.96139 107.416 192 212 255
136.044 135.498 113.378 201 217 255
66.9705 40.4963 83.3301 191 211 255
110.425 128.58 119.568 241 241 255
55.1177 123.867 105.281 213 225 255
46.2094 192.702 110.73 178 203 255
47.6638 84.385 103.191 212 224 255
110.48 116.86 116.355 255 234 216
132.295 121.932 104.034 255 230 210
120.594 132.619 107.669 218 228 255
93.7132 173.528 110.679 186 208 255
93.7056 173.578 110.704 255 248 241
51.3172 35.3559 76.2994 192 212 255
93.6009 174.261 111.152 223 231 255
141.338 93.2504 117.174 200 217 255
131.681 70.1874 110.224 189 210 255
115.973 110.868 89.5641 255 169 93
161.003 109.714 111.669 192 212 255
115.019 103.965 99.8148 234 237 255
104.384 130.395 108.849 239 240 255
50.9017 154.359 94.8645 229 234 255
198.116 44.2446 111.546 176 202 255
93.6113 173.108 110.321 208 221 255
106.787 118.738 97.3219 221 229 255
219.747 138.712 118.539 202 218 255
58.5649 124.472 140.28 255 244 234
165.143 48.9544 109.886 210 223 255
120.937 159.162 110.969 203 219 255
104.978 143.625 105.119 232 236 255
111.082 200.894 110.609 205 220 255
63.9888 32.0428 108.101 194 213 255
123.162 128.168 117.223 255 227 205
99.3949 112.444 125.698 199 216 255
129.425 86.0482 105.638 247 245 255
116.132 154.115 106.652 255 211 176
210.979 118.374 115.289 186 208 255
52.5509 186.264 110.291 202 218 255
93.6457 173.693 110.733 255 251 255
168.166 158.858 117.78 186 208 255
111.299 143.406 102.722 195 214 255
71.788 81.7548 113.565 208 222 255
93.268 70.4395 113.197 198 215 255
63.0174 65.8336 115.006 203 219 255
154.923 136.665 115.089 205 220 255
61.7477 133.657 94.4929 202 218 255
93.7073 173.567 110.7 220 229 255
139.109 59.3866 163.796 206 220 255
93.717 173.493 110.656 219 228 255
183.719 73.898 113.168 255 253 248
106.524 117.241 111.775 222 230 255
75.4896 138.278 121.842 204 219 255
93.7036 173.584 110.709 255 235 218
150.413 101.973 109.991 196 214 255
102.51 103.926 113.373 200 217 255
215.954 123.704 120.447 186 208 255
131.287 95.2163 100.048 255 228 206
100.669 167.961 137.063 186 208 255
67.0242 71.3401 110.984 195 214 255
61.6712 64.8211 113.174 229 234 255
169.29 159.897 103.486 186 208 255
101.295 102.266 108.246 249 246 255
99.2216 94.9173 121.435 203 218 255
58.8051 35.8017 111.699 192 212 255
120.331 88.5562 101.376 207 221 255
13.1717 123.272 115.935 207 221 255
98.8768 205.525 103.864 200 217 255
43.278 38.9507 138.833 206 221 255
54.038 66.2595 102.764 219 229 255
83.0845 95.1302 110.834 187 209 255
87.8613 144.786 109.209 187 208 255
99.5662 93.7477 108.307 199 216 255
108.355 131.829 115.973 255 199 153
71.9118 186.641 113.961 208 221 255
61.5136 144.304 125.613 188 209 255
103.833 101.504 110.948 255 125 0
144.953 147.795 107.407 185 208 255
132.59 125.776 114.238 204 219 255
108.618 109.434 109.734 214 225 255
103.742 108.868 111.283 255 227 204
130.48 110.141 112.284 208 222 255
111.298 120.777 111.887 255 103 0
133.19 73.1353 114.01 206 220 255
122.914 119.317 110.585 224 231 255
175.394 183.565 111.854 197 215 255
210.143 90.626 107.99 191 211 255
115.62 104.486 106.767 195 213 255
65.0619 22.8498 143.583 191 211 255
73.3127 36.6875 110.318 186 208 255
95.4419 89.3516 98.9231 195 214 255
108.905 102.626 106.465 255 167 88
73.8959 173.487 111.853 208 222 255
67.6699 35.7137 114.015 255 254 250
93.7354 173.521 110.684 206 220 255
104.216 101.343 111.113 255 221 195
93.7041 173.535 110.683 217 227 255
169.867 150.839 97.9768 255 244 234
84.9618 34.3264 109.279 196 214 255
81.1539 216.271 111.22 195 214 255
60.1922 54.113 122.088 218 228 255
75.4649 56.9067 111.791 255 253 249
65.0981 124.165 113.281 255 109 0
122.666 81.7582 125.312 230 235 255
188.156 158.419 97.275 205 220 255
111.674 133.064 109.756 199 216 255
76.5669 116.223 112.148 198 216 255
93.594 173.7 110.851 225 232 255
113.971 163.942 114.318 216 227 255
84.118 75.6897 113.092 245 243 255
64.9315 121.153 113.793 216 226 255
125.954 122.735 108.278 255 206 167
120.969 112.408 117.828 255 244 233
199.647 37.0682 111.88 191 211 255
103.71 106.868 106.177 255 192 141
99.3171 189.082 112.664 201 218 255
93.7113 173.542 110.687 255 239 226
157.483 181.474 98.4877 196 214 255
48.554 178.59 110.241 204 219 255
81.1751 82.1258 113.522 200 217 255
129.594 73.2929 109.188 201 217 255
162.46 70.5189 115.091 192 212 255
93.7027 173.591 110.712 195 214 255
106.256 130.683 112.685 230 234 255
92.6681 10.6986 71.8608 198 216 255
104.964 154.665 108.519 195 214 255
109.214 170.71 112.742 194 213 255
93.7377 173.394 110.565 198 215 255
93.7033 173.586 110.71 222 230 255
109.543 121.1 113.71 240 240 255
53.9926 202.433 111.772 188 210 255
198.841 147.878 115.877 184 207 255
163.795 118.451 111.096 230 235 255
95.1688 152.931 116.916 204 219 255
123.509 99.4382 92.5781 199 216 255
106.433 157.458 104.444 236 238 255
153.309 105.229 115.036 199 216 255
76.9769 82.7701 114.184 201 218 255
56.8573 48.2675 99.3256 202 218 255
111.687 128.368 100.962 241 241 255
106.894 4.78767 121.708 198 215 255
66.6998 141.813 112.726 201 217 255
133.255 80.2266 118.614 199 216 255
93.6406 173.51 110.651 214 225 255
120.659 81.9447 115.614 224 231 255
109.004 108.334 130.014 255 161 76
93.7319 173.956 110.772 250 246 255
104.313 129.353 113.698 255 232 213
180.477 16.326 121.188 180 204 255
107.421 75.4988 98.597 196 215 255
78.8609 93.1472 113.365 204 219 255
112.744 119.769 104.873 203 219 255
151.291 109.873 110.049 238 239 255
156.457 105.25 125.718 206 221 255
27.5113 143.249 111.607 191 212 255
187.788 76.6021 111.321 207 221 255
91.8961 94.0267 109.623 217 227 255
88.3415 86.37 112.188 221 230 255
35.9857 59.3661 113.957 187 208 255
17.3879 87.8852 85.8674 190 210 255
122.679 126.77 114.037 255 247 239
92.7781 175.143 112.068 228 233 255
85.2903 140.475 113.337 193 212 255
61.4314 89.3575 112.621 211 223 255
86.715 189.903 109.998 192 212 255
106.373 128.064 106.556 255 253 248
141.121 124.43 112.237 255 225 201
111.892 174.04 110.554 202 218 255
129.379 84.9578 108.836 204 219 255
126.23 117.183 110.464 236 238 255
116.638 118.693 94.9904 199 216 255
93.7152 173.511 110.668 247 245 255
105.082 17.4944 104.69 191 211 255
127.967 80.5711 128.38 255 236 220
119.028 123.077 106.642 255 235 218
191.356 126.735 85.7202 206 220 255
96.9415 113.29 113.284 255 229 208
93.6663 173.578 110.781 255 250 244
115.604 110.111 118.435 255 252 247
112.956 160.843 111.387 212 224 255
55.6778 58.7845 118.598 200 217 255
93.7078 173.564 110.699 213 225 255
49.3456 89.2654 108.872 196 214 255
94.1261 161.033 106.853 214 225 255
143.877 130.01 111.597 254 248 255
108.799 155.232 108.1 183 206 255
94.036 198.264 159.36 216 227 255
104.084 114.359 130.279 255 144 34
126.671 110.54 115.971 255 249 243
91.9833 166.068 107.237 255 236 221
128.625 119.561 107.401 255 239 224
141.411 101.809 113.031 233 237 255
84.0194 140.727 114.868 212 224 255
93.7028 173.587 110.711 225 232 255
93.7046 173.569 110.683 193 212 255
92.1044 107.721 107.824 255 247 239
119.696 114.32 89.7524 255 224 199
218.971 60.1858 112.626 193 213 255
92.8743 155.63 118.155 255 249 255
99.5645 104.915 110.827 232 236 255
117.339 149.152 106.578 199 216 255
112.856 23.2481 110.647 204 219 255
182.977 150.924 116.476 181 205 255
158.929 88.31 99.7806 196 214 255
76.772 161.896 109.026 202 218 255
93.586 173.762 110.104 255 233 215
60.5851 119.243 98.9033 200 217 255
42.0652 139.55 109.855 195 214 255
128.758 105.295 127.43 219 228 255
109.198 128.359 111.83 255 187 130
93.715 173.474 110.642 215 226 255
167.051 35.5026 110.847 214 225 255
93.7164 173.491 110.643 255 249 241
63.9848 79.9169 110.353 255 222 195
40.5182 163.041 113.654 211 223 255
113.669 130.854 104.446 205 220 255
93.9218 173.384 110.584 201 217 255
17.7465 136.498 111.988 187 209 255
110.686 108.752 116.34 207 221 255
89.8931 143.265 108.469 255 215 184
47.9973 96.054 63.9523 226 233 255
104.746 36.8897 113.821 204 219 255
93.6234 173.672 110.752 221 229 255
209.912 14.7399 110.857 187 209 255
90.9826 135.555 117.086 201 217 255
185.785 182.319 153.157 199 216 255
100.985 100.627 116.773 255 224 199
76.1379 207.639 95.5872 187 209 255
114.148 158.056 111.839 194 213 255
27.5174 134.976 116.96 192 212 255
73.3089 130.636 117.409 183 206 255
122.924 107.637 108.888 255 241 229
66.3727 196.139 112.012 199 216 255
113.904 144.511 110.86 199 216 255
132.312 93.3236 113.401 255 219 191
147.873 178.643 108.875 194 213 255
113.346 116.24 120.322 196 214 255
93.7422 173.418 110.597 223 231 255
140.133 124.949 111.142 211 223 255
93.7097 173.553 110.692 187 209 255
115.316 51.0472 116.09 237 239 255
151.789 21.0069 111.96 206 220 255
174.449 140.454 99.6439 200 217 255
93.2635 166.163 126.785 255 246 237
127.745 115.71 107.096 255 174 104
173.425 98.7936 114.793 196 214 255
119.339 89.4499 110.459 255 230 210
154.685 141.467 129.916 195 214 255
159.855 170.21 104.696 199 216 255
141.793 118.965 113.618 255 235 219
107.272 107.526 106.254 250 246 255
71.3874 65.3751 111.207 207 221 255
206.741 193.562 8.52844 202 218 255
88.0968 78.8948 112.149 234 237 255
109.625 124.799 108.814 255 183 121
126.974 83.3722 143.926 196 215 255
118.368 111.648 119.288 255 251 245
93.7092 173.555 110.694 255 206 168
143.12 146.823 115.639 255 251 245
93.7205 173.732 110.737 241 241 255
224.738 105.563 119.702 202 218 255
106.281 24.5193 119.683 199 216 255
174.012 75.9059 56.4777 205 220 255
93.712 173.535 110.682 255 235 218
161.231 100.577 117.766 235 237 255
29.1319 123.903 114.824 202 218 255
93.7117 173.54 110.685 210 223 255
58.5514 166.508 119.319 226 233 255
94.0263 172.758 110.03 255 204 163
69.0552 44.441 121.378 213 225 255
48.7485 202.107 110.619 186 208 255
114.492 167.959 111.064 181 205 255
45.9014 80.3667 116.132 187 209 255
74.2932 171.637 114.61 199 216 255
93.7059 173.574 110.704 185 207 255
118.269 128.574 106.39 230 235 255
139.309 84.1763 104.318 255 249 255
142.254 39.7768 113.57 194 213 255
93.7248 173.637 110.736 255 250 243
37.8763 203.011 117.507 183 206 255
162.778 133.233 143.138 251 246 255
112.293 102.389 105.573 217 227 255
10.096 188.24 124.03 186 208 255
64.0432 102.53 115.799 211 223 255
93.7106 173.547 110.689 207 221 255
111.321 107.56 116.789 255 242 230
35.0565 85.6765 115.468 218 228 255
156.598 64.4453 124.948 243 242 255
92.4634 175.945 110.97 255 249 242
123.101 127.882 100.288 250 246 255
131.015 86.0002 110.382 197 215 255
77.8735 142.562 102.428 227 233 255
95.6049 165.609 106.312 255 241 229
61.772 40.9911 105.641 193 212 255
94.0638 172.872 110.451 255 231 211
88.0043 177.71 105.976 209 223 255
93.9695 174.561 110.932 202 218 255
123.889 165.865 112.593 217 227 255
86.0579 144.524 131.572 255 242 231
96.9656 164.213 117.205 200 217 255
80.5121 94.1126 113.222 255 237 222
93.7186 173.424 110.619 212 224 255
63.5925 66.3133 126.388 209 222 255
102.058 115.193 121.178 255 182 121
72.45 46.4479 113.59 202 218 255
120.739 103.602 106 220 229 255
162.654 175.451 110.917 238 239 255
13.6755 189.44 109.709 180 204 255
111.267 128.3 96.0137 255 250 244
60.4945 183.017 109.145 208 221 255
126.364 122.608 109.286 248 245 255
17.8762 106.615 109.91 182 205 255
107.091 163.679 122.532 255 154 58
145.7 154.075 107.702 195 213 255
29.0546 182.461 112.592 183 206 255
127.487 13.3325 117.5 200 217 255
119.352 40.2928 115.654 199 216 255
156.603 137.105 111.67 218 228 255
149.458 35.1608 114.174 189 210 255
93.7131 173.529 110.679 200 217 255
93.7039 173.583 110.709 202 218 255
135.085 25.6772 112.246 189 210 255
101.214 152.394 124.924 255 242 231
61.3988 62.1813 130.06 211 224 255
98.5345 78.1259 108.445 255 221 193
67.9001 100.687 112.127 189 210 255
105.954 107.494 115.148 255 248 240
146.98 76.7101 113.869 200 217 255
17.5039 157.552 116.266 195 214 255
127.007 166.258 117.285 194 213 255
178.362 41.2777 110.052 216 227 255
70.7666 131.343 105.432 218 228 255
42.4019 128.542 102.831 213 225 255
94.9 101.526 117.283 255 239 224
158.126 112.829 106.919 200 217 255
121.841 120.872 95.5558 255 177 111
120.727 180.257 113.556 255 252 246
222.245 73.4419 111.719 188 209 255
86.0001 133.003 111.88 255 242 230
136.534 113.578 101.344 179 204 255
125.177 97.8583 112.55 227 233 255
120.93 83.7534 113.139 208 222 255
149.469 45.7545 117.765 230 235 255
93.7448 173.565 110.806 228 234 255
118.36 131.396 106.865 209 222 255
166.313 117.288 109.263 255 241 228
103.709 100.398 103.957 255 233 215
41.0924 78.7981 115.834 219 228 255
110.95 121.242 111.071 255 0 0
113.107 24.529 111.722 255 253 248
68.1548 53.7997 110.784 189 210 255
93.7077 173.577 110.704 214 225 255
112.963 117.857 106.532 213 225 255
179.639 155.65 112.475 194 213 255
93.7303 173.623 110.719 184 207 255
102.377 177.047 121.161 200 217 255
93.7154 173.505 110.664 211 224 255
98.6172 179.689 118.897 222 230 255
93.716 173.506 110.665 255 237 222
106.61 86.9676 124.285 206 220 255
104.502 105.3 119.692 215 226 255
125.929 113.715 98.8519 255 218 189
105.399 115.271 120.73 255 253 248
142.716 93.4214 110.715 223 231 255
111.701 123.54 103.399 227 233 255
78.5489 83.4408 109.898 218 228 255
116.548 105.125 117.324 214 225 255
66.0104 131.96 110.204 188 209 255
109.618 128.375 116.123 248 245 255
113.655 102.653 103.756 240 240 255
59.5876 131.555 95.6954 203 219 255
125.52 22.0214 110.532 210 223 255
147.412 111.657 110.525 214 225 255
110.427 88.4459 110.907 227 233 255
93.7123 173.536 110.683 255 246 237
59.2331 89.9927 119.323 193 213 255
111.599 153.93 122.614 255 205 165
111.202 99.6723 114.454 255 244 234
217.275 116.179 117.099 194 213 255
83.3894 81.043 110.886 196 214 255
93.7045 173.58 110.707 193 212 255
148.959 101.092 109.496 196 214 255
113.992 158.136 112.736 205 220 255
161.49 29.7617 111.781 218 228 255
89.7224 131.257 112.345 255 253 248
57.3525 146.34 118.115 201 217 255
93.9803 174.851 110.695 190 211 255
173.856 95.5474 117.088 192 212 255
212.321 44.6391 106.019 190 211 255
82.3345 55.1332 112.948 195 214 255
56.5192 139.513 101.491 255 226 203
71.8939 131.665 107.19 202 218 255
184.781 182.526 107.628 189 210 255
76.8436 45.0354 112.592 197 215 255
113.138 178.814 113.384 182 205 255
101.741 173.997 108.124 192 212 255
93.7676 173.951 110.332 204 219 255
204.413 137.971 110.833 186 208 255
130.066 75.7551 122.504 255 200 156
118.499 129.725 105.389 216 226 255
93.6999 173.44 110.701 255 238 224
109.167 95.6866 126.388 255 225 202
183.954 139.862 108.731 208 222 255
93.7062 173.572 110.703 196 214 255
130.518 157.138 119.81 188 209 255
110.226 214.051 116.611 179 203 255
114.512 94.7899 108.67 255 251 255
93.7094 173.554 110.694 219 228 255
99.3065 102.142 120.011 200 217 255
127.514 24.4905 114.969 212 224 255
110.347 102.231 127.899 255 237 222
141.387 138.615 102.381 187 209 255
196.911 63.5109 109.707 236 238 255
149.038 92.5978 105.062 194 213 255
118.462 151.215 107.084 198 216 255
40.9974 46.1714 114.147 185 207 255
126.957 76.0944 110.3 255 250 255
100.941 146.349 113.241 255 220 192
160.583 120.105 112.705 204 219 255
78.4295 201.14 111.56 201 218 255
4.00948 159.563 113.339 202 218 255
113.338 146.944 113.083 219 228 255
103.672 202.305 106.789 206 221 255
105.677 125.26 118.819 244 243 255
138.906 95.0136 83.4986 209 222 255
159.366 113.069 107.634 220 229 255
93.7253 173.514 110.663 203 219 255
63.679 49.8582 117.286 204 220 255
37.3404 208.075 128.105 194 213 255
94.2114 186.044 101.828 208 222 255
105.542 91.3561 113.59 255 243 232
190.708 152.588 116.964 198 216 255
108.21 8.49364 88.8347 197 215 255
212.915 140.652 115.581 189 210 255
128.529 114.442 116.551 255 244 233
146.193 89.4281 116.442 207 221 255
107.75 106.161 107.452 216 226 255
170.745 46.1831 116.651 210 223 255
118.176 43.5482 115.126 198 216 255
136.944 156.263 109.241 194 213 255
171.63 87.2446 146.071 195 214 255
84.6344 55.8845 112.822 255 246 237
93.7076 173.565 110.699 196 214 255
111.022 103.235 117.487 255 217 187
124.711 109.164 109.368 255 250 243
119.709 98.3493 114.512 206 221 255
116.136 90.8632 118.444 255 248 240
220.978 98.2652 109.223 193 213 255
115.9 124.804 110.255 255 249 242
93.7082 173.562 110.697 194 213 255
95.9573 106.258 106.757 204 219 255
93.7513 173.618 110.728 203 219 255
81.6464 112.566 112.916 255 218 188
137.783 135.222 113.215 255 234 217
194.481 71.6351 115.504 200 217 255
132.025 9.06133 103.282 194 213 255
137.026 96.8364 114.087 229 234 255
190.15 97.6401 108.606 187 209 255
210.638 29.4725 114.481 215 226 255
114.089 117.99 117.224 255 214 182
51.7764 155.406 114.282 191 212 255
132.952 108.384 111.788 255 225 200
105.795 106.635 110.277 212 224 255
106.651 141.659 113.18 255 246 237
140.74 168.08 137.267 188 209 255
93.7174 173.463 110.629 206 221 255
166.496 95.1612 89.3169 253 248 255
68.1836 121.31 107.934 198 216 255
112.459 130.725 107.21 222 230 255
134.03 82.8126 120.995 214 225 255
114.541 121.068 128.838 208 222 255
93.6689 173.696 110.731 201 217 255
100.802 82.7038 112.079 215 226 255
90.7876 23.7094 86.8665 194 213 255
116.287 98.4739 117.83 255 249 255
126.537 67.7754 120.974 196 214 255
166.713 81.9607 111.207 190 211 255
116.527 127.535 97.9505 255 231 211
71.1747 136.197 113.03 243 242 255
100.678 123.999 115.053 214 225 255
123.715 132.924 110.378 226 233 255
92.5041 136.463 98.9153 203 219 255
69.3441 166.802 125.862 211 224 255
120.103 116.092 115.286 255 222 196
112.115 123.033 132.162 255 236 219
93.7051 173.578 110.706 195 214 255
139 90.1765 112.298 212 224 255
93.7147 173.515 110.67 184 207 255
81.5028 97.4953 112.89 195 213 255
102.442 122.297 116.741 206 220 255
93.7115 173.485 110.652 209 222 255
6.8133 109.595 107.279 195 214 255
117.553 39.3834 111.329 209 222 255
200.203 105.431 91.6985 234 237 255
215.633 128.906 109.452 179 204 255
83.1088 99.5345 113.594 209 222 255
133.025 62.4708 116.737 191 211 255
103.012 99.6295 108.224 255 201 157
93.7041 173.626 110.721 252 247 255
60.0564 125.699 119.038 219 229 255
124.539 128.806 110.753 255 248 239
93.7133 173.545 110.686 247 244 255
