ply
format ascii 1.0
element vertex 1341
property float x
property float y
property float z
property uchar red
property uchar green
property uchar blue
end_header
218.974 61.6688 110.777 196 214 255
106.634 118.095 118.487 255 248 240
129.219 172.192 111.924 200 217 255
100.494 23.8641 112.071 235 238 255
102.866 8.09633 115.196 200 217 255
109.461 112.399 110.343 255 209 173
134.251 106.163 114.863 255 245 235
91.175 108.405 110.722 255 249 241
124.575 66.3728 122.351 214 226 255
96.6937 140.236 111.718 255 245 236
99.0004 145.826 113.081 214 226 255
148.981 156.047 133.393 200 217 255
5.1723 101.623 108.054 212 224 255
110.785 72.1583 111.903 197 215 255
114.579 134.349 109.958 236 238 255
135.529 173.228 112.656 225 232 255
83.618 153.006 115.416 255 254 250
122.045 124.282 107.83 196 214 255
203.37 165.854 118.491 182 205 255
70.9894 75.5072 114.681 189 210 255
136.695 169.927 102.248 207 221 255
49.4575 196.165 164.169 202 218 255
92.9821 173.578 111.201 252 247 255
19.5105 195.373 118.142 202 218 255
110.309 113.134 112.09 255 183 123
109.981 97.5423 111.649 255 200 155
127.683 119.283 113.326 188 209 255
115.506 78.0413 94.2107 201 218 255
115.787 70.75 115.539 255 242 230
93.2336 173.639 111.152 197 215 255
203.23 162.396 118.326 185 208 255
143.334 103.816 111.454 255 239 224
93.2234 173.564 111.215 231 235 255
93.3264 173.762 110.996 222 230 255
48.5405 104.147 100.702 210 223 255
109.545 116.43 107.146 255 192 141
95.6611 190.278 112.363 184 207 255
197.925 121.486 118.188 193 213 255
121.172 80.1211 114.475 196 214 255
112.84 117.784 125.602 255 238 224
59.6399 97.4148 112.016 208 222 255
93.3275 174.246 110.889 217 227 255
93.3029 173.703 111.103 195 214 255
128.268 41.7779 109.876 203 218 255
54.5483 24.1207 133.888 255 253 248
156.033 155.493 114.251 213 225 255
122.681 90.9878 113.215 255 235 218
175.624 106.889 114.039 201 217 255
113.542 116.737 111.59 255 250 244
111.677 173.126 110.812 212 224 255
140.066 161.786 114.117 196 214 255
87.6732 132.363 98.468 198 215 255
125.322 118.56 112.264 255 249 242
76.4487 107.169 110.726 255 220 193
77.8622 154.521 116.053 202 218 255
93.8688 153.602 111.759 255 240 227
171.26 135.664 111.411 193 212 255
104.166 120.687 116.215 236 238 255
125.185 129.22 109.445 195 214 255
83.9153 121.869 112.888 255 249 255
93.8673 173.041 109.642 190 211 255
98.9076 171.181 110.688 240 240 255
109.942 107.587 114.046 255 241 228
34.2116 47.0419 113.143 193 213 255
110.622 130.097 111.719 255 241 229
109.726 112.244 114.885 255 255 251
57.327 60.7513 94.1111 201 218 255
56.862 219.011 110.618 187 209 255
106.428 131.161 111.496 228 233 255
113.686 116.127 114.096 217 227 255
115.487 110.064 114.788 203 219 255
112.087 123.428 106.915 255 195 146
113.663 125.049 109.863 255 239 225
196.704 176.658 115.927 195 214 255
148.593 48.6545 112.812 194 213 255
172.838 151.194 114.492 204 219 255
145.203 8.50021 169.499 188 209 255
120.288 175.76 113.002 193 213 255
121.1 115.603 102.711 255 235 219
139.575 34.5275 109.601 205 220 255
104.739 168.567 108.56 197 215 255
102.724 199.736 113.057 188 209 255
104.071 149.781 121.924 233 237 255
100.289 183.249 111 205 220 255
119.756 118.213 102.471 255 237 222
111.813 50.1667 115.048 200 217 255
56.7214 92.4176 103.021 189 210 255
49.4079 72.4502 105.154 197 215 255
109.558 18.8927 112.475 193 213 255
94.5677 27.3534 101.986 192 212 255
100.927 222.744 120.098 191 211 255
154.505 136.842 114.333 192 212 255
79.3505 207.78 112.302 187 209 255
93.9254 166.561 110.268 255 183 122
185.425 41.2755 110.939 199 216 255
109.053 110.994 125.73 255 194 144
93.2384 173.645 111.148 203 219 255
100.579 173.499 106.215 245 243 255
114.698 186.695 113.351 200 217 255
89.5071 106.274 113.375 187 209 255
108.57 118.19 107.84 255 250 243
131.282 77.6021 131.135 255 252 246
119.608 114.116 111.723 218 228 255
58.3312 43.7138 89.976 185 208 255
93.194 173.563 111.202 223 230 255
115.558 168.915 111.194 212 224 255
101.883 138.896 112.069 221 230 255
110.716 118.236 112.172 201 217 255
112.972 127.649 113.299 255 228 207
156.547 92.7546 124.025 251 247 255
154.206 147.104 111.754 207 221 255
172.395 38.6666 113.707 192 212 255
119.759 115.473 115.637 216 226 255
39.0966 94.3571 108.423 209 222 255
154.977 168.276 80.8263 227 233 255
93.2418 173.649 111.145 211 224 255
95.2056 175.152 109.822 215 226 255
142.449 21.3614 111.767 214 225 255
18.3317 181.724 108.482 186 208 255
88.8571 38.705 114.043 190 211 255
169.373 111.78 114.21 192 212 255
112.125 82.4757 115.628 227 233 255
86.0876 61.1243 114.393 219 229 255
117.65 138.748 102.761 226 232 255
119.312 81.3324 121.42 220 229 255
119.321 117.478 116.256 255 160 73
111.568 105.715 119.531 255 244 234
26.763 102.887 107.441 184 207 255
50.6674 107.717 102.828 187 209 255
113.016 116.302 113.508 255 179 115
174.675 117.441 114.894 204 219 255
166.349 128.214 111.476 203 219 255
107.048 115.664 116.127 246 244 255
91.3559 58.5507 111.061 196 215 255
83.7228 184.012 105.103 207 221 255
103.009 111.511 112.224 255 251 245
109.51 120.805 113.681 255 228 206
50.5756 213.595 114.714 183 206 255
86.2903 63.4679 110.151 213 225 255
99.542 162.585 120.76 203 219 255
147.194 34.3521 112.176 191 211 255
86.2434 47.9805 111.899 187 209 255
93.2391 173.646 111.147 191 211 255
56.892 111.49 102.068 202 218 255
109.484 113.042 112.416 239 240 255
93.561 178.075 109.358 201 217 255
93.3398 166.513 108.319 220 229 255
93.2282 173.631 111.156 220 229 255
93.2522 173.541 111.02 214 225 255
151.831 80.1164 115.416 238 239 255
93.3453 173.638 111.087 201 217 255
147.446 78.1923 127.739 226 232 255
63.5756 98.838 110.287 214 226 255
74.2188 56.0203 114.302 200 217 255
173.108 55.6626 114.363 186 208 255
68.3787 155.274 115.16 220 229 255
108.527 97.1839 113.44 207 221 255
129.54 114.711 111.59 226 232 255
56.3189 79.7583 112.434 247 244 255
50.3115 117.27 102.729 219 228 255
93.2184 173.604 111.185 246 244 255
172.232 63.3586 111.715 193 212 255
117.058 120.551 109.152 255 239 226
130.863 3.30011 114.258 191 211 255
132.989 98.597 125.164 255 243 231
97.5419 76.807 112.442 215 226 255
96.5744 40.8134 112.59 189 210 255
201.772 56.5253 113.3 191 211 255
111.579 162.76 108.231 192 212 255
128.299 195.703 142.923 184 207 255
84.8744 142.501 110.628 218 227 255
58.7221 122.915 115.47 205 220 255
188.44 184.979 113.534 189 210 255
79.3796 202.166 93.9706 255 233 216
93.0918 174.444 110.635 216 226 255
60.4533 98.4042 124.272 193 213 255
111.826 114.404 113.952 209 222 255
18.9305 72.1614 112.332 190 211 255
78.703 72.4112 110.086 194 213 255
129.416 77.0232 114.459 246 244 255
107.592 128.714 95.8686 255 249 255
104.38 14.379 109.63 190 210 255
72.0758 141 120.733 196 214 255
145.947 101.262 113.111 255 249 242
153.625 97.0181 116.048 207 221 255
138.103 82.377 112.272 255 251 245
65.8199 136.599 113.021 209 222 255
61.696 61.1395 112.073 211 224 255
160.667 102.111 118.325 192 212 255
163.728 29.449 114.135 189 210 255
112.061 113.673 109.382 255 207 168
180.306 19.8092 110.729 195 214 255
113.568 129.833 122.382 255 213 180
169.222 158.891 123.702 241 241 255
93.2349 173.641 111.15 249 246 255
188.987 176.876 115.296 187 209 255
84.1888 54.2716 107.627 255 250 243
184.666 44.3233 116.631 199 216 255
103.532 65.9395 115.288 229 234 255
26.1573 188.804 111.291 185 208 255
81.0751 101.713 112.753 238 239 255
149.475 113.859 91.9007 198 215 255
157.4 96.9742 109.026 255 224 199
97.5891 171.256 111.447 218 228 255
93.4698 174.587 111.095 215 226 255
109.925 125.353 110.924 203 219 255
60.4965 61.4778 106.935 255 239 226
56.6315 79.6297 112.06 212 224 255
110.998 119.608 119.631 255 218 189
86.914 153.583 109.716 219 229 255
112.316 123.434 109.36 255 248 240
186.72 52.7991 112.545 198 215 255
50.1557 158.934 111.798 192 212 255
182.542 37.1959 112.827 190 210 255
198.371 148.784 116.299 213 225 255
93.2357 173.642 111.15 255 228 206
145.786 102.374 116.019 237 238 255
109.034 120.923 107.741 238 240 255
176.001 94.072 107.367 214 225 255
96.0408 96.5702 108.14 255 219 190
153.676 164.36 111.663 214 225 255
53.3489 106.273 106.568 209 222 255
146.407 2.54902 109.164 197 215 255
121.076 92.1145 113.434 225 232 255
64.6601 105.239 110.119 245 243 255
124.502 130.313 109.253 255 251 255
101.889 49.0857 112.116 203 219 255
168.681 65.7472 128.79 207 221 255
127.85 105.563 113.021 203 219 255
105.738 118.263 110.95 205 220 255
167.673 153.484 119.229 215 226 255
55.1086 45.4038 119.829 186 208 255
140.718 149.911 111.198 195 214 255
93.2129 173.551 111.206 193 213 255
74.6691 120.411 112.593 209 222 255
107.118 111.936 117.258 255 243 232
109.528 104.573 113.608 209 222 255
119.213 102.552 108.704 201 217 255
85.061 125.427 111.492 200 217 255
107.685 105.568 111.769 245 243 255
139.178 118.77 114.164 208 222 255
102.636 82.1876 109.931 253 248 255
101.527 131.927 111.331 255 210 174
170.019 115.639 106.795 194 213 255
114.305 120.648 110.157 255 235 218
117.035 135.494 117.288 222 230 255
64.3415 103.887 114.462 228 234 255
138.5 77.2295 112.365 203 219 255
153.62 127.315 114.264 232 236 255
48.9602 125.251 110.938 251 247 255
105.293 107.025 107.694 255 228 206
115.022 117.208 106.957 255 219 191
84.9528 105.093 113.567 192 212 255
119.544 143.37 110.395 231 235 255
58.9635 48.7948 105.29 178 203 255
93.1265 173.58 111.546 196 215 255
111.491 121.857 106.227 255 234 216
66.6386 29.8627 106.651 192 212 255
116.865 113.777 114.173 246 244 255
127.407 73.5971 119.676 219 228 255
91.7834 54.8216 114.33 221 229 255
106.975 28.8623 112.797 207 221 255
108.531 24.711 136.766 192 212 255
85.1008 155.318 107.932 221 230 255
141.295 116.002 111.517 211 224 255
80.5981 104.607 111.933 255 190 136
166.551 118.098 109.836 194 213 255
60.3047 192.887 114.651 176 202 255
87.6393 192.985 109.853 199 216 255
112.336 115.593 111.616 247 245 255
102.604 127.487 112.123 245 243 255
222.056 73.5397 116.241 192 212 255
129.669 187.441 137.798 193 213 255
131.827 208.499 128.049 210 223 255
114.21 73.8584 114.48 200 217 255
103.743 65.7863 111.565 196 215 255
100.449 115.519 111.304 255 199 154
120.766 114.41 111.439 255 250 243
105.677 104.339 117.408 255 239 225
175.238 45.4813 111.287 194 213 255
25.1096 117.098 114.601 185 207 255
104.469 161.843 106.832 222 230 255
93.2267 173.629 111.158 226 232 255
144.043 165.895 107.823 182 205 255
76.2652 195.029 110.909 199 216 255
139.504 55.3209 113.097 205 220 255
27.9897 147.851 117.298 184 207 255
108.811 87.9089 116.199 201 217 255
42.0536 94.7387 120.6 201 217 255
148.79 135.737 112.937 225 232 255
185.459 40.1038 113.063 200 217 255
93.2942 173.646 110.987 201 217 255
133.222 78.9138 108.736 190 211 255
93.2414 173.648 111.156 191 211 255
120.02 114.575 109.04 236 238 255
133.138 190.77 114.197 255 254 250
120.573 114.129 111.059 255 252 247
79.3263 194.13 113.136 191 211 255
100.461 106.083 113.561 255 163 79
58.8321 204.654 109.296 178 203 255
199.28 64.9097 114.237 201 217 255
47.3126 54.3955 114.787 197 215 255
106.339 94.4149 115.764 245 243 255
125.075 106.017 111.917 255 247 239
134.132 169.61 108.554 187 209 255
117.461 139.652 107.466 213 225 255
91.127 88.5589 114.532 208 221 255
93.1983 173.577 111.172 223 231 255
102.418 46.347 112.834 202 218 255
109.507 82.7341 110.012 255 237 222
69.2694 220.61 116.207 183 206 255
84.4454 189.78 110.831 190 211 255
71.3969 110.257 112.389 255 220 192
142.086 90.558 113.859 197 215 255
115.048 109.531 111.894 255 255 252
74.5603 121.017 115.727 255 241 229
103.125 75.0744 111.888 225 232 255
96.4419 170.059 107.875 203 219 255
222.403 112.072 114.304 196 214 255
183.808 147.461 84.3722 196 214 255
130.361 95.6866 110.723 255 249 241
117.824 115.901 113.421 255 253 248
116.104 219.331 109.185 195 214 255
94.0791 137.22 110.504 255 230 210
122.837 73.0721 119.114 196 214 255
134.534 123.659 113.365 202 218 255
54.6577 90.9639 112.757 211 223 255
67.9909 37.6047 101.799 198 215 255
102.652 172.429 107.833 234 237 255
106.196 121.014 113.017 218 227 255
58.9578 69.4194 121.768 233 237 255
108.688 124.054 106.333 255 234 217
151.662 90.493 108.422 189 210 255
183.909 130.777 116.771 186 208 255
93.1569 173.548 111.156 207 221 255
93.2224 173.617 111.162 197 215 255
7.86288 148.979 112.538 189 210 255
70.2208 59.3575 111.628 207 221 255
78.8966 69.5899 111.253 218 228 255
122.359 204.79 114.63 184 207 255
40.5549 134.328 113.204 194 213 255
59.749 102.585 109.528 255 239 226
93.8066 148.19 99.3736 234 237 255
152.885 82.2613 111.229 189 210 255
116.929 78.7513 119.874 243 242 255
93.3793 173.627 111.065 255 246 237
108.031 113.937 111.868 255 212 178
38.0797 48.6308 116.069 189 210 255
157.777 137.966 111.923 194 213 255
131.049 116.763 115.254 199 216 255
126.762 224.697 101.782 186 208 255
114.326 173.565 112.427 197 215 255
152.161 52.5443 113.585 209 222 255
172.191 165.843 111.701 184 207 255
164.354 110.771 108.825 219 228 255
23.4125 46.5362 115.288 183 206 255
168.2 87.8208 110.991 206 220 255
15.6997 30.6383 152.008 199 216 255
192.384 107.533 111.375 205 220 255
58.3063 223.218 120.676 179 204 255
69.2329 87.8816 110.745 197 215 255
115.47 66.2146 115.838 219 228 255
41.1918 37.7289 112.83 185 208 255
108.39 105.896 110.74 255 229 209
114.401 118.846 115.484 214 225 255
96.0046 21.0373 107.051 199 216 255
121.004 15.1922 110.121 194 213 255
178.453 39.5659 111.904 187 209 255
140.264 109.35 115.715 255 242 231
93.5195 131.495 109.997 202 218 255
105.145 164.6 116.322 191 211 255
110.25 107.844 114.274 255 220 193
109.481 122.43 111.604 209 222 255
107.669 100.607 114.992 217 227 255
113.57 146.557 107.408 255 237 222
102.847 111.417 119.479 255 254 249
150.865 154.424 131.079 198 216 255
103.651 87.9279 115.41 226 232 255
113.319 123.583 108.709 234 237 255
93.1856 173.566 111.197 227 233 255
161.809 106.958 120.617 212 224 255
108.246 198.774 110.952 204 219 255
84.6377 63.9013 110.865 220 229 255
118.474 121.154 103.545 236 238 255
93.2117 173.641 111.143 255 254 251
160.46 22.3896 119.803 215 226 255
181.048 80.9504 112.067 193 212 255
149.602 37.0147 109.999 184 207 255
98.8873 55.7104 114.199 255 239 225
46.4786 109.921 99.9354 237 239 255
113.553 137.557 110.691 255 249 242
56.1381 108.976 102.646 215 226 255
102.828 77.1433 111.875 255 196 147
120.549 115.461 107.979 234 237 255
118.589 103.514 113.153 255 215 182
116.604 79.6882 108.546 213 225 255
146.917 57.3965 116.274 199 216 255
79.6137 182.16 107.042 255 240 227
93.255 173.666 111.136 220 229 255
117.972 87.5954 117.257 255 230 209
111.404 179.208 111.288 220 229 255
159.673 28.8816 113.629 213 225 255
160.67 99.0905 127.597 255 254 250
114.414 80.8261 119.903 252 247 255
125.441 111.932 111.645 255 244 233
105.903 123.79 113.615 255 196 149
105.613 110.303 110.073 226 233 255
65.0514 114.78 112.949 214 225 255
127.001 76.1653 124.151 203 219 255
111.79 103.031 114.948 255 156 64
69.1973 43.455 121.086 191 211 255
117.01 124.435 108.571 244 243 255
115.105 109.383 98.4785 255 250 243
115.067 122.641 105.49 209 222 255
105.043 109.458 112.999 212 224 255
56.6739 113.22 120.871 239 240 255
152.584 80.3276 138.174 213 225 255
59.7172 222.157 93.0088 182 205 255
101.503 106.285 112.456 255 216 184
91.5281 123.048 115.087 255 231 211
115.508 171.958 113.259 255 247 239
14.0615 171.341 109.815 190 211 255
215.418 154.393 113.292 203 219 255
70.4414 109.782 116.948 223 231 255
142.873 2.38063 112.574 178 203 255
110.664 83.2978 113.219 228 233 255
93.2258 173.602 111.178 185 207 255
127.136 77.4106 112.005 216 227 255
71.9702 147.419 114.666 244 242 255
180.315 106.628 107.505 190 211 255
112.416 120.035 118.036 225 232 255
94.8054 172.778 110.391 212 224 255
157.655 95.2263 104.172 255 236 220
92.715 69.6627 115.23 186 208 255
106.259 69.431 114.033 205 220 255
84.8107 90.5446 109.95 202 218 255
207.308 178.114 112.472 191 211 255
112.168 115.552 124.03 235 237 255
98.5994 139.573 112.863 212 224 255
117.014 82.1713 112.435 222 230 255
159.086 95.8835 112.28 199 216 255
109.846 112.033 109.525 255 220 192
123.5 140.155 112.544 250 246 255
103.068 146.075 112.117 234 237 255
102.362 107.774 117.572 255 181 118
124.221 127.483 110.285 231 236 255
150.029 148.61 117.991 199 217 255
123.67 78.1379 115.715 226 233 255
139.608 1.42774 119.989 197 215 255
156.832 153.058 112.827 219 228 255
93.1957 173.579 111.19 210 223 255
34.3192 104.097 110.73 188 210 255
91.4227 99.5136 115.361 221 229 255
36.4164 188.291 112.452 202 218 255
106.076 117.456 117.383 255 226 203
126.613 69.5126 122.595 194 213 255
31.3001 187.801 112.698 190 211 255
149.637 88.2045 115.974 192 212 255
103.353 160.148 108.373 197 215 255
93.2274 173.63 111.157 195 214 255
151.998 80.5734 124.026 206 220 255
93.2073 173.623 111.107 255 225 201
154.881 207.26 123.116 198 215 255
114.636 120.865 108.314 205 220 255
110.07 111.426 102.057 255 238 223
178.91 6.66279 117.255 188 209 255
93.2447 173.647 111.151 224 231 255
80.2681 42.3361 117.03 239 240 255
93.8014 174.806 111.443 214 226 255
113.164 121.051 107.966 255 252 247
126.973 133.043 111.788 231 236 255
126.211 96.819 113.412 214 225 255
104.232 70.1126 113.216 235 238 255
138.527 78.5507 111.479 208 222 255
63.8466 116.111 112.434 227 233 255
99.5367 104.43 109.846 204 219 255
145.857 130.798 111.998 222 230 255
103.834 122.989 108.153 209 222 255
116.6 159.19 111.727 199 216 255
104.334 104.889 113.241 251 247 255
129.095 74.9772 117.993 206 221 255
93.2184 173.621 111.165 243 242 255
199.666 121.562 114.45 194 213 255
110.929 113.743 104.237 255 226 203
129.941 15.6945 111.554 198 216 255
53.5224 92.8237 101.575 204 219 255
93.5214 173.659 112.531 255 250 243
48.3367 113.546 123.101 194 213 255
81.3297 59.3147 117.479 208 222 255
107.483 122.506 111.106 255 249 255
93.2643 173.674 111.134 255 250 255
104.857 104.61 108.478 255 211 175
166.774 98.5912 110.45 195 214 255
146.919 164.689 113.217 216 227 255
136.512 67.5842 119.37 255 251 246
107.937 157.351 119.362 255 250 243
93.1513 172.78 110.842 251 246 255
92.1232 133.434 112.138 225 232 255
49.0932 103.652 101.193 206 220 255
84.7717 150.472 125.294 198 216 255
109.279 128.676 110.926 227 233 255
101.852 102.201 115.9 200 217 255
137.048 130.005 111.512 184 207 255
59.2993 164.364 115.888 184 207 255
57.682 144.006 111.623 219 228 255
181.388 99.2561 124.081 195 214 255
102.145 155.037 105.388 253 248 255
121.802 166.464 111.261 198 216 255
181.075 167.882 120.124 187 209 255
122.398 168.074 115.834 178 203 255
93.2186 173.617 111.166 225 232 255
63.2174 110.985 109.253 211 224 255
85.5213 15.8218 115.227 179 204 255
86.0315 98.9309 113.745 255 246 236
98.8319 90.3248 109.416 230 235 255
168.732 75.1471 98.5006 255 250 244
103.429 87.4768 106.259 218 228 255
222.928 107.755 115.803 203 218 255
112.13 107.065 110.839 255 244 234
69.7496 82.8572 123.021 219 228 255
140.39 55.6519 115.848 255 252 246
114.432 138.406 101.075 195 214 255
132.578 100.2 115.212 209 222 255
14.7612 153.074 109.689 189 210 255
179.591 42.8316 112.622 208 222 255
113.159 105.274 114.067 255 250 244
35.5783 204.868 111.64 224 231 255
37.4214 97.435 98.8409 191 212 255
105.135 104.961 107.124 255 240 227
157.153 107.013 107.786 196 215 255
101.355 198.528 116.34 200 217 255
65.455 158.375 115.595 198 216 255
93.2548 173.666 111.136 195 214 255
82.257 193.209 112.422 187 209 255
157.404 129.828 111.902 255 242 230
84.7077 74.0174 111.197 216 226 255
95.2336 173.375 111.932 195 214 255
103.993 120.081 114.339 247 244 255
72.35 145.308 116.234 214 225 255
106.316 161.713 106.464 219 228 255
55.7495 142.625 98.9553 216 227 255
94.017 174.542 110.243 206 221 255
158.64 111.439 107.522 203 219 255
69.7444 81.2277 111.501 204 219 255
132.384 140.019 110.411 255 252 247
45.446 155.492 115.267 232 236 255
168.379 152.327 102.667 195 214 255
71.9071 183.842 111.195 181 205 255
185.224 90.1589 113.002 208 222 255
43.5378 67.3041 112.991 242 242 255
32.4321 199.933 111.201 182 206 255
112.502 86.3139 110.953 255 218 189
202.954 162.872 118.39 190 211 255
16.5751 101.473 113.941 200 217 255
65.1314 70.2985 111.695 199 216 255
76.278 134.609 111.936 192 212 255
186.187 82.1185 110.639 177 202 255
73.1165 58.438 109.905 175 201 255
149.348 113.042 113.502 197 215 255
138.833 87.8512 114.304 255 238 223
109.805 110.052 110.93 255 199 155
223.737 106.244 115.666 184 207 255
93.1714 173.32 111.266 255 248 240
173.386 80.5541 108.314 200 217 255
107.407 87.5646 111.15 207 221 255
88.8804 84.352 114.717 204 219 255
99.8435 108.033 109.272 219 228 255
88.2184 217.961 115.821 193 213 255
105.922 115.376 110.387 232 236 255
110.274 130.516 110.883 255 232 213
82.8762 84.2987 109.403 206 221 255
149.243 64.633 116.937 195 214 255
220.097 90.7417 115.106 204 219 255
108.985 117.224 113.31 255 249 255
224.191 105.616 108.694 196 214 255
101.307 70.7985 113.88 255 253 249
103.66 4.56985 97.7347 183 206 255
100.303 95.6947 108.179 212 224 255
61.3661 142.275 104.024 235 238 255
105.683 104.334 105.175 247 244 255
103.131 117.312 119.685 198 216 255
57.8653 84.1941 110.176 255 218 189
92.9753 173.199 111.407 184 207 255
118.122 113.099 113.884 194 213 255
166.528 60.7784 112.647 255 247 239
173.543 190.468 110.733 192 212 255
8.97658 155.988 114.57 194 213 255
139.419 116.286 113.123 236 238 255
133.131 110.511 110.071 255 250 243
136.048 51.2901 119.902 195 214 255
99.4732 151.608 128.605 196 214 255
88.3682 147.546 114.111 225 232 255
151.081 42.3302 112.948 199 216 255
121.404 133.398 116.437 219 228 255
103.973 90.0365 118.85 228 234 255
39.2624 89.2985 115.369 205 220 255
93.2093 173.601 111.176 226 233 255
150.706 29.0488 112.653 192 212 255
107.222 118.358 112.647 217 227 255
67.5588 33.6679 111.012 188 209 255
117.533 88.2845 113.606 255 244 234
58.1864 66.4866 120.079 193 212 255
121.997 80.1264 112.338 246 244 255
48.4725 163.197 114.259 201 218 255
119.018 7.36525 113.595 198 216 255
215.289 57.2097 112.661 188 209 255
42.4948 177.325 116.79 206 221 255
99.1393 157.172 110.74 210 223 255
48.2953 82.5094 103.083 205 220 255
105.103 118.332 115.388 255 139 21
160.765 50.1772 112.237 206 221 255
105.139 121.126 110.083 255 244 234
96.9584 176.463 107.575 203 219 255
183.155 95.3863 110.971 200 217 255
97.1368 107.429 117.252 255 240 227
109.654 104.852 113.286 255 181 118
105.914 118.123 107.939 255 200 155
106.57 176.004 110.97 189 210 255
78.1162 44.3294 112.672 247 244 255
114.246 108.634 102.749 224 231 255
103.123 110.232 121.43 255 161 76
76.6571 35.4969 93.7515 196 215 255
174.471 109.806 118.397 200 217 255
58.0482 92.4942 112.512 224 231 255
112.025 110.294 114.005 232 236 255
98.3745 91.7011 107.996 197 215 255
68.9695 52.6408 108.854 184 207 255
108.617 27.4599 113.042 200 217 255
119.869 29.6897 112.847 178 203 255
43.5316 136.472 113.998 185 207 255
80.3035 130.242 109.524 219 228 255
114.218 121.401 106.703 255 201 158
102.213 88.3124 117.702 224 231 255
203.814 108.005 113.44 194 213 255
135.372 23.4084 114.1 212 224 255
131.281 161.334 111.471 209 222 255
95.2332 172.998 111.712 206 220 255
152.849 72.6629 126.101 255 177 110
107.829 116.963 119.425 255 222 196
105.91 110.168 110.075 255 230 210
114.79 104.965 117.03 207 221 255
108.13 123.88 106.185 255 186 129
133.405 65.6982 118.124 193 212 255
109.507 118.036 112.155 255 225 201
103.775 85.9457 119.773 255 235 219
52.9183 51.6524 95.4846 197 215 255
172.111 35.6967 114.475 189 210 255
124.329 90.1116 123.706 221 230 255
118.934 104.944 112.336 255 239 225
143.665 189.575 116.981 197 215 255
71.2858 134.601 109.617 240 240 255
92.2038 174.967 110.221 192 212 255
108.883 160.573 105.103 255 245 236
74.8399 142.726 107.527 200 217 255
91.7057 123.547 108.935 230 235 255
147.527 26.1095 110.651 192 212 255
20.9647 153.7 112.022 182 205 255
142.125 15.363 111.619 187 209 255
119.707 116.616 109.866 255 245 235
144.7 165.003 116.951 187 209 255
68.1712 161.778 113.274 198 216 255
98.7663 154.559 115.813 255 236 220
144.112 97.8202 112.544 233 237 255
120.282 119.147 110.359 255 228 207
112.005 122.122 107.693 236 238 255
139.696 168.62 111.303 199 216 255
190.986 69.8035 110.939 191 211 255
65.1838 41.6689 92.6833 203 218 255
103.69 123.421 108.47 224 231 255
193.978 94.4243 113.1 208 222 255
128.089 76.4911 113.592 208 222 255
97.837 161.223 114.85 219 228 255
114.849 115.084 106.201 255 245 236
142.5 85.4359 120.269 201 217 255
73.3752 85.0633 110.285 208 222 255
187.932 91.9994 109.528 201 218 255
51.7979 80.9527 107.215 217 227 255
154.516 143.694 115.383 199 216 255
202.587 57.232 116.561 182 205 255
79.4748 154.86 113.864 216 226 255
51.3181 193.147 111.211 183 206 255
12.0539 106.145 108.534 187 208 255
113.304 83.7422 116.722 255 251 245
82.6739 117.172 117.106 247 245 255
160.083 141.781 117.578 217 227 255
164.067 110.196 112.282 230 235 255
93.2062 173.598 111.178 201 217 255
112.461 116.04 119.805 243 242 255
93.2555 173.664 111.137 218 227 255
111.929 80.6555 114.948 206 220 255
93.5099 173.853 111.055 255 250 244
41.6771 171.786 110.213 182 206 255
93.2296 173.633 111.155 199 216 255
148.325 163.459 101.358 209 222 255
107.174 109.504 113.252 255 249 255
116.525 118.294 111.892 255 202 160
93.3742 157.718 117.058 194 213 255
100.855 167.521 109.779 215 226 255
117.607 117.754 107.005 255 252 247
48.2435 86.0938 120.344 215 226 255
118.88 120.265 106.552 255 216 186
110.55 92.6038 114.648 255 211 176
103.461 111.387 121.518 229 234 255
105.619 98.6844 111.653 220 229 255
148.474 92.859 111.848 200 217 255
19.8134 169.428 112.842 190 210 255
106.54 71.2983 113.637 223 231 255
140.276 147.618 114.105 206 220 255
93.1119 173.438 111.275 255 135 10
183.77 157.027 95.9974 192 212 255
64.0866 116.905 114.367 220 229 255
72.1411 128.001 113.973 255 237 222
140.421 57.5029 116.919 255 248 240
120.147 124.128 114.613 247 244 255
139.5 80.7548 121.451 214 225 255
192.271 67.206 111.615 198 216 255
102.6 84.9254 113.401 255 199 154
124.482 192.676 104.229 185 208 255
147.623 85.3574 108.645 199 216 255
116.572 144.586 115.48 255 224 199
88.7794 125.446 111.276 211 223 255
93.4223 173.52 111.108 225 232 255
116.74 80.6867 118.335 255 235 219
56.744 88.8917 112.624 217 227 255
45.46 128.173 109.644 203 219 255
88.8886 49.4172 114.248 213 225 255
174.476 163.225 109.786 200 217 255
17.1399 195.841 110.462 177 203 255
160.263 7.40631 104.396 200 217 255
72.3622 45.3878 110.121 190 211 255
144.478 135.365 112.896 209 223 255
139.646 81.0351 111.512 201 217 255
53.9166 123.918 109.416 187 209 255
5.66037 141.051 109.906 177 202 255
115.471 109.253 100.781 238 239 255
37.6517 112.125 109.606 203 219 255
162.443 81.6766 115.163 194 213 255
74.7286 139.431 114.301 207 221 255
92.2861 129.666 109.391 207 221 255
85.7689 59.9503 114.709 196 214 255
32.2617 121.497 115.803 193 212 255
130.688 81.3867 115.139 255 251 246
92.9334 173.185 111.414 219 228 255
93.2435 173.652 111.144 200 217 255
94.2772 175.3 110.166 214 226 255
93.21 173.604 111.174 201 217 255
107.571 122.719 112.153 255 250 243
93.236 173.642 111.149 199 216 255
116.759 85.9113 112.334 230 234 255
20.7586 186.22 111.535 199 216 255
71.386 45.253 124.098 202 218 255
84.0088 21.8028 115.902 197 215 255
82.8212 88.5529 113.236 230 235 255
120.312 167.584 112.029 220 229 255
99.1676 164.58 108.682 255 220 193
156.424 0.93236 114.727 207 221 255
121.274 103.646 113.364 255 254 249
165.923 127.902 119.512 200 217 255
93.2315 173.636 111.153 190 211 255
138.797 112.102 111.172 255 228 206
107.107 137.042 111.945 255 248 240
85.6446 32.9769 114.166 187 209 255
124.747 103.101 114.598 255 240 226
170.22 60.4315 116.989 211 224 255
102.463 111.607 109.202 224 231 255
91.7706 63.6349 108.988 229 234 255
105.436 111.593 124.983 255 239 226
109.366 107.655 106.998 255 242 229
222.582 119.755 111.711 194 213 255
39.5836 112.271 110.176 255 255 252
79.7657 84.1589 115.268 219 228 255
118.04 68.6415 117.486 255 253 249
143.859 165.535 110.935 233 236 255
92.7343 172.702 111.016 194 213 255
48.0186 26.1688 115.37 204 219 255
93.2441 173.652 111.143 243 242 255
93.1978 173.585 111.188 197 215 255
146.089 145.86 114.695 205 220 255
217.222 78.9991 116.31 181 205 255
113.003 143.782 111.046 225 232 255
98.4169 122.943 111.454 255 225 201
62.1123 94.2083 114.461 220 229 255
108.652 123.834 111.092 253 248 255
105.474 105.315 113.548 255 214 182
120.294 114.357 104.922 255 218 189
58.4334 135.526 114.956 255 240 226
136.406 77.508 101.24 196 214 255
152.821 112.746 98.7669 208 222 255
102.523 106.29 113.726 201 218 255
52.7431 58.2637 109.135 194 213 255
110.823 115.318 109.622 255 229 208
101.985 148.836 109.08 255 242 231
214.665 126.018 119.094 179 203 255
104.088 104.186 108.02 255 222 195
104.289 123.862 113.433 198 216 255
102.338 139.492 113.775 234 237 255
93.4806 173.828 111.039 225 232 255
97.3839 148.215 111.835 214 225 255
58.4388 78.2127 112.391 255 245 235
43.07 40.2811 102.573 205 220 255
89.9979 152.829 109.731 255 221 194
118.801 117.242 107.507 208 222 255
113.052 107.272 110.968 255 251 255
22.0543 144.546 108.902 188 210 255
211.944 113.435 108.374 190 211 255
125.014 138.27 113.077 255 246 236
51.4863 211.789 109.115 193 213 255
96.7698 118.389 110.969 224 231 255
103.58 18.8552 113.423 247 245 255
153.933 140.663 106.642 197 215 255
47.2898 105.387 87.4914 249 246 255
92.9189 97.0289 115.67 217 227 255
205.724 29.5875 116.324 179 203 255
123.47 99.4338 114.007 255 250 243
130.392 125.171 111.476 223 231 255
106.388 153.438 109.716 233 236 255
106.363 83.7554 114.628 196 214 255
118.089 118.29 108.546 216 226 255
93.2171 173.615 111.167 249 245 255
109.718 94.9681 113.673 203 219 255
99.948 78.6254 111.357 222 230 255
74.4799 199.735 112.023 203 219 255
93.2407 173.648 111.146 255 255 252
107.842 155.294 120.564 207 221 255
162.112 121.165 112.51 224 231 255
79.9314 82.7482 109.586 198 215 255
145.418 87.9344 103.811 221 229 255
128.098 134.819 113.36 215 226 255
108.062 47.6253 112.441 201 218 255
158.602 99.5495 101.604 212 224 255
101.026 88.8074 114.375 210 223 255
108.464 105.084 112.973 255 128 0
63.0292 66.9265 115.156 202 218 255
137.444 53.4025 112.427 213 225 255
151.739 80.0544 113.674 224 231 255
94.5242 92.9967 111.817 250 246 255
81.0642 117.833 114.582 231 235 255
132.435 120.044 111.342 200 217 255
48.7863 82.8466 122.448 200 217 255
119.795 115.593 112.047 255 237 222
195.182 77.2161 114.282 202 218 255
98.3304 126.144 114.793 215 226 255
110.63 119.311 106.139 255 228 206
66.1415 125.236 118.13 195 214 255
10.6422 98.0165 112.774 196 214 255
111.791 114.542 114.9 255 224 200
93.2678 173.664 111.139 206 221 255
168.465 97.2791 115.749 198 216 255
126.515 97.7068 111.634 203 219 255
99.3883 151.827 111.977 215 226 255
93.4097 174.933 111.194 207 221 255
78.9308 26.9079 118.886 185 207 255
96.6399 168.536 110.756 204 219 255
104.273 121.179 110.156 255 209 172
97.8594 184.141 107.913 210 223 255
104.194 113.965 116.779 201 217 255
120.771 165.485 111.678 255 200 156
125.04 76.3145 120.705 255 233 214
69.5783 147.669 104.912 232 236 255
203.202 140.287 114.564 187 209 255
166.984 151.105 115.492 200 217 255
108.575 117.135 123.725 255 137 15
118.756 121.085 110.242 255 253 249
110.73 125.881 104.48 213 224 255
170.993 132.024 101.546 254 248 255
109.224 151.835 116.05 234 237 255
45.5716 193.162 109.791 192 212 255
16.967 67.3927 108.467 185 207 255
146.909 110.767 115.316 213 225 255
95.6909 158.779 119.115 255 239 225
111.26 107.161 110.836 255 218 189
108.468 208.135 112.217 186 208 255
44.4981 212.641 109.765 186 208 255
215.838 128.024 108.103 190 210 255
108.377 113.268 112.253 234 237 255
109.802 122.702 107.528 251 247 255
107.432 169.961 109.843 220 229 255
170.383 159.412 113.431 205 220 255
68.4714 154.319 116.104 255 233 215
85.4255 135.049 114.28 255 249 255
28.1554 110.454 107.898 218 228 255
119.714 64.6178 116.017 214 225 255
122.438 76.4976 109.989 243 242 255
96.1721 80.1105 109.853 255 235 219
89.8872 87.6842 114.052 219 228 255
123.594 41.0745 113.033 205 220 255
130.649 96.0271 113.399 255 243 232
146.965 132.236 112.475 193 212 255
106.332 109.905 110.093 197 215 255
111.709 117.2 106.981 255 194 144
92.6796 185.116 112.803 203 219 255
141.517 106.956 111.547 255 255 251
186.838 54.5732 107.703 207 221 255
133.007 58.1593 117.569 190 211 255
29.5552 83.8273 113.527 184 207 255
135.891 63.9992 113.77 195 214 255
147.832 155.823 112.578 230 235 255
91.6358 111.368 112.299 243 242 255
51.9495 102.178 105.965 209 222 255
161.002 101.39 103.535 192 212 255
133.757 129.283 112.479 220 229 255
93.286 96.3899 112.15 255 246 238
147.27 107.684 109.842 205 220 255
106.998 75.4723 114.838 255 251 255
83.7559 203.612 110.654 183 206 255
139.218 120.151 110.952 200 217 255
127.643 64.6748 118.744 199 216 255
25.8226 192.685 109.344 202 218 255
89.769 86.4114 111.983 251 247 255
90.4966 107.716 111.966 201 217 255
112.046 190.031 109.878 195 214 255
111.682 121.783 110.448 255 245 235
74.1144 92.5872 111.052 209 223 255
121.206 188.35 101.462 186 208 255
93.0938 173.336 111.421 187 208 255
97.0823 171.665 113.087 205 220 255
166.832 133.431 102.658 198 216 255
164.613 46.2664 117.138 197 215 255
64.6715 26.8453 109.74 186 208 255
148.963 60.1302 109.988 187 209 255
131.199 111.674 109.813 255 218 189
56.2744 104.168 126.047 185 207 255
108.36 116.017 121.664 255 231 211
100.957 110.766 110.825 199 216 255
93.2584 173.67 111.134 216 226 255
95.1848 167.965 109.506 194 213 255
138.699 144.574 111.374 194 213 255
141.353 128.924 109.794 234 237 255
218.285 115.523 112.492 189 210 255
153.82 79.1713 116.61 246 244 255
74.5377 39.3126 112.23 196 214 255
158.95 115.896 117.961 218 227 255
95.6671 113.275 113.637 219 228 255
98.9178 171.106 111.322 189 210 255
78.6645 185.558 114.641 198 215 255
65.1821 65.8641 111.594 250 246 255
90.2861 93.1046 112.974 255 197 149
103.716 117.694 115.53 255 153 55
165.472 122.655 113.573 208 222 255
92.5069 173.209 111.544 192 212 255
118.31 118.687 106.054 203 219 255
92.895 173.117 113.775 220 229 255
45.8716 32.6651 112.282 200 217 255
115.461 120.532 107.771 208 222 255
78.394 16.2302 108.943 193 213 255
15.7819 93.8016 112.492 185 208 255
112.128 120.26 111.752 216 227 255
111.83 117.217 113.099 246 244 255
103.061 106.282 112.483 205 220 255
100.166 107.234 113.975 201 217 255
131.297 35.3164 113.982 202 218 255
40.78 172.738 111.09 203 219 255
20.1324 117.608 114.521 214 225 255
110.765 137.785 113.362 255 208 171
50.306 97.3783 106.409 210 223 255
31.96 48.0561 137.435 203 218 255
120.644 80.1132 119.592 202 218 255
61.1 110.265 113.091 250 246 255
101.324 85.5539 112.186 255 238 224
88.0035 75.5919 110.368 214 226 255
93.205 173.595 111.18 208 222 255
110.238 147.037 113.312 208 222 255
134.389 96.0117 115.498 203 219 255
223.1 122.678 111.473 189 210 255
48.829 93.1309 108.555 197 215 255
169.176 143.744 107.002 221 230 255
161.471 48.1169 110.279 199 216 255
95.2449 180.267 113.618 255 244 233
158.568 121.045 112.031 209 223 255
104.31 84.3289 112.094 255 242 230
46.5196 153.575 108.527 200 217 255
33.5765 59.7955 111.357 180 204 255
120.043 184.761 102.136 186 208 255
137.391 76.1147 122.632 217 227 255
70.1557 132.752 109.688 185 207 255
108.958 125.979 111.002 255 229 209
102.302 64.8155 110.449 206 220 255
117.494 114.138 108.049 255 250 255
100.782 73.683 120.735 255 247 239
192.732 105.839 114.348 191 211 255
117.125 118.472 109.772 209 222 255
123.228 95.5586 113.002 255 214 182
136.959 176.885 113.255 190 211 255
114.543 119.312 115.175 239 240 255
91.5497 180.394 126.233 214 225 255
93.2103 173.602 111.176 212 224 255
27.4082 59.8044 112.467 192 212 255
82.2988 117.401 111.424 255 254 251
4.05271 169.952 113.95 184 207 255
61.864 97.9123 112.008 205 220 255
96.7667 172.278 115.447 255 225 201
111.105 212.265 118.718 188 209 255
88.2403 151.761 112.904 191 211 255
56.6199 206.719 111.826 184 207 255
93.4142 173.74 111.022 255 253 248
100.942 147.651 110.758 217 227 255
150.235 111.751 114.325 231 235 255
72.1981 136.343 110.175 230 235 255
105.282 188.116 153.158 181 205 255
121.295 68.66 110.095 255 243 231
143.712 88.172 105.028 197 215 255
93.1295 173.47 111.142 200 217 255
122.589 14.2126 111.74 206 220 255
127.85 44.6018 112.117 190 211 255
111.012 116.132 120.342 255 249 242
216.823 150.5 113.947 191 211 255
109.161 130.259 112.58 255 231 211
100.538 114.32 110.48 197 215 255
102.573 84.4791 110.11 211 224 255
114.35 120.515 107.807 255 197 150
115.773 112.59 112.894 253 248 255
155.439 115.413 116.668 206 221 255
114.359 89.6999 106.08 249 245 255
120.887 115.313 106.621 255 95 0
28.4971 113.577 115.366 188 209 255
177.316 90.2051 112.228 219 229 255
153.591 112.252 113.233 230 235 255
57.7392 123.155 115.103 217 227 255
124.593 132.774 75.9731 213 225 255
125.44 63.222 122.72 203 219 255
93.3463 173.714 111.092 200 217 255
143.818 112.957 109.925 208 222 255
97.913 103.936 108.338 195 214 255
147.236 159.384 104.603 242 241 255
52.0846 103.255 98.2458 192 212 255
117.108 72.5124 119.439 192 212 255
110.13 154.796 116.878 238 239 255
93.2316 173.636 111.153 193 212 255
124.3 191.193 111.731 182 206 255
21.8091 134.208 111.11 196 214 255
93.2798 173.64 111.17 226 232 255
25.1453 170.849 115.35 198 216 255
115.798 103.326 112.988 200 217 255
102.973 116.998 110.213 255 226 202
82.525 125.281 108.292 255 254 251
84.8624 146.631 111.386 253 248 255
33.215 90.3165 114.416 194 213 255
102.629 120.373 111.405 240 241 255
93.0745 173.566 111.324 199 216 255
86.9759 84.3722 111.511 222 230 255
108.846 115.454 123.993 255 226 204
11.4952 76.6101 118.24 241 241 255
139.641 82.5292 118.812 224 231 255
110.353 114.248 107.718 222 230 255
108.837 165.114 112.277 233 236 255
93.1763 173.558 111.226 211 223 255
93.2163 173.614 111.168 226 232 255
114.639 119.803 107.046 223 230 255
191.953 64.5179 114.142 201 217 255
51.4623 85.9972 116.021 188 209 255
34.1812 93.4192 115.434 195 214 255
93.2901 173.713 111.127 213 225 255
46.6563 60.2968 105.264 252 247 255
93.1952 173.582 111.191 198 215 255
112.455 98.7951 111.829 207 221 255
172.418 119.797 110.939 255 254 251
122.032 1.06724 125.641 205 220 255
94.0286 178.691 111.725 243 242 255
127.346 72.305 122.399 255 233 214
61.9383 107.151 110.805 206 220 255
94.732 175.723 112.015 227 233 255
158.029 61.2434 114.33 189 210 255
168.523 108.501 121.387 255 250 244
95.1338 182.446 109.493 200 217 255
124.438 13.5294 72.8523 191 211 255
93.0105 173.883 111.003 203 219 255
93.2293 173.633 111.155 255 242 230
93.2242 173.626 111.16 255 253 248
86.5202 74.1373 112.593 201 218 255
100.149 168.712 119.844 248 245 255
109.151 120.516 108.394 220 229 255
124.511 209.217 129.475 198 216 255
143.515 131.385 110.094 255 253 248
113.393 111.332 110.379 255 200 155
83.0071 181.66 117.781 219 229 255
120.402 115.268 117.429 203 219 255
108.073 178.589 108.761 222 230 255
66.0661 43.351 111.537 194 213 255
75.0927 138.699 109.639 192 212 255
153.516 24.4675 110.039 210 223 255
176.466 15.3466 110.731 200 217 255
57.0529 221.585 93.0778 196 215 255
176.054 7.35783 117.305 201 217 255
113.878 94.1892 113.33 255 255 251
92.9884 174.712 111.056 199 216 255
88.536 175.125 104.154 210 223 255
144.16 74.7218 130.277 255 223 198
107.646 101.148 114.734 255 254 250
112.086 140.361 110.324 255 253 249
76.5216 45.6365 112.064 192 212 255
52.4619 94.7467 104.012 188 209 255
109.906 161.966 108.242 213 225 255
93.7107 151.026 117.23 202 218 255
80.1916 126.326 113.152 222 230 255
52.286 122.916 112.59 219 228 255
110.211 113.381 114.037 236 238 255
112.942 105.697 114.225 230 234 255
135.049 161.444 113.674 207 221 255
164.008 6.70865 113.999 191 211 255
93.1425 173.554 111.177 201 218 255
197.903 138.31 116.455 189 210 255
37.4682 53.1325 90.0239 255 253 249
132.937 129.256 112.131 234 237 255
89.0659 75.0215 116.514 221 229 255
93.2412 173.651 111.144 219 228 255
67.3583 196.409 111.514 201 217 255
134.277 182.786 107.017 186 208 255
132.876 83.5151 114.555 227 233 255
87.0681 51.4574 112.148 255 245 235
93.2299 173.634 111.155 200 217 255
117.74 117.371 113.897 222 230 255
74.9457 43.0348 112.786 195 214 255
203.406 67.0023 114.476 196 215 255
167.532 70.1384 116.571 192 212 255
93.2362 173.642 111.149 194 213 255
186.466 108.96 110.003 215 226 255
146.268 138.894 110.214 255 247 239
118.94 117.101 99.7192 246 244 255
103.103 109.649 122.288 255 101 0
111.366 104.659 106.359 255 225 202
93.2627 173.673 111.135 209 222 255
188.24 159.171 114.078 197 215 255
168.04 110.824 113.809 191 211 255
79.6817 131.545 112.418 255 218 188
53.3203 55.6973 117.415 193 213 255
107.734 123.676 111.734 224 231 255
130.637 81.3031 125.155 247 244 255
101.389 172.066 107.02 255 250 244
105.03 92.7295 112.699 198 216 255
184.819 116.591 112.261 194 213 255
112.9 130.096 110.767 233 236 255
93.2574 173.674 111.135 255 231 211
113.654 120.82 119.5 250 246 255
207.405 71.6956 117.854 195 214 255
62.4205 105.762 115.612 232 236 255
113.405 142.982 114.725 244 243 255
117.324 138.089 113.454 222 230 255
113.251 136.482 108.154 218 228 255
47.7636 63.7046 113.757 196 214 255
101.864 181.185 110.496 196 214 255
94.6193 163.751 109.23 255 254 250
124.112 99.3828 112.356 255 223 198
118.666 81.2891 111.591 255 250 244
55.7645 96.4243 102.602 208 222 255
93.7194 174.956 111.854 191 211 255
19.4449 106.957 110.496 181 205 255
92.3242 172.697 111.829 212 224 255
62.4861 131.06 111.892 203 219 255
110.721 110.759 114.05 255 245 235
104.258 152.298 114.676 242 241 255
111.695 113.847 126.516 255 201 158
140.998 88.0343 112.574 205 220 255
93.174 173.463 111.188 255 211 177
34.8901 77.6822 146.907 217 227 255
111.896 115.279 115.337 196 215 255
56.2015 13.9726 94.0912 196 215 255
106.506 113.445 118.956 219 228 255
116.866 107.906 112.833 204 219 255
93.2167 173.623 111.163 255 200 155
110.129 41.7586 114.865 217 227 255
218.273 113.575 119.396 192 212 255
116.432 104.574 103.647 240 240 255
90.266 187.936 107.956 195 214 255
79.5165 81.0694 113.813 241 241 255
106.567 106.223 118.48 255 216 186
69.1336 95.6184 109.014 203 219 255
93.2629 173.687 111.112 196 214 255
54.5526 218.488 107.315 176 202 255
132.985 52.2569 116.029 192 212 255
93.5866 173.533 111.309 199 216 255
98.3269 96.7746 106.527 220 229 255
108.163 112.696 112.3 255 228 206
148.787 145.942 112.173 255 252 248
50.8903 181.734 112.505 190 211 255
168.64 133.467 112.333 192 212 255
150.993 84.2433 116.879 212 224 255
93.2717 173.713 111.124 225 232 255
151.92 182.553 115.804 182 206 255
107.998 77.8139 114.856 206 221 255
115.6 106.909 113.284 255 253 249
89.5653 194.967 112.717 200 217 255
117.527 93.8359 109.307 255 210 175
87.7708 116.901 111.215 218 228 255
173.966 100.848 115.836 231 235 255
158.547 100.229 112.983 255 250 243
163.55 137.699 111.156 215 226 255
178.272 86.9021 111.606 235 237 255
92.2858 157.66 124.132 191 211 255
133.897 182.709 112.024 210 223 255
80.9195 113.175 115.531 228 234 255
59.2851 119.444 114.459 255 149 46
136.362 64.3101 117.679 255 250 243
195.511 33.737 113.301 184 207 255
113.149 104.316 123.98 255 167 88
35.1472 104.077 65.7804 246 244 255
92.3464 163.12 132.188 207 221 255
209.534 49.043 113.626 189 210 255
157.362 71.7637 112.259 218 228 255
192.061 49.3431 113.86 186 208 255
147.499 76.6779 111.877 189 210 255
114.875 114.81 109.106 227 233 255
96.1325 166.723 114.881 213 224 255
78.5155 17.7678 101.223 180 204 255
96.0447 68.7675 113.695 213 225 255
114.451 119.682 115.334 255 195 145
163.646 144.725 112.095 229 234 255
112.906 106.145 101.077 255 179 114
82.9664 158.192 109.669 243 242 255
81.2423 138.725 108.035 229 234 255
159.285 146.975 113.694 255 249 242
164.97 111.439 121.318 214 225 255
110.961 119.289 113.564 255 242 230
115.048 50.7547 112.979 202 218 255
91.1437 158.199 109.22 255 234 217
112.364 117.506 110.154 201 217 255
116.153 116.991 123.158 247 245 255
6.97464 78.5151 117.027 181 205 255
117.524 132.732 109.299 255 233 214
137.426 186.384 106.821 205 220 255
93.414 172.502 112.026 220 229 255
71.8683 138.363 125.22 238 239 255
111.475 105.462 116.335 255 219 191
55.8945 105.908 113.556 219 228 255
88.979 102.286 105.241 191 211 255
93.3034 173.727 110.992 202 218 255
158.963 9.43605 120.882 202 218 255
102.539 92.6226 122.019 213 225 255
125.568 161.088 110.32 218 228 255
74.3891 44.9959 120.621 194 213 255
110.712 123.742 111.407 255 209 173
96.3256 173.7 112.638 192 212 255
112.268 121.681 107.581 199 217 255
184.732 143.669 89.3845 206 220 255
173.823 109.43 108.967 230 235 255
166.017 101.244 117.602 240 240 255
127.762 70.4561 117.41 194 213 255
151.789 189.04 107.906 182 205 255
93.2517 173.663 111.135 188 209 255
126.403 43.485 110.573 206 220 255
170.026 158.949 106.828 198 216 255
118.198 132.036 104.321 233 237 255
110.12 101.657 113.787 222 230 255
115.297 51.3692 117.191 195 214 255
141.337 83.625 112.177 223 231 255
166.61 166.058 117.733 193 213 255
93.2309 173.635 111.154 196 215 255
94.6605 177.157 111.35 208 222 255
129.078 195.306 137.513 180 204 255
190.865 112.676 118.123 188 209 255
82.2443 26.1081 108.542 209 222 255
148.343 147.256 97.9688 192 212 255
92.9358 173.615 111.625 255 225 201
113.425 118.766 115.503 255 247 239
165.064 90.6874 112.54 194 213 255
170.33 178.905 115.681 180 204 255
170.366 145.224 118.261 255 145 37
220.134 82.3759 117.017 188 210 255
20.0011 173.432 115.908 196 215 255
93.1928 173.655 111.255 255 249 255
56.8499 141.874 110.896 203 219 255
203.063 64.2069 112.636 194 213 255
147.055 105.862 113.064 235 238 255
108.319 119.283 113.491 255 224 199
200.486 126.761 110.837 186 208 255
114.213 112.843 114.017 246 244 255
16.748 168.792 113.261 198 215 255
117.113 180.761 110.638 190 211 255
72.9167 41.9979 110.497 203 219 255
57.1722 75.1349 105.562 230 235 255
110.109 46.3914 115.854 190 211 255
223.6 76.2071 112.402 181 205 255
67.7085 134.279 120.974 255 252 248
89.5893 165.004 109.073 255 254 251
87.1679 94.7111 113.051 255 240 226
119.174 80.1778 104.67 255 250 243
112.612 144.048 117.104 200 217 255
167.492 106.157 107.636 181 205 255
28.0176 152.489 111.605 197 215 255
115.375 220.981 115.065 198 216 255
82.6151 110.16 111.016 255 233 215
95.1652 167.249 104.724 206 221 255
94.4621 173.686 111.286 203 219 255
169.865 109.787 111.961 183 206 255
79.6581 113.53 115.339 255 242 230
60.4989 124.394 120.4 231 236 255
93.2234 173.624 111.161 195 214 255
100.876 89.004 107.282 194 213 255
146.931 81.6339 115.596 255 242 230
111.052 102.925 114.013 255 211 177
83.2398 40.1465 110.704 227 233 255
114.913 149.314 95.356 215 226 255
187.87 126.314 118.142 194 213 255
159.448 91.0723 111.167 205 220 255
140.617 87.0713 112.47 228 234 255
106.247 83.9905 110.963 195 213 255
155.006 192.48 108.856 217 227 255
55.3414 117.99 107.916 196 214 255
105.079 145.835 115.553 197 215 255
93.354 173.358 111.56 255 245 235
119.603 91.4205 113.557 235 238 255
100.682 66.0998 109.575 213 225 255
127.388 79.5683 120.446 206 220 255
56.8764 120.177 103.405 192 212 255
128.413 153.136 111.232 224 231 255
94.5497 175.583 111.041 187 209 255
76.7755 95.1006 111.436 198 216 255
57.8028 128.709 107.516 243 242 255
92.8614 173.413 111.321 196 214 255
85.4941 69.0226 115.093 204 219 255
38.4216 117.407 170.571 190 211 255
100.097 114.683 111.749 255 249 241
117.013 116.228 113.439 230 235 255
102.093 101.286 89.3594 255 0 0
197.112 106.547 115.72 195 213 255
103.254 116.889 116.856 207 221 255
101.976 120.685 112.043 234 237 255
155.788 106.723 109.599 200 217 255
61.5639 114.174 111.86 236 238 255
178.848 144.24 114.562 188 209 255
50.2074 107.127 120.13 210 223 255
164.252 176.952 110.405 188 209 255
83.0441 88.1439 113.065 239 240 255
98.5206 171.819 109.662 220 229 255
93.2398 173.64 111.151 255 249 255
109.431 111.863 110.2 255 249 241
109.492 115.159 118.59 255 247 238
84.9347 60.1405 111.457 255 222 196
44.4498 62.0878 116.889 197 215 255
146.659 149.266 111.004 198 216 255
89.5829 113.988 113.556 198 215 255
128.989 79.4052 109.63 223 231 255
120.877 77.9623 112.152 255 251 246
108.794 81.9193 115.95 230 235 255
205.346 74.591 112.172 237 239 255
153.809 103.299 113.324 204 220 255
93.2072 173.602 111.199 255 227 205
69.7117 47.6756 91.5416 191 211 255
4.24128 93.9785 112.977 184 207 255
112.043 148.084 112.227 255 218 189
93.0291 174.182 112.207 222 230 255
110.518 115.775 121.409 255 201 157
