ply
format ascii 1.0
element vertex 1342
property float x
property float y
property float z
property uchar red
property uchar green
property uchar blue
end_header
112.144 116.246 110.857 255 251 255
60.3761 120.115 109.986 220 229 255
93.1134 173.664 110.824 208 222 255
67.4259 68.7127 113.728 192 212 255
152.681 46.6292 114.98 200 217 255
96.7999 210.338 118.757 182 206 255
196.141 45.7847 113.579 175 201 255
121.562 111.536 114.918 228 234 255
55.628 67.1149 114.956 255 232 213
70.7027 56.8323 114.565 193 213 255
192.405 94.9565 111.967 180 204 255
103.9 120.192 115.968 255 221 193
121.792 92.8418 114.911 221 229 255
116.655 134.972 106.342 239 240 255
119.116 141.27 113.074 217 227 255
104.041 164.261 126.997 205 220 255
109.262 114.704 110.668 215 226 255
37.5106 108.998 112.487 207 221 255
116.409 119.795 108.512 255 197 151
165.728 179.923 132.067 201 218 255
93.1656 173.745 110.835 211 224 255
139.748 120.461 114.445 201 218 255
101.214 82.6366 114.299 218 228 255
110.605 175.198 107.337 189 210 255
93.0735 173.586 110.396 205 220 255
118.886 104.486 103.088 211 223 255
138.649 86.4966 113.413 255 240 228
80.2327 70.7976 116.523 201 217 255
158.437 146.201 112.611 203 219 255
45.6977 69.657 96.2626 217 227 255
52.3778 144.224 113.312 204 219 255
108.47 124.217 108.322 220 229 255
34.8836 199.931 110.967 181 205 255
81.4506 105.421 111.45 250 246 255
60.4417 71.225 102.77 187 209 255
96.771 173.554 112.787 192 212 255
110.009 155.053 118.619 205 220 255
135.112 86.9365 112.773 255 232 213
93.1447 173.704 110.831 197 215 255
115.153 119.993 122.453 255 140 23
153.844 92.1513 108.494 213 225 255
109.394 110.56 115.544 255 232 212
163.568 81.3091 107.1 195 214 255
107.42 76.7872 97.2095 211 224 255
94.5466 180.551 112.101 202 218 255
110.855 114.481 115.689 241 241 255
117.119 91.9915 116.823 227 233 255
132.784 116.211 106.758 255 211 176
108.17 117.334 123.874 255 218 189
108.277 104.415 108.534 233 237 255
111.599 88.2724 115.164 242 242 255
114.021 122.519 106.282 208 222 255
165.618 113.125 101.926 204 219 255
120.745 80.5834 111.747 211 223 255
129.71 34.1798 112.847 189 210 255
86.0373 151.575 105.386 255 238 224
187.403 113.15 113.744 218 228 255
93.7701 176.543 109.459 244 242 255
78.9891 16.0131 120.366 193 212 255
93.1471 173.707 110.832 215 226 255
129.096 86.5263 114.263 255 253 249
108.385 104.667 113.136 255 130 0
122.844 78.7269 108.787 255 176 107
100.823 40.9783 114.627 205 220 255
93.1438 173.702 110.831 245 243 255
213.275 46.0288 111.595 187 209 255
209.226 163.9 113.187 201 217 255
152.181 82.0643 114.052 182 206 255
44.1352 144.107 114.611 211 223 255
110.798 102.912 124.159 204 220 255
116.247 114.955 103.979 240 241 255
151.67 173.015 108.414 211 224 255
93.1517 173.713 110.833 223 231 255
150.682 127.831 46.3789 207 221 255
126.783 62.9354 118.582 231 235 255
125.013 20.667 81.2767 206 220 255
123.003 82.3642 95.2808 255 250 244
155.982 14.2329 110.243 188 209 255
74.6955 162.216 112.902 255 251 245
67.2342 54.5354 110.241 210 223 255
126.311 197.405 107.964 196 214 255
115.162 84.4172 108.782 205 220 255
112.753 117.005 102.576 255 213 179
115.888 146.961 112.463 234 237 255
103.053 164.236 116.521 192 212 255
110.154 123.108 105.521 200 217 255
116.369 191.885 122.793 189 210 255
104.811 109.349 115.927 243 242 255
163.314 178.273 114.01 188 209 255
135.524 12.6749 110.728 230 235 255
117.858 67.936 126.52 202 218 255
107.669 155.232 117.613 244 243 255
93.1805 173.786 110.837 209 223 255
74.8688 138.431 117.199 255 246 236
102.89 87.7585 107.743 195 213 255
115.2 123.48 105.298 251 247 255
54.2676 110.806 103.126 255 250 243
73.4816 66.0423 116.225 203 219 255
152.736 51.1768 113.301 227 233 255
166.05 76.0866 123.871 252 247 255
93.1483 173.709 110.832 186 208 255
81.8006 164.472 106.713 191 211 255
120.988 72.719 117.011 213 225 255
133.264 179.518 110.577 195 214 255
113.019 138.156 123.591 255 229 209
99.0622 175.966 130.368 255 234 217
108.734 197.203 117.404 190 211 255
92.7842 172.092 111.535 195 214 255
93.1486 173.71 110.832 193 213 255
39.8615 65.8544 122.135 196 214 255
143.522 134.003 110.647 214 226 255
78.4258 99.4974 110.445 220 229 255
148.842 83.6057 106.118 255 205 165
113.468 114.505 109.713 255 251 246
91.5421 98.0945 111.147 225 232 255
84.2793 65.454 116.753 239 240 255
3.04343 86.7655 108.301 181 205 255
115.28 145.217 111.639 255 225 201
140.01 83.8924 110.548 255 239 226
104.398 90.1151 114.778 204 219 255
114.419 92.847 114.848 255 218 189
45.3602 98.1046 112.784 200 217 255
104.229 107.128 121.357 233 236 255
121.097 111.289 112.158 242 242 255
107.999 92.3473 126.355 242 242 255
15.7776 157.927 115.494 192 212 255
160.225 135.944 112.945 203 218 255
93.1357 173.692 110.829 188 209 255
128.439 88.7324 109.006 199 216 255
93.1781 173.754 110.83 191 211 255
176.488 80.1991 111.33 185 208 255
148.585 97.4724 112.353 197 215 255
98.6711 105.98 107.802 255 248 240
104.608 130.797 110.739 227 233 255
139.234 96.195 122.96 222 230 255
74.0383 71.9625 110.708 196 214 255
53.8423 111.445 103.508 198 215 255
93.9168 183.677 103.981 248 245 255
117.996 121.684 106.353 255 245 235
95.575 65.5394 116.471 208 222 255
118.267 112.655 111.426 227 233 255
142.471 159.442 131.78 201 218 255
116.884 144.945 117.01 236 238 255
89.225 183.215 102.152 250 246 255
54.0557 218.77 104.213 189 210 255
115.238 125.322 103.57 255 251 255
102.435 80.3719 114.481 208 222 255
110.415 121.035 109.136 255 223 198
144.754 162.139 111.241 199 216 255
63.9481 212.406 108.404 201 218 255
110.315 112.404 115.088 211 223 255
152.665 121.666 110.683 255 224 200
59.4107 79.1751 111.159 203 218 255
105.447 25.3826 112.048 189 210 255
145.316 51.6216 116.93 197 215 255
92.9513 79.6486 110.194 204 220 255
93.1266 173.681 110.828 229 234 255
77.2839 119.833 113.496 255 241 229
114.146 146.641 103.5 231 235 255
200.079 100.054 102.856 218 228 255
93.1683 173.74 110.835 255 250 243
148.847 76.9525 129.132 202 218 255
98.8378 91.7644 104.043 213 225 255
110.939 162.802 110.989 201 217 255
105.775 159.469 100.661 255 251 245
116.12 125.31 108.848 255 230 209
134.12 116.308 116.264 198 216 255
59.0453 58.25 111.459 197 215 255
93.1288 173.693 110.817 255 250 243
90.0031 146.9 116.159 200 217 255
177.035 83.5194 114.582 187 209 255
42.0383 99.8697 102.315 211 224 255
112.375 159.479 110.14 190 211 255
105.844 97.5323 112.449 212 224 255
121.156 113.544 120.05 236 238 255
112.023 114.69 107.886 255 219 190
62.816 50.8474 98.9374 240 240 255
105.834 105.656 109.761 227 233 255
93.1258 173.679 110.827 206 220 255
89.8866 41.1815 114.077 189 210 255
95.856 90.4303 108.946 255 169 93
160.302 115.901 110.445 255 251 245
107.873 122.442 111.14 212 224 255
101.574 108.381 112.734 255 251 246
161.736 106.596 109.749 255 255 251
44.9096 119.657 132.977 220 229 255
174.421 120.683 103.818 207 221 255
93.1515 173.712 110.833 188 210 255
104.384 94.7901 113.358 231 235 255
73.1816 59.4424 109.55 194 213 255
74.9243 150.506 134.422 199 216 255
155.255 150.058 107.214 190 211 255
10.081 174.676 109.992 178 203 255
190.877 105.559 109.347 204 219 255
117.367 209.223 88.9655 191 211 255
79.6981 195.955 112.06 193 212 255
106.087 104.804 115.487 229 234 255
79.9495 144.408 105.316 198 216 255
73.5473 154.767 123.126 224 231 255
101.854 132.818 112.42 255 229 209
143.308 79.141 114.869 187 209 255
100.112 119.444 111.868 230 235 255
153.361 88.3072 107.884 255 247 239
123.13 77.9517 120.298 255 246 237
140.693 95.165 103.911 203 219 255
153.275 39.304 110.713 222 230 255
86.3842 47.9494 122.62 185 207 255
38.6844 172.935 110.483 198 215 255
178.298 150.645 112.99 182 206 255
72.1651 140.065 111.738 230 235 255
93.1409 173.699 110.831 211 223 255
81.6672 31.3755 108.895 201 217 255
78.0306 58.4269 116.618 193 212 255
110.5 113.946 115.942 255 222 197
159.835 180.82 113.442 192 212 255
72.5276 181.45 115.418 190 211 255
158.875 109.649 98.0961 194 213 255
90.9543 175.658 114.766 255 245 235
93.3384 173.878 110.787 187 209 255
131.812 17.861 110.213 209 222 255
148.327 85.1079 106.45 215 226 255
127.685 118.913 112.403 255 218 189
14.3707 150.707 116.682 187 208 255
112.767 113.796 101.291 222 230 255
86.4975 150.125 122.518 196 215 255
55.2324 65.5589 100.741 203 219 255
93.1577 173.724 110.834 226 233 255
223.512 141.237 112.329 179 204 255
52.9046 99.4387 125.638 193 212 255
132.535 156.255 112.099 205 220 255
56.0001 46.8762 113.587 188 209 255
110.083 157.072 118.045 199 216 255
103.029 161.56 111.991 203 219 255
101.599 117.258 116.236 210 223 255
130.634 176.214 111.388 194 213 255
93.0958 173.658 110.816 213 225 255
124.766 69.389 119.491 187 209 255
147.134 91.5564 114.814 204 219 255
109.335 160.19 120.748 233 237 255
110.246 81.6076 116.448 233 237 255
59.754 26.9449 110.945 177 203 255
138.692 84.6925 127.383 198 215 255
171.319 78.5945 117.003 208 222 255
93.1493 173.71 110.832 217 227 255
152.675 10.7998 110.95 200 217 255
91.5592 206.59 101.884 189 210 255
65.7682 136.59 120.172 247 245 255
111.772 65.1236 113.096 232 236 255
93.4182 101.253 113.118 221 229 255
108.858 113.503 122.37 255 180 117
106.558 110.443 112.334 255 245 234
170.596 151.365 103.332 255 254 250
168.94 131.56 106.741 198 215 255
129.846 180.551 127.096 188 209 255
128.533 105.532 114.001 255 209 173
125.123 82.5904 110.073 238 239 255
93.1861 173.814 110.822 227 233 255
93.1616 173.728 110.837 200 217 255
93.1394 173.696 110.83 183 206 255
123.163 152.118 109.742 223 231 255
92.0692 35.8206 115.243 238 239 255
106.581 183.348 111.658 191 211 255
103.749 117.463 120.456 255 216 185
59.7472 113.076 103.669 255 248 240
47.6906 124.502 116.874 208 222 255
117.596 70.3169 115.851 239 240 255
24.6886 198.158 107.816 196 215 255
214.895 82.5295 110.755 187 208 255
64.272 26.666 95.5559 189 210 255
163.159 117.983 112.72 255 253 248
151.036 22.2305 111.553 192 212 255
79.9213 158.679 123.319 249 245 255
107.74 122.664 112.722 255 248 240
71.1912 110.123 110.956 201 217 255
122.692 188.691 125.576 205 220 255
90.9659 101.212 110.265 216 226 255
56.9161 113.669 102.388 191 211 255
22.5552 61.2719 109.372 177 202 255
126.834 80.7902 115.061 194 213 255
76.8085 181.455 115.427 198 216 255
73.1344 142.945 91.7802 255 237 222
115.435 123.322 109.034 255 212 177
133.792 134.865 113.877 255 225 200
169.776 108.771 114.219 224 231 255
93.1497 173.711 110.833 211 224 255
158.718 195.086 114.247 190 211 255
122.85 120.295 106.423 219 228 255
114.763 119.252 114.776 255 240 228
189.626 74.1864 112.864 212 224 255
123.854 120.772 114.654 245 243 255
117.764 120.112 108.318 237 239 255
93.1079 173.663 110.829 238 239 255
169.47 68.8568 112.132 196 214 255
26.6757 64.7997 114.845 180 204 255
43.3743 198.036 112.279 193 212 255
107.044 120.596 108.857 255 248 241
66.1024 117.608 112.941 194 213 255
105.954 80.0268 112.208 255 215 184
172.164 99.4991 107.425 206 221 255
111.759 137.201 111.299 221 229 255
73.2079 89.2572 111.366 192 212 255
97.0325 143.286 113.368 205 220 255
108.325 110.875 113.499 255 251 255
81.8601 151.615 130.663 203 219 255
35.1056 99.6746 110.763 184 207 255
93.8833 174.89 110.966 193 213 255
175.881 72.429 111.863 198 216 255
116.812 65.3254 115.209 196 215 255
83.1465 73.3274 109.215 239 240 255
122.744 138.052 115.967 215 226 255
118.466 114.672 115.342 255 237 222
102.734 107.074 110.235 232 236 255
104.671 163.136 125.121 230 235 255
183.513 158.231 112.53 195 214 255
57.2518 111.54 111.58 227 233 255
105.799 163.064 115.263 199 216 255
111.374 149.13 119.837 216 226 255
105.751 102.423 116.568 188 210 255
70.6862 131.68 114.333 210 223 255
78.3938 72.4797 114.502 206 221 255
138.504 84.6892 119.018 221 229 255
124.748 75.5287 119.349 227 233 255
118.317 119.393 107.873 255 213 180
156.243 143.684 122.889 186 208 255
139.663 161.761 111.079 200 217 255
93.1498 173.669 110.913 202 218 255
107.505 137.77 113.455 226 232 255
111.588 105.065 114.086 255 200 155
12.7925 75.2062 112.072 189 210 255
52.8845 113.49 115.75 186 208 255
172.424 168.461 110.03 223 230 255
94.1982 169.275 109.781 192 212 255
115.286 140.532 111.262 255 223 198
216.94 139.194 114.45 185 207 255
150.568 90.7516 105.516 255 206 167
74.391 54.9221 123.427 189 210 255
57.3942 83.7627 111.011 194 213 255
106.929 179.854 111.33 222 230 255
100.88 167.464 108.126 220 229 255
92.8908 173.662 111.46 233 236 255
100.959 90.2418 115.64 210 223 255
145.131 179.368 114.898 192 212 255
86.4222 73.5617 109.364 255 248 241
54.6324 214.02 112.607 179 204 255
117.561 112.323 108.796 255 243 232
97.7755 75.0637 113.363 255 254 251
93.1003 173.649 110.819 235 238 255
123.243 188.246 113.612 201 217 255
77.4697 142.059 111.75 255 201 157
52.2808 100.121 122.046 189 210 255
56.3256 155.731 113.378 197 215 255
112.475 218.857 149.84 255 244 233
127.327 75.3343 135.983 245 243 255
161.851 103.212 119.691 216 226 255
102.631 102.574 114.337 255 78 0
97.0849 97.5724 107.179 253 248 255
96.9776 103.778 116.096 255 198 152
65.1666 117.195 117.96 192 212 255
64.9734 66.5415 124.281 199 216 255
115.7 144.894 114.8 255 245 235
116.054 145.18 113.131 255 247 238
30.9895 111.792 112.207 183 206 255
109.252 121.601 109.574 227 233 255
81.074 51.0285 108.373 183 206 255
107.123 30.6507 107.619 195 214 255
83.3331 145.836 114.02 220 229 255
120.222 114.513 110.868 225 232 255
193.851 158.821 118.168 204 219 255
109.975 119.1 111.021 255 220 193
50.8137 209.773 109.411 200 217 255
200.988 141.429 112.222 204 220 255
37.9021 64.6661 102.697 198 216 255
96.1299 141.716 119.506 181 205 255
93.1172 173.668 110.825 196 214 255
40.3303 62.5985 111.804 190 211 255
38.8445 94.0349 106.448 241 241 255
116.078 180.982 113.366 198 216 255
58.8645 36.2363 106.195 200 217 255
157.718 93.3095 119.811 250 246 255
105.875 151.142 119.62 185 208 255
117.77 137.374 118.29 210 223 255
83.8655 93.9134 111.937 255 224 199
61.1466 94.5554 111.442 199 216 255
114.91 164.823 105.783 181 205 255
53.9775 197.906 114.862 181 205 255
85.77 178.806 113.515 242 242 255
123.093 174.297 105.944 192 212 255
118.721 128.832 119.228 208 222 255
93.1501 173.711 110.833 214 225 255
115.814 80.4948 108.169 219 228 255
76.543 36.3664 106.828 188 209 255
20.1817 203.067 109.49 180 204 255
81.4629 119.027 110.602 201 217 255
135.414 143.304 110.662 221 229 255
182.484 71.7091 116.133 198 215 255
137.94 86.131 118.518 216 227 255
142.202 103.925 114.629 205 220 255
99.0309 107.261 107.368 255 149 47
77.0908 90.4428 114.652 198 215 255
37.6293 170.36 111.896 178 203 255
52.5834 77.5522 115.676 211 224 255
177.264 42.4882 114.503 200 217 255
183.965 133.999 134.949 189 210 255
109.192 104.613 96.6369 255 217 186
121.907 68.8442 111.241 206 221 255
93.1769 173.782 110.837 255 220 192
124.475 144.921 111.998 245 243 255
35.8791 84.4561 124.016 214 225 255
75.9266 114.08 114.241 212 224 255
103.955 136.364 111.186 223 231 255
93.1623 173.73 110.835 207 221 255
108.586 171.334 116.349 255 232 213
135.879 84.3082 114.192 255 231 211
224.006 65.4102 110.605 191 211 255
177.241 125.896 114.629 192 212 255
57.8477 115.145 112.656 226 232 255
200.92 104.78 108.881 187 209 255
141.148 82.3618 105.243 255 221 194
119.551 104.257 113.182 216 226 255
148.466 32.277 112.445 255 254 250
155.636 127.493 113.305 201 217 255
83.4918 140.108 113.002 213 224 255
110.29 120.396 111.702 234 237 255
156.719 3.38756 108.754 199 216 255
70.8104 124.484 115.533 255 244 234
154.809 207.114 96.5425 196 214 255
92.8842 43.5498 111.678 195 214 255
107.808 121.512 114.451 209 223 255
95.7893 19.4999 133.206 194 213 255
22.9334 54.2068 111.631 185 207 255
113.374 125.07 110.818 255 201 158
116.189 119.681 116.732 226 232 255
140.285 76.7348 127.073 244 243 255
165.612 127.166 98.6545 220 229 255
85.2809 115.283 109.998 255 241 229
113.18 111.129 107.433 201 218 255
104.684 170.65 105.686 223 231 255
93.1535 173.716 110.833 214 225 255
93.123 173.674 110.826 255 234 216
116.354 116.854 106.83 255 250 243
182.74 153.455 113.562 195 213 255
112.41 72.9596 112.375 201 217 255
134.145 82.1754 110.75 208 222 255
108.849 121.321 122.054 255 237 222
115.913 124.194 105.929 206 221 255
162.809 144.814 118.11 217 227 255
135.002 37.7822 118.725 200 217 255
104.371 131.128 108.567 206 221 255
127.509 86.0981 114.379 222 230 255
114.34 119.769 116.577 255 234 216
64.1597 98.0958 112.243 241 241 255
157.269 100.731 106.721 221 230 255
103.331 112.17 118.191 241 241 255
120.532 115.823 100.449 218 228 255
105.356 120.756 117.738 235 237 255
53.9607 34.7753 115.37 186 208 255
56.6256 99.5798 102.732 198 216 255
92.4537 173.592 111.32 204 219 255
103.52 95.2026 111.336 227 233 255
184.383 170.126 116.452 209 222 255
64.2118 72.2347 114.339 209 223 255
62.934 84.2535 110.951 184 207 255
142.794 156.185 108.093 207 221 255
163.09 116.087 103.758 198 216 255
98.1185 131.243 112.136 255 139 20
93.3564 173.782 110.745 198 216 255
148.717 35.458 118.087 191 211 255
108.694 143.083 105.977 255 233 216
89.4554 157.524 121.538 255 250 255
113.254 112.596 106.18 255 185 127
160.371 100.799 108.289 229 234 255
126.26 33.9445 112.703 189 210 255
194.571 172.691 108.759 188 209 255
102.125 110.189 111.825 194 213 255
54.6219 92.3027 106.643 206 221 255
94.292 174.167 110.562 202 218 255
118.994 114.392 97.2299 210 223 255
93.1572 173.722 110.834 255 234 217
154.639 100.37 115.648 196 214 255
59.9317 103.336 114.08 255 252 247
108.278 100.3 114.137 239 240 255
103.388 158.355 117.878 203 219 255
118.62 120.098 123.799 205 220 255
108.088 109.795 110.972 254 248 255
55.238 26.3162 108.317 187 209 255
119.536 89.7304 115.991 211 224 255
98.548 153.033 109.148 216 226 255
73.7069 169.35 114.12 199 216 255
192.006 129.419 106.486 255 228 206
105.114 67.5805 111.572 255 208 170
163.565 110.101 130.936 202 218 255
195.217 121.655 114.914 193 213 255
93.1457 173.764 110.787 199 216 255
149.719 20.9757 111.534 200 217 255
68.4055 117.1 111.985 255 244 234
96.1136 147.019 112.324 255 187 130
14.6745 94.6205 117.882 190 211 255
138.148 87.6413 112.354 244 243 255
159.219 140.036 108.855 198 215 255
95.2448 0.730304 107.312 188 209 255
139.708 51.9725 114.062 231 235 255
128.118 115.921 112.826 245 243 255
163.476 105.222 108.481 200 217 255
100.267 139.093 120.577 255 223 197
116.711 123.295 102.157 255 217 187
109.19 126.781 110.564 253 248 255
80.0487 121.496 147.83 220 229 255
138.941 120.905 113.667 215 226 255
26.4452 179.45 114.272 181 205 255
140.817 162.65 113.248 193 212 255
163.9 27.1102 111.626 198 216 255
114.172 105.405 113.836 225 232 255
104.965 153.462 109.527 231 235 255
93.0486 174.796 110.759 193 212 255
68.4826 5.23113 99.9056 201 217 255
163.561 125.467 122.349 192 212 255
110.959 119.865 110.849 255 252 246
56.6566 62.828 104.197 202 218 255
82.7608 125.855 112.764 247 245 255
148.143 129.391 112.896 255 237 222
118.585 113.998 101.858 255 246 237
145.323 86.6924 102.214 255 252 247
134.555 148.21 112.555 189 210 255
137.768 87.2578 112.971 208 221 255
64.6658 130.686 110.196 255 240 228
102.033 107.318 107.513 208 222 255
153.158 100.946 112.096 199 216 255
111.921 119.566 124.273 255 250 255
71.0745 132.777 111.859 255 241 228
126.162 64.576 116.516 203 219 255
128.415 78.5537 118.604 202 218 255
140.144 111.953 113.086 255 254 250
112.745 107.242 103.797 255 232 213
111.635 140.216 117.872 222 230 255
60.3303 128.677 105.419 194 213 255
159.061 142.342 113.186 220 229 255
130.625 104.271 114.638 255 247 238
220.71 95.9139 110.529 193 213 255
156.697 148.576 112.321 197 215 255
83.0716 138.312 111.999 255 246 236
104.709 119.166 110.249 246 244 255
122.317 121.474 108.641 239 240 255
89.6951 74.8688 110.045 204 219 255
100.21 188.912 109.087 206 220 255
100.019 19.5422 104.959 186 208 255
92.8009 173.167 110.548 204 219 255
28.1654 188.26 112.3 187 209 255
93.4171 43.7617 113.222 200 217 255
110.101 123.141 107.618 255 226 202
116.23 116.178 107.381 255 187 130
95.8614 180.33 115.675 204 219 255
106.665 115.539 121.973 213 225 255
27.365 166.65 112.538 198 215 255
71.7337 40.5555 101.228 194 213 255
93.1037 173.689 110.816 255 175 105
96.5247 144.37 113.784 232 236 255
90.746 91.5292 110.23 242 242 255
107.124 105.496 113.622 255 236 219
111.262 108.699 113.805 255 219 190
149.266 109.026 114.87 237 239 255
165.452 86.3784 112.545 204 220 255
89.3639 127.499 114.973 221 229 255
93.0881 173.64 110.815 193 212 255
213.63 129.549 106.894 187 209 255
120.514 68.784 116.81 204 219 255
95.469 173.615 109.819 255 254 250
58.7422 156.458 97.6639 190 211 255
9.60298 93.5358 113.356 177 203 255
199.659 39.9303 112.037 191 211 255
44.6113 84.5248 125.064 194 213 255
108.426 147.107 109.979 217 227 255
125.163 52.9732 117.513 200 217 255
113.315 121.086 115.908 211 224 255
51.7962 83.2598 117.569 205 220 255
97.8887 191.328 111.236 189 210 255
148.403 83.9715 114.815 214 225 255
48.8643 116.147 115.276 220 229 255
12.3192 65.6095 112.38 192 212 255
54.2658 82.6163 123.141 197 215 255
93.1724 173.755 110.837 218 228 255
60.82 59.2505 126.554 186 208 255
118.328 154.433 110.486 200 217 255
108.687 104.95 113.397 255 216 185
107.733 165.654 119.634 255 245 235
194.255 34.4055 114.457 194 213 255
115.865 203.357 117.243 189 210 255
79.6088 148.816 117.406 199 216 255
173.69 102.14 113.135 191 211 255
103.987 117.175 125.564 255 241 229
108.077 174.561 115.098 255 249 255
93.172 173.748 110.834 195 214 255
93.1524 173.715 110.833 205 220 255
144.251 91.0133 118.384 204 219 255
160.2 160.559 132.776 213 225 255
35.6625 70.8264 112.689 198 216 255
135.529 115.974 112.099 217 227 255
111.543 119.176 124.606 255 251 245
92.7556 96.8273 115.112 255 251 245
28.7112 50.2876 113.557 187 209 255
80.8134 208.062 112.705 189 210 255
115.069 155.379 111.844 190 211 255
122.131 188.468 109.017 182 206 255
147.771 84.5202 107.225 202 218 255
59.2987 73.6729 111.448 202 218 255
114.485 116.488 114.341 239 240 255
95.6493 124.016 111.976 255 210 174
152.708 71.3474 115.07 231 235 255
137.041 115.79 107.342 255 248 240
109.815 109.082 110.039 255 254 251
60.3237 111.135 120.787 192 212 255
93.1114 173.662 110.824 237 239 255
62.759 66.0686 110.449 193 212 255
93.0884 173.62 110.79 251 247 255
93.476 39.9185 110.826 190 210 255
162.89 81.2594 125.694 237 239 255
102.438 22.7429 109.893 181 205 255
51.8547 212.984 98.3952 186 208 255
223.593 107.219 115.637 178 203 255
167.894 19.4001 115.693 200 217 255
155.833 77.9171 109.945 215 226 255
117.184 125.233 104.347 255 230 210
117.621 162.069 113.325 216 226 255
102.077 87.7828 116.365 201 217 255
135.097 154.34 110.468 213 225 255
122.096 123.964 111.938 200 217 255
140.738 112.576 113.609 255 221 194
52.6005 120.445 125.078 202 218 255
163.538 149.174 114.216 188 210 255
146.328 0.346181 118.412 193 213 255
13.7301 144.206 108.301 193 212 255
136.181 184.927 108.007 208 222 255
83.4912 69.1311 112.253 247 244 255
26.6427 48.3853 113.267 199 216 255
92.599 173.225 111.029 255 192 140
93.1013 173.334 110.631 210 223 255
79.9197 154.273 107.719 231 235 255
93.1618 173.73 110.806 196 215 255
59.9462 158.654 116.636 197 215 255
101.033 106.939 115.137 255 223 198
112.86 160.355 113.488 231 235 255
66.4288 117.705 110.916 205 220 255
164.731 115.846 67.8824 210 223 255
52.794 28.2674 84.1124 211 223 255
92.8128 173.352 110.789 214 225 255
51.8097 156.914 117.339 255 250 255
125.137 30.3196 116.66 195 214 255
83.8142 144.76 99.6845 208 222 255
117.536 119.696 119.127 215 226 255
172.663 116.518 115.212 194 213 255
96.1229 72.8007 109.507 212 224 255
93.1635 173.733 110.834 206 220 255
113.093 120.532 108.6 255 238 223
100.987 122.829 110.334 255 233 215
146.584 118.615 120.766 200 217 255
93.2064 173.574 110.868 220 229 255
193.775 169.618 111.719 192 212 255
157.689 125.956 114.78 189 210 255
119.15 121.458 105.615 255 238 224
107.632 111.122 117.412 255 205 164
65.7036 129.337 117.794 238 239 255
201.319 30.1699 112.032 189 210 255
75.7272 51.7778 113.522 217 227 255
146.557 85.297 107.111 224 231 255
99.9951 116.638 115.769 220 229 255
211.25 112.443 113.664 186 208 255
126.443 80.2949 109.78 203 219 255
138.95 74.3392 108.322 240 240 255
153.539 113.846 112.585 201 217 255
170.14 90.199 114.478 191 211 255
42.9991 208.924 112.535 195 214 255
106.18 209.1 112.922 180 204 255
93.6676 178.962 112.585 216 226 255
90.312 160.056 108.459 207 221 255
74.7574 60.5327 113.573 196 214 255
126.081 102.006 114.361 255 222 196
154.899 142.278 109.75 195 214 255
161.739 105.179 112.413 206 220 255
108.018 108.642 111.397 255 146 40
172.534 48.9876 109.165 182 205 255
93.1524 173.715 110.833 201 218 255
137.741 81.3227 108.418 198 215 255
100.473 90.7606 107.517 211 224 255
126.726 75.0067 120.959 210 223 255
103.035 123.765 107.76 218 227 255
36.4415 117.595 107.368 215 226 255
18.5918 110.942 115.679 190 211 255
118.745 139.886 107.518 255 153 57
103.75 127.441 112.006 255 251 246
92.2794 174.577 111.12 194 213 255
132.985 130.391 112.598 202 218 255
171.351 105.496 93.0653 187 209 255
105.818 122.215 112.282 228 234 255
92.2658 143.743 113.134 206 221 255
163.855 121.698 116.487 228 233 255
93.1456 173.705 110.832 255 247 238
214.034 141.885 115.593 193 213 255
164.908 128.014 104.983 207 221 255
92.3098 85.1536 113.569 197 215 255
107.519 164.162 105.112 203 219 255
145.817 119.943 111.817 210 223 255
88.3144 29.581 112.085 197 215 255
182.852 28.5677 111.235 192 212 255
184.67 10.521 103.355 190 210 255
68.7184 192.055 115.853 204 219 255
93.1282 173.687 110.812 205 220 255
14.832 185.842 112.475 189 210 255
14.0988 114.291 109.633 191 212 255
153.221 165.689 111.87 201 217 255
114.052 115.302 110.47 216 226 255
69.7489 43.6943 105.244 199 216 255
93.2506 173.76 110.859 213 225 255
28.3942 58.3012 129.439 195 214 255
132.717 75.1558 106.266 217 227 255
171.879 107.544 114.543 182 206 255
93.162 173.73 110.834 196 214 255
105.476 161.458 117.043 224 231 255
152.384 14.596 110.769 200 217 255
115.348 91.6017 106.123 240 240 255
106.838 120.53 107.86 255 171 97
99.6843 119.013 117.998 214 225 255
109.807 125.994 105.76 245 243 255
127.093 166.839 105.027 194 213 255
173.855 133.257 98.4007 207 221 255
117.245 137.414 114.544 211 224 255
111.265 127 112.713 219 228 255
119.332 74.8528 117.254 237 239 255
164.809 130.516 102.126 196 214 255
145.956 38.6991 111.148 179 203 255
106.491 107.507 112.908 255 225 201
124.769 202.438 116.686 192 212 255
120.864 95.5053 113.867 255 248 241
154.962 35.615 110.323 194 213 255
91.1298 119.966 109.41 200 217 255
117.966 182.093 113.872 181 205 255
2.40695 147.008 109.456 192 212 255
113.164 109.937 113.77 255 218 190
111.641 123.886 110.526 228 234 255
87.4718 75.761 93.4372 197 215 255
46.8495 135.258 128.65 199 216 255
120.15 33.1598 111.896 197 215 255
104.402 125.713 111.008 255 250 243
129.853 50.3363 113.131 217 227 255
109.531 65.7404 112.268 239 240 255
108.193 163.567 119.208 201 218 255
17.726 98.93 112.452 187 209 255
64.9337 115.848 112.366 230 235 255
112.748 106.07 114.307 221 229 255
81.3371 28.0101 109.141 185 207 255
114.918 126.975 108.486 238 239 255
7.64986 168.737 112.704 220 229 255
119.622 131.735 115.092 194 213 255
54.5456 66.1852 98.0682 199 216 255
91.8311 68.162 112.304 226 232 255
93.1577 173.922 110.769 194 213 255
104.633 184.125 82.4023 255 203 161
50.6998 134.553 116.614 200 217 255
144.423 123.572 110.429 201 217 255
102.393 167.028 111.537 221 230 255
140.776 127.163 112.5 237 239 255
109.794 139.486 106.98 209 222 255
114.404 97.8204 114.044 235 238 255
123.347 85.8503 109.039 240 240 255
109.161 178.118 109.76 234 237 255
109.639 113.147 111.438 255 246 237
119.765 69.1886 113.63 210 223 255
93.1508 173.712 110.833 255 249 255
93.1681 173.741 110.834 241 241 255
104.342 104.86 107.909 222 230 255
93.1554 173.719 110.834 186 208 255
93.2318 173.827 110.759 255 244 233
100.325 119.84 114.335 255 220 193
116.779 115.747 105.188 237 239 255
64.8378 106.184 108.916 206 220 255
111.39 118.853 118.128 228 233 255
92.0587 215.765 116.986 194 213 255
84.4659 109.059 110.679 201 217 255
35.5189 71.2703 113.823 194 213 255
75.7885 112.245 111.511 243 242 255
68.2568 205.744 111.746 213 225 255
105.302 155.369 107.088 255 250 243
143.611 174.555 114.214 190 211 255
109.899 127.56 108.38 255 200 156
82.1517 111.35 110.889 228 234 255
15.672 128.575 113.547 197 215 255
73.0726 59.3011 113.703 255 253 249
126.919 85.2192 121.529 255 255 251
93.1279 173.682 110.828 197 215 255
126.461 182.036 111.852 197 215 255
191.828 185.428 109.004 193 213 255
128.274 28.4033 111.494 193 212 255
115.263 102.152 114.37 255 248 240
125.943 105.748 114.829 255 226 203
93.1534 173.717 110.833 201 218 255
182.144 22.3669 107.733 199 216 255
47.7796 142.43 113.774 197 215 255
113.922 139.618 107.681 193 212 255
74.6887 151 110.223 252 247 255
153.135 114.991 110.201 207 221 255
106.786 120.947 111.997 246 244 255
116.643 118.952 119.777 255 206 167
117.422 135.591 107.363 255 238 223
161.658 43.3618 113.373 216 227 255
37.284 128.047 112.593 197 215 255
94.3235 173.283 110.633 255 230 210
84.5648 148.949 117.999 224 231 255
57.253 41.1488 110.813 223 230 255
154.835 136.942 111.983 199 216 255
119.917 117.98 107.1 203 219 255
139.625 120.746 112.444 236 238 255
152.538 147.519 113.102 252 247 255
64.0098 44.057 105.48 204 219 255
112.114 81.735 99.7296 240 241 255
121.077 125.452 117.938 255 238 224
133.513 105.4 110.778 201 217 255
133.795 148.722 112.02 212 224 255
55.6751 88.9186 115.258 206 221 255
113.483 187.633 111.89 186 208 255
97.0787 102.069 106.854 209 222 255
65.2696 117.981 116.839 205 220 255
84.1378 142.243 114.042 226 232 255
78.0266 151.324 114.974 186 208 255
65.458 111.999 111.681 204 219 255
81.0951 90.5327 110.729 195 214 255
93.1332 173.688 110.829 184 207 255
80.8353 106.392 112.39 255 221 195
113.832 113.575 105.81 221 229 255
115.983 41.11 110.865 212 224 255
142.341 90.9864 109.749 193 213 255
19.9743 108.389 117.263 187 208 255
114.973 118.387 105.58 240 240 255
135.513 102.269 110.314 255 249 241
114.611 45.1498 112.029 225 232 255
134.503 76.1186 104.94 230 234 255
101.573 37.4115 113.918 191 211 255
107.796 105.913 120.008 255 249 255
92.695 174.282 111.576 229 234 255
178.158 148.745 100.216 230 235 255
121.817 132.169 115.905 255 251 245
116.032 107.391 98.348 255 207 169
57.6841 121.636 85.4806 232 236 255
151.622 120.976 111.302 255 255 252
56.4442 24.362 136.276 225 232 255
175.036 145.293 113.663 198 216 255
190.23 111.901 115.045 195 213 255
94.5902 175.383 110.883 209 222 255
130.441 26.154 111.113 190 210 255
55.7278 64.7023 105.659 253 248 255
83.6861 17.0855 103.945 189 210 255
83.0497 57.3616 110.051 197 215 255
107.697 116.636 112.652 218 228 255
114.986 114.417 103.076 229 234 255
188.013 161.664 116.875 190 211 255
113.074 99.5142 127.743 255 235 218
147.835 91.29 119.738 198 215 255
55.2323 49.8107 115.287 191 211 255
38.0829 142.511 83.0302 211 224 255
57.9018 125.056 104.704 205 220 255
72.3527 128.513 114.806 195 213 255
168.613 38.3405 112.477 197 215 255
93.0962 173.667 112.471 202 218 255
132.321 79.387 130.18 195 214 255
147.314 20.588 112.325 203 219 255
122.218 137.355 110.983 210 223 255
91.7058 58.7836 112.63 200 217 255
120.619 47.3411 111.389 194 213 255
95.4585 104.984 106.518 228 233 255
152.489 96.8823 108.065 202 218 255
115.994 119.234 109.446 255 203 161
23.1844 186.149 111.767 188 209 255
87.4536 114.6 109.425 255 252 247
141.601 172.571 114.567 183 206 255
92.0658 124.944 113.237 211 223 255
98.8847 186.216 111.687 212 224 255
97.2199 92.8384 112.925 255 247 238
110.475 113.556 111.011 192 212 255
160.791 134.71 112.795 215 226 255
106.347 162.76 112.96 224 231 255
150.473 92.8028 106.149 182 205 255
93.1544 173.718 110.833 207 221 255
102.726 126.176 112.345 255 253 249
109.269 117.032 112.642 218 228 255
93.1697 173.742 110.835 201 217 255
110.904 124.378 109.825 201 217 255
4.74298 108.116 109.449 207 221 255
105.707 125.125 106.138 255 199 154
113.039 159.579 110.259 188 209 255
154.614 156.204 108.763 213 224 255
105.093 61.1042 110.604 220 229 255
114.926 164.305 112.417 181 205 255
172.093 187.556 129.192 193 213 255
37.168 105.691 109.225 199 216 255
89.1874 13.1381 111.388 191 211 255
93.1691 173.674 110.814 231 235 255
144.81 71.5034 119.858 255 148 44
113.035 142.046 104.405 255 253 248
119.912 117.424 104.049 255 216 186
172.853 137.814 110.208 200 217 255
111.689 105.954 103.996 255 244 234
141.262 138.759 113.599 217 227 255
93.1496 173.711 110.833 193 213 255
168.19 48.4033 112.503 204 219 255
99.8117 164.85 107.856 243 242 255
117.612 116.483 106.229 224 231 255
75.8775 172.168 111.953 203 219 255
110.617 104.789 121.666 215 226 255
95.6758 159.912 120.129 207 221 255
106.809 106.836 120.666 206 221 255
86.2185 57.6301 109.996 206 220 255
143.145 185.168 111.768 217 227 255
99.0236 157.58 128.012 255 243 231
105.309 106.88 106.695 236 238 255
93.1203 173.66 110.835 231 235 255
210.748 103.736 110.681 193 213 255
76.1681 50.5588 112.463 203 219 255
111.142 109.281 122.956 255 249 255
93.0707 173.614 110.801 189 210 255
70.8162 100.662 113.159 194 213 255
63.6294 31.3005 111.848 187 209 255
122.908 86.9429 129.44 255 247 238
92.6284 174.482 109.877 216 226 255
175.539 165.629 93.2132 196 214 255
93.1866 173.759 110.864 255 249 255
93.036 174.237 110.854 217 227 255
149.063 163.189 111.844 255 248 240
95.5897 64.0462 116.688 227 233 255
106.11 99.4301 112.688 214 225 255
21.6374 191.497 111.963 190 210 255
32.6261 172.271 117.67 200 217 255
103.539 154.089 111.986 187 209 255
36.8628 33.1668 115.645 185 207 255
92.2303 56.0969 111.888 196 214 255
220.253 133.495 112.593 194 213 255
97.9543 172.678 107.225 255 233 215
138.675 128.77 114.294 255 242 229
93.1577 173.723 110.834 191 211 255
75.8428 205.413 112.46 187 209 255
103.353 86.2374 107.32 218 228 255
93.1217 173.672 110.826 255 254 250
154.919 85.7909 90.3054 224 231 255
110.476 126.335 110.559 253 247 255
80.0074 120.809 108.491 255 238 223
147.375 111.092 108.966 255 253 248
158.363 116.995 115.004 198 216 255
113.046 113.284 123.561 208 222 255
156.077 118.422 147.063 194 213 255
92.8093 173.626 111.305 255 180 116
66.1566 135.817 102.774 202 218 255
109.182 114.185 116.288 255 215 183
88.5122 99.6845 113.921 255 248 240
44.8045 70.1491 98.1141 209 222 255
156.647 112.453 114.365 216 227 255
112.306 106.379 107.369 202 218 255
166.086 114.265 107.623 199 216 255
105.75 103.277 108.155 208 222 255
94.1396 15.7328 104.074 191 211 255
172.68 121.239 113.622 216 227 255
112.36 111.657 112.997 255 225 201
102.727 119.226 116.279 202 218 255
152.274 91.5208 109.699 227 233 255
132.591 182.486 118.178 205 220 255
93.0393 173.838 110.832 255 246 237
93.1935 173.806 110.855 196 215 255
209.085 103.665 108.369 188 209 255
94.6698 80.677 111.198 255 250 243
207.252 122.819 113.15 200 217 255
62.9141 40.7102 113.874 195 214 255
78.612 156.031 112.161 198 215 255
46.4069 59.1181 113.957 186 208 255
101.648 153.976 113.129 255 224 200
122.8 54.8446 113.757 255 252 247
141.113 86.4552 119.729 224 231 255
111.638 112.618 104.053 255 245 235
158.468 60.9299 114.957 230 235 255
53.7951 48.8592 100.805 194 213 255
223.302 48.9139 111.469 179 204 255
168.983 66.8083 110.865 219 228 255
168.787 125.347 122.193 210 223 255
203.581 100.243 113.864 193 212 255
42.4241 55.2215 109.262 183 206 255
108.174 149.942 141.571 255 224 199
93.0835 173.664 110.826 185 207 255
93.0986 173.643 110.834 192 212 255
44.3031 111.729 111.976 189 210 255
69.3447 144.237 123.499 234 237 255
103.058 162.554 114.051 199 216 255
117.498 112.35 107.27 255 231 212
107.567 115.407 119.368 228 233 255
111.162 72.6141 113.67 194 213 255
116.414 93.1813 113.364 255 243 232
93.142 173.7 110.831 196 215 255
213.32 135.15 107.534 191 211 255
111.71 102.42 113.836 255 210 174
117.426 149.084 107.676 255 131 0
162.654 117.788 118.013 186 208 255
220.872 131.002 112.37 180 204 255
107.27 118.621 125.802 223 231 255
108.479 113.648 111.856 221 230 255
98.7805 88.2247 111.821 203 219 255
134.296 126.74 112.726 210 223 255
116.903 116.103 104.774 208 221 255
102.365 150.306 120.587 233 237 255
151.57 23.1724 108.868 197 215 255
112.193 82.0507 109.772 246 244 255
63.3953 115.775 119.948 234 237 255
211.19 36.9729 117.56 205 220 255
112.665 117.502 114.921 227 233 255
93.1511 173.713 110.833 255 251 255
87.2056 146.244 127.256 193 212 255
93.106 173.656 110.822 193 213 255
167.754 135.326 151.628 190 211 255
152.806 89.8502 105.051 208 222 255
124.748 136.76 110.607 255 236 220
105.517 141.096 107.798 255 241 228
100.117 153.281 110.037 201 218 255
101.226 29.3262 121.38 203 218 255
118.711 117.268 114.672 255 241 229
93.1495 173.711 110.833 221 230 255
65.978 84.0738 108.773 185 207 255
9.67548 146.229 108.198 191 211 255
58.1542 48.3689 95.3037 255 243 232
155.289 139.813 115.719 214 225 255
93.116 173.658 110.827 199 216 255
101.838 111.675 122.28 218 228 255
176.348 147.801 96.8974 201 217 255
178.306 34.8361 115.386 221 230 255
112.593 118.756 112.676 213 225 255
97.2098 124.05 113.056 242 242 255
107.926 132.437 85.4388 189 210 255
111.597 208.101 133.798 182 205 255
69.9304 106.749 127.773 255 251 246
100.779 91.6615 106.164 255 120 0
110.018 101.055 107.598 254 248 255
80.5704 109.688 110.999 255 246 237
125.805 69.7628 118.785 214 225 255
48.8616 97.8889 109.609 201 218 255
200.817 42.1134 112.034 186 208 255
93.1287 173.681 110.827 214 225 255
50.7317 61.7847 98.5148 191 211 255
52.5896 47.988 136.021 201 218 255
130.598 77.5392 112.006 255 238 223
23.5127 121.055 109.732 218 228 255
102.103 173.542 107.963 186 208 255
39.3839 145.106 108.123 187 208 255
114.5 106.736 111.633 255 215 183
68.3474 24.2556 101.97 193 212 255
112.636 117.797 112.235 214 225 255
106.965 119.791 119.242 210 223 255
90.7323 178.924 100.342 255 240 228
165.667 44.797 111.736 195 214 255
68.2838 112.769 112.086 255 228 207
97.6189 169.779 107.333 194 213 255
74.4941 47.2223 109.425 195 214 255
116.262 137.976 117.477 202 218 255
143.849 162.527 111.992 222 230 255
103.83 108.252 117.789 210 223 255
104.799 78.3386 114.605 213 225 255
123.566 86.6001 118.569 220 229 255
53.1682 87.4296 107.373 255 208 170
117.964 164.803 109.677 209 222 255
104.023 120.452 112.74 255 232 212
76.0568 223.318 121.341 184 207 255
105.424 85.0915 117.059 212 224 255
94.065 174.292 110.231 214 225 255
115.786 123.811 105.875 255 177 110
131.54 188.999 111.697 199 216 255
91.4015 134.353 115.342 255 232 214
125.609 48.0618 112.409 196 214 255
206.809 75.159 112.839 200 217 255
112.274 104.945 102.421 255 237 221
45.9738 98.9257 111.387 236 238 255
165.824 141.921 110.418 255 253 249
93.1546 173.718 110.834 216 226 255
113.933 118.491 116.233 221 229 255
104.996 114.557 114.003 255 251 255
151.713 96.0957 110.421 235 237 255
129.679 135.761 112.303 224 231 255
93.1892 173.781 110.831 187 209 255
123.692 61.4939 117.319 250 246 255
69.7984 22.1302 105.941 190 210 255
70.1744 36.6813 117.118 182 206 255
169.646 57.3286 112.693 189 210 255
75.3624 58.35 112.853 190 210 255
90.4781 175.918 111.059 195 214 255
107.159 98.9455 106.272 236 238 255
129.62 106.524 111.045 255 237 221
169.453 47.8207 111.442 205 220 255
139.751 145.197 110.684 223 231 255
155.866 85.4723 115.129 213 224 255
94.2916 79.9761 100.215 255 235 219
51.5421 122.925 107.346 216 226 255
108.51 105.161 109.802 218 227 255
110.454 105.866 108.277 255 213 180
152.661 2.512 102.287 179 204 255
146.259 90.1203 120.875 208 222 255
155.771 105.432 112.008 255 244 234
104.872 116.094 122.456 255 226 204
116.15 101.592 113.596 245 243 255
93.0928 173.619 110.816 225 232 255
59.2529 53.466 97.4956 198 216 255
159.711 110.689 114.359 199 216 255
116.485 169.445 108.219 201 218 255
93.2427 174.176 115.712 205 220 255
158.616 187.281 88.7246 255 249 242
146.76 75.8302 93.962 200 217 255
45.8451 214.621 117.595 187 209 255
190.802 24.4517 106.177 187 209 255
168.25 84.5288 113.385 191 211 255
149.39 64.5724 112.222 193 212 255
122.086 147.026 113.304 255 208 171
90.9424 123.672 111.069 229 234 255
112.232 170.756 112.353 201 217 255
58.4027 68.6694 115.581 189 210 255
109.944 98.1358 115.465 217 227 255
69.9405 67.7174 114.149 202 218 255
144.536 128.561 110.456 197 215 255
161.047 116.473 137.194 230 235 255
63.539 144.01 119.125 203 219 255
83.9688 156.757 116.447 194 213 255
62.9533 123.895 112.64 223 231 255
148.302 117.52 112.303 235 238 255
73.6345 55.0819 111.303 214 225 255
52.212 65.1657 100.382 187 209 255
133.45 79.6407 124.43 213 224 255
155.137 138.232 86.1298 197 215 255
110.888 196.815 111.04 208 222 255
199.147 30.1851 112.4 212 224 255
87.3295 118.118 111.499 255 242 230
103.919 156.529 127.134 201 217 255
187.857 128.934 119.078 209 222 255
149.437 106.883 114.303 208 222 255
173.07 22.0675 111.023 202 218 255
80.4604 77.0542 112.894 243 242 255
66.6314 54.6558 110.332 255 249 255
48.5186 149.01 111.351 200 217 255
135.623 118.995 112.768 197 215 255
158.341 145.894 112.342 198 215 255
97.2084 182.489 106.429 192 212 255
107.858 174.396 107.269 206 220 255
54.021 104.349 113.325 189 210 255
148.32 86.1963 105.662 214 225 255
100.832 112.565 112.948 209 222 255
113.764 130.195 56.5956 246 244 255
92.843 173.397 110.858 255 241 228
105.503 116.164 118.123 255 157 67
151.349 174.526 113.23 201 218 255
52.7109 44.9223 116.48 181 205 255
84.4924 66.2172 109.792 255 229 208
37.7066 95.9424 116.016 198 215 255
93.1091 173.658 110.823 201 218 255
120.913 117.095 118.288 208 222 255
109.258 99.1072 120.341 233 236 255
183.702 30.3046 112.392 192 212 255
144.706 32.4659 109.301 183 206 255
155.996 100.609 103.109 198 216 255
110.663 113.18 112.291 216 226 255
159.013 86.2279 137.57 198 216 255
188.229 45.7908 111.849 210 223 255
137.167 36.2077 113.117 191 211 255
121.376 93.1569 113.021 255 215 183
48.416 116.733 108.401 235 238 255
121.341 154.646 110.598 205 220 255
95.8248 72.1648 116.038 203 219 255
123.481 101.675 116.213 199 216 255
116.045 124.98 105.187 242 242 255
42.9396 141.004 111.491 214 225 255
91.9661 69.9752 111.485 211 223 255
113.632 190.035 111.491 193 212 255
93.3178 174.591 111.422 229 234 255
93.1574 173.723 110.834 200 217 255
118.425 111.663 120.921 255 217 187
125.474 208.359 115.316 202 218 255
166.9 82.0946 98.3091 255 251 246
213.942 98.5646 109.491 190 211 255
130.449 72.2132 121.132 213 225 255
98.6502 175.439 107.441 255 254 251
158.148 100.04 103.74 195 214 255
136.981 84.149 110.232 212 224 255
93.1193 173.658 110.716 255 242 231
85.8958 87.1682 112.221 255 238 224
120.553 115.494 100.61 232 236 255
120.244 87.9881 112.725 225 232 255
143.597 106.249 112.232 235 237 255
36.7717 67.2056 111.336 201 217 255
144.373 97.2184 112.07 227 233 255
160.402 41.9911 115.925 228 234 255
115.588 119.213 113.865 255 250 244
105.368 98.4898 112.821 255 239 225
118.037 115.151 107.435 254 248 255
104.612 87.6564 118.817 255 247 238
81.1102 90.06 115.721 255 255 252
26.493 51.5754 118.51 190 211 255
110.122 101.366 115.321 255 241 228
105.231 101.654 107.992 199 216 255
93.1711 173.614 111.104 196 215 255
105.842 119.8 115.133 255 162 77
99.6087 106.417 116.802 255 192 140
74.1566 182.531 110.32 195 213 255
119.458 69.4306 117.141 218 228 255
108.681 123.04 111.229 220 229 255
48.2713 79.3467 111.052 219 228 255
93.1609 173.728 110.834 255 252 246
72.1147 160.219 110.692 207 221 255
93.5233 172.882 111.115 214 226 255
106.976 119.747 109.158 255 227 205
121.397 182.001 116.703 255 239 226
118.536 108.133 112.247 218 228 255
170.863 180.452 113.068 231 235 255
100.596 160.543 98.1102 208 222 255
93.0808 173.984 111.001 211 223 255
121.515 171.967 63.7218 187 209 255
112.106 39.3204 112.625 193 213 255
72.01 100.824 110.828 203 219 255
134.908 69.3294 115.705 224 231 255
104.302 171.89 116.161 235 238 255
56.6636 176.14 111.167 206 221 255
129.822 119.928 111.803 232 236 255
177.028 161.934 118.92 186 208 255
52.4889 139.814 107.523 196 215 255
40.6605 183.451 112.046 207 221 255
144.626 78.9305 107.634 216 227 255
79.81 10.299 112.944 200 217 255
65.1905 14.5067 135.568 203 219 255
151.408 56.7817 115.301 181 205 255
147.279 143.75 114.489 211 223 255
112.162 121.352 118.112 255 250 243
100.26 199.058 112.733 189 210 255
93.0519 173.633 110.835 213 225 255
106.022 164.886 111.391 255 253 249
118.128 109.523 101.928 237 239 255
149.461 172.869 105.838 193 212 255
102.609 166.233 114.512 203 219 255
114.102 108.884 116.384 255 245 235
102.619 24.3319 111.145 190 211 255
112.649 122.038 117.626 255 154 59
60.2027 167.389 115.324 208 222 255
85.1176 128.418 111.4 226 232 255
93.1473 173.707 110.832 213 225 255
109.035 84.5586 114.147 255 228 206
116.384 126.807 116.228 209 222 255
93.1445 173.704 110.831 204 219 255
107.798 110.399 106.353 255 249 243
158.082 177.207 115.693 187 208 255
118.448 119.643 99.2948 221 230 255
111.706 117.384 110.637 255 153 55
106.126 103.731 111.466 244 243 255
13.6544 161.685 117.641 200 217 255
169.124 135.615 103.336 199 216 255
78.5435 180.467 110.417 255 242 230
93.1559 173.72 110.833 206 221 255
97.3634 177.913 113.522 215 226 255
138.632 117.37 108.564 217 227 255
78.5494 10.4061 121.603 188 209 255
86.1251 201.744 110.608 255 248 240
169.961 157.008 90.686 227 233 255
109.216 104.797 111.147 255 189 134
93.1663 173.738 110.834 255 226 204
127.565 72.0989 122.511 255 250 255
125.49 77.2327 111.403 200 217 255
34.4607 160.32 105.207 183 206 255
52.7126 89.7596 115.094 206 221 255
113.045 122.682 112.614 208 222 255
150.335 102.261 112.289 242 242 255
146.047 153.937 110.839 237 239 255
175.406 19.0246 104.582 187 209 255
113.222 117.838 116.904 210 223 255
111.966 120.665 122.532 255 252 246
107.27 58.8024 110.458 215 226 255
49.8364 71.5383 104.916 243 242 255
83.277 155.469 108.161 255 227 204
93.1283 173.682 110.828 212 224 255
103.003 153.148 112.214 187 209 255
104.909 109.46 114.558 255 189 134
108.284 155.362 109.337 255 240 226
111.644 123.916 105.593 255 245 236
120.282 82.4956 110.489 219 228 255
196.815 149.014 101.904 204 219 255
93.1461 173.706 110.832 219 228 255
118.764 118.892 118.592 230 235 255
108.495 90.0166 115.029 224 231 255
121.074 176.945 112.282 190 210 255
93.9001 174.738 110.855 205 220 255
119.364 111.858 106.827 255 217 186
95.9181 171.817 113.214 212 224 255
110.583 171.737 114.626 183 206 255
106.51 113.339 107.225 255 156 65
127.14 169.206 112.774 224 231 255
105.432 174.04 112.611 187 209 255
89.8931 194.39 113.05 219 228 255
52.5401 24.8541 106.855 194 213 255
69.5927 150.009 111.869 212 224 255
50.8439 54.4536 112.816 197 215 255
152.993 88.6024 110.294 255 239 225
105.442 179.318 109.767 192 212 255
63.0698 176.036 112.211 209 222 255
105.236 169.345 113.196 211 223 255
123.19 200.574 110.174 185 207 255
94.4437 108.052 108.867 210 223 255
180.698 120.347 117.109 194 213 255
161.202 86.5115 115.954 210 223 255
111.146 119.333 116.169 200 217 255
113.135 122.362 115.955 255 195 146
105.892 67.9714 115.378 255 239 225
68.2248 132.067 106.477 201 217 255
111.321 115.477 111.329 255 244 233
112.482 118.261 121.29 255 234 216
108.161 122.185 108.729 222 230 255
73.8516 40.449 93.5328 211 224 255
102.802 125.917 112.808 255 221 195
60.2271 129.86 105.076 255 254 251
45.6935 161.44 107.478 194 213 255
120.228 108.29 100.775 255 193 142
115.921 117.656 117.684 217 227 255
94.1973 41.6977 111.283 201 217 255
112.767 117.275 114.868 235 237 255
10.5879 149.805 112.04 203 219 255
93.1632 173.728 110.838 202 218 255
118.965 109.095 120.794 255 225 201
112.067 111.481 112.003 220 229 255
151.36 88.4794 124.007 203 219 255
80.2617 142.597 111.249 230 235 255
123.635 139.819 111.226 218 228 255
124.202 72.3403 123.147 196 214 255
201.467 93.5714 108.939 225 232 255
175.681 110.681 113.339 228 234 255
93.1652 173.74 110.839 220 229 255
109.962 67.2247 114.123 198 215 255
148.772 92.1528 125.735 202 218 255
93.1389 173.696 110.83 234 237 255
224.596 81.0853 109.793 184 207 255
141.497 84.3432 120.293 225 232 255
192.193 28.048 109.945 190 211 255
179.203 84.8767 109.84 207 221 255
82.4587 35.849 115.076 244 243 255
95.9903 67.2846 116.119 197 215 255
49.1375 152.062 116.486 202 218 255
46.3733 208.961 110.344 180 204 255
96.9403 176.845 108.4 208 221 255
117.885 213.49 113.777 174 200 255
110.597 77.6038 113.651 250 246 255
88.0395 35.9862 107.495 214 225 255
115.795 82.69 111.955 206 221 255
93.1639 173.735 110.834 229 234 255
