ply
format ascii 1.0
element vertex 1340
property float x
property float y
property float z
property uchar red
property uchar green
property uchar blue
end_header
158.843 157.318 114.252 194 213 255
94.4283 174.41 111.396 250 246 255
172.291 125.894 115.974 248 245 255
70.0497 134.099 113.411 215 226 255
102.648 163.923 111.121 201 218 255
147.769 40.4006 113.757 216 226 255
59.194 29.9588 109.988 186 208 255
66.9942 30.0904 112.196 198 216 255
76.5582 136.762 114.601 255 249 242
93.4635 174.19 111.088 236 238 255
27.4892 75.4908 110.138 184 207 255
126.817 79.1611 123.858 255 249 242
179.121 103.897 110.946 255 253 248
58.1745 122.152 110.771 209 222 255
115.371 110.706 116.007 212 224 255
78.8346 126 110.667 196 215 255
95.7248 134.697 112.481 255 254 251
94.3948 174.392 111.586 202 218 255
119.693 104.092 113.012 211 224 255
106.417 112.653 116.817 217 227 255
133.691 62.2094 118.997 183 206 255
72.8859 78.1882 110.57 211 224 255
132.139 73.2507 111.867 221 230 255
157.748 82.3035 104.342 236 238 255
79.2219 172.568 111.236 184 207 255
141.579 77.298 111.093 198 216 255
69.7924 64.3713 111.18 196 214 255
62.6494 133.381 106.517 208 222 255
43.9893 110.581 123.964 216 227 255
132.889 76.1026 111.197 255 249 255
59.3358 108.56 110.619 210 223 255
139.093 48.3033 115.57 191 211 255
112.471 77.5665 112.906 209 223 255
98.9012 103.336 112.461 255 231 211
119.465 190.457 110.615 180 204 255
112.781 110.732 113.135 255 226 202
74.3751 120.385 110.576 240 241 255
96.058 94.1464 118.461 251 247 255
80.1189 149.575 115.116 200 217 255
105.56 150.667 113.166 254 248 255
163.856 109.57 107.648 195 214 255
89.4706 161.651 111.822 228 234 255
137.883 73.4705 109.698 219 228 255
94.6515 173.919 111.677 194 213 255
94.388 174.364 111.541 195 214 255
126.196 36.5575 115.219 255 242 231
48.018 78.4813 112.223 191 211 255
184.173 118.607 120.276 208 222 255
172.423 133.048 109.732 209 223 255
81.9486 50.4738 116.838 211 223 255
138.977 138.573 106.83 255 251 245
119.179 110.651 112.646 255 217 186
94.2578 174.41 111.484 255 247 238
114.139 112.047 112.677 255 237 222
135.382 91.5233 106.59 219 228 255
161.032 84.946 111.698 208 222 255
146.14 141.403 107.85 219 229 255
150.455 105.05 110.68 234 237 255
170.677 134.109 121.308 240 241 255
157.764 129.522 109.023 238 239 255
110.739 115.345 106.873 255 238 223
110.242 80.181 108.73 226 233 255
95.9401 141.191 112.327 203 219 255
101.318 113.847 109.706 234 237 255
50.0834 70.3888 113.941 198 216 255
90.3145 158.776 108.582 255 244 233
174.115 62.3468 112.547 194 213 255
17.1506 182.445 112.619 181 205 255
2.44524 129.735 116.038 194 213 255
102.596 119.534 110.359 255 203 162
86.9338 157.631 109.49 255 197 149
182.146 154.988 117.129 205 220 255
100.404 114.629 106.321 255 214 181
109.251 52.6062 113.32 206 220 255
113.611 122.142 109.786 218 228 255
199.356 154.258 114.772 184 207 255
75.0394 152.975 113.365 214 225 255
138.158 182.717 111.734 194 213 255
113.712 154.328 110.35 205 220 255
158.979 172.47 114.103 198 216 255
178.514 146.119 112.994 186 208 255
82.808 141.274 109.231 216 226 255
6.37085 121.286 110.119 189 210 255
135.853 69.9013 117.682 239 240 255
94.3781 174.366 111.53 192 212 255
130.325 136.421 114.741 255 250 243
110.443 118.663 118.386 201 218 255
49.7537 101.341 113.598 215 226 255
176.366 29.7667 111.179 187 209 255
109.329 148.674 116.072 196 214 255
74.5768 132.656 112.483 255 241 229
96.3425 174.061 110.416 196 214 255
94.5198 174.441 111.446 197 215 255
94.0951 119.085 105.235 255 220 192
113.816 157.296 110.955 208 222 255
186.913 97.9667 115.361 193 212 255
160.104 114.063 112.974 255 254 251
56.0112 144.032 115.899 195 214 255
94.5402 174.252 111.6 255 189 135
117.737 109.503 112.512 255 123 0
154.065 97.2942 114.636 228 234 255
111.073 197.067 115.409 194 213 255
131.028 75.8305 117.021 215 226 255
93.9048 174.102 110.21 216 227 255
80.5441 199.496 110.077 201 218 255
171.503 146.33 117.114 231 235 255
100.005 141.154 118.836 233 237 255
111.163 108.863 115.898 255 216 185
102.119 130.135 111.899 255 249 243
113.06 129.225 110.385 255 224 200
81.5039 139.089 108.467 222 230 255
188.692 66.3405 114 255 200 155
101.084 120.084 111.415 232 236 255
135.276 55.9051 116.546 223 231 255
93.737 90.3922 109.656 223 231 255
92.7056 57.7747 111.817 201 217 255
113.153 113.841 112.414 255 211 176
90.2406 190.436 113.3 225 232 255
134.313 10.3199 103.714 188 210 255
52.3658 73.8216 116.901 208 222 255
107.214 139.179 114.374 213 225 255
112.931 149.648 109.667 237 239 255
109.296 114.36 112.278 218 228 255
96.0878 8.72694 117.347 182 206 255
133.363 52.4147 111.654 197 215 255
132.922 60.3494 117.291 203 219 255
11.5636 175.345 112.34 183 206 255
118.699 184.743 116.473 195 214 255
176.735 97.776 111.817 189 210 255
94.8473 174.728 111.698 197 215 255
54.5468 10.3112 123.533 187 209 255
165.021 134.02 115.192 185 207 255
163.667 96.3869 116.01 191 211 255
174.523 90.1729 115.963 201 217 255
142.89 54.5399 112.468 198 216 255
154.894 148.895 108.43 198 216 255
62.8091 92.1763 113.118 197 215 255
55.1711 21.7316 114.087 176 202 255
73.7989 129.14 111.502 255 255 252
142.993 176.052 111.173 206 220 255
88.3053 134.464 110.806 225 232 255
102.028 83.7892 112.422 204 219 255
34.185 167.512 110.522 183 206 255
119.121 96.6213 113.164 225 232 255
65.5219 45.2655 106.147 184 207 255
115.298 119.867 109.483 223 231 255
112.081 114.179 113.275 255 234 216
141.424 85.5731 112.353 235 238 255
115.934 115.629 111.855 255 204 163
68.3419 190.955 113.622 192 212 255
40.9201 52.1028 112.094 185 207 255
150.342 131.089 111.412 195 214 255
72.9161 59.9673 90.7483 186 208 255
94.3937 174.361 111.548 211 224 255
114.4 89.7549 114.453 255 247 239
199.379 92.5908 114.783 222 230 255
72.4901 84.0387 108.369 203 218 255
106.634 92.8285 103.15 255 250 255
159.372 91.9383 116.655 238 239 255
134.335 80.9363 124.384 255 238 224
60.9866 129.79 106.522 210 223 255
97.3693 87.2797 113.364 210 223 255
76.9605 147.329 118.177 198 215 255
133.467 170.409 112.494 217 227 255
53.2638 103.653 111.541 192 212 255
107.821 112.715 114.081 255 254 250
162.308 58.404 114.341 255 226 203
94.1194 122.284 165.985 214 225 255
102.327 139.136 114.998 223 231 255
6.92301 78.1202 117.929 191 211 255
110.404 116.928 109.689 249 246 255
111.857 112.919 111.446 255 195 147
111.68 116.218 116.05 255 168 91
94.3935 174.363 111.543 200 217 255
142.429 129.06 117.846 221 229 255
113.558 121.525 110.867 255 253 249
121.261 63.3039 116.241 200 217 255
1.52486 115.152 115.28 195 214 255
122.896 110.826 107.235 221 230 255
169.513 81.0942 115.136 255 226 203
94.5869 174.302 111.832 214 225 255
77.4428 178.029 111.815 218 228 255
144.808 49.2881 114.679 198 216 255
116.053 110.891 112.774 240 241 255
84.1375 154.78 115.96 212 224 255
112.626 128.907 112.324 236 238 255
121.614 140.569 112.955 226 232 255
49.2276 127.383 110.731 208 221 255
119.699 62.6578 117.737 201 218 255
99.6419 92.6059 116.71 234 237 255
94.7342 174.148 111.897 205 220 255
111.752 81.7697 113.7 229 234 255
160.747 16.3656 113.311 217 227 255
163.682 50.0793 116.531 193 213 255
99.8067 116.89 107.562 255 248 241
94.3403 174.371 111.485 195 214 255
157.734 100.682 112.177 230 235 255
174.766 103.215 110.54 240 241 255
115.951 124.31 110.595 255 226 203
106.554 129.345 111.202 255 255 252
155.448 191.286 104.531 204 219 255
26.9858 112.606 110.387 231 235 255
102.374 57.9554 109.628 214 225 255
115.714 127.737 113.091 206 221 255
114.909 103.038 108.15 216 226 255
66.6119 43.9004 112.442 191 211 255
39.8642 123.289 112.163 185 207 255
41.1373 127.668 112.014 193 212 255
117.87 146.663 108.117 225 232 255
154.26 176.289 110.418 194 213 255
107.58 113.734 111.258 255 250 255
116.783 145.666 113.209 221 229 255
170.579 12.8112 110.15 185 207 255
167.139 198.604 111.857 200 217 255
110.135 114.867 116.135 205 220 255
109.459 125.421 117.981 255 241 229
117.508 180.548 116.514 190 210 255
133.437 100.512 116.916 218 227 255
95.4174 121.218 119.397 196 214 255
181.876 131.132 105.331 202 218 255
109.639 127.818 117.967 255 188 132
9.46642 154.282 112.14 192 212 255
44.8477 159.444 111.068 194 213 255
153.405 165.286 111.977 194 213 255
134.38 74.0994 115.309 252 247 255
106.031 130.799 113.687 229 234 255
185.53 135.253 111.787 193 213 255
50.5314 208.701 111.528 183 206 255
130.968 78.481 116.336 255 231 211
6.45084 109.241 110.196 197 215 255
114.401 112.472 112.012 255 234 217
81.7957 18.0149 120.258 194 213 255
119.361 114.677 114.725 223 231 255
109.744 87.569 112.71 255 243 232
158.712 54.3871 116.324 183 206 255
72.4793 149.363 110.979 255 248 239
41.6128 147.657 115.676 199 217 255
119.516 147.347 111.735 232 236 255
76.6265 145.445 118.24 226 232 255
109.464 104.088 109.426 221 229 255
147.622 75.1276 112.211 231 235 255
164.082 167.626 105.022 255 248 240
63.8578 99.2576 113.181 208 222 255
85.6959 86.2087 110.259 222 230 255
118.296 160.918 111.553 203 219 255
111.924 111.234 111.284 246 244 255
103.453 129.727 117.906 255 200 156
170.161 113.191 107.508 255 253 248
104.544 154.967 113.543 255 206 167
86.3137 28.1226 111.869 190 211 255
83.3711 28.1791 112.116 192 212 255
119.425 104.373 110.736 255 241 228
123.111 181.973 112.057 189 210 255
167.432 32.8282 111.072 185 208 255
88.6318 153.771 118.276 205 220 255
70.8132 163.897 113.84 218 228 255
169.172 80.667 112.346 182 205 255
121.891 121.374 110.805 233 237 255
195.057 35.1789 111.364 182 205 255
72.929 143.735 110.287 222 230 255
139.259 92.2037 110.138 229 234 255
145.852 21.4385 112.116 222 230 255
113.047 156.325 112.902 255 249 242
150.812 82.1143 113.026 233 236 255
145.034 94.2398 107.069 241 241 255
116.164 108.812 114.713 224 231 255
114.165 40.0341 112.791 203 218 255
13.8097 149.769 108.648 189 210 255
92.3112 159.725 110.998 247 244 255
175.777 13.4926 115.51 185 207 255
142.634 185.097 121.147 204 219 255
114.459 108.279 114.983 213 225 255
50.1256 70.0824 111.187 197 215 255
166.042 93.9988 120.319 190 210 255
143.499 158.649 111.089 194 213 255
12.5528 165.678 114.073 186 208 255
112.522 114.108 112.789 211 224 255
43.5695 99.52 119.021 212 224 255
78.899 95.2044 109.431 206 220 255
106.327 109.85 115.137 216 226 255
76.0678 141.147 91.181 216 227 255
134.538 71.8436 122.55 202 218 255
60.9475 112.412 92.926 205 220 255
43.6518 147.029 113.887 194 213 255
147.388 155.907 116.117 193 213 255
129.258 89.9753 107.181 217 227 255
106.39 115.503 107.589 255 244 233
76.9849 148.962 109.895 199 216 255
137.66 120.39 113.844 255 214 182
151.625 126.601 116.292 223 230 255
144.809 55.6815 113.865 195 214 255
92.6837 96.2194 110.823 255 226 202
98.2573 156.972 102.005 255 243 233
110.765 146.584 111.818 204 219 255
94.2924 117.362 106.765 231 235 255
94.2984 174.669 111.411 203 219 255
152.143 113.154 108.05 255 244 233
167.087 107.932 108.858 193 213 255
103.893 119.865 108.056 255 209 172
115.709 148.698 117.628 228 234 255
59.2819 148.964 112.834 213 225 255
128.387 133.726 113.199 255 250 243
186.123 7.60641 120.257 180 204 255
182.725 123.716 113.84 202 218 255
56.452 89.3383 115.324 194 213 255
104.246 163.189 110.389 233 236 255
96.7932 45.1115 109.811 217 227 255
85.3503 129.409 104.004 255 221 194
80.1806 135.962 110.689 255 250 243
149.945 55.1184 108.942 209 223 255
115.714 117.891 104.466 255 210 174
154.018 170.103 110.932 200 217 255
155.072 90.6796 114.757 205 220 255
68.136 81.7878 118.007 214 225 255
32.7308 91.7031 110.431 189 210 255
116.841 123.115 114.237 249 245 255
112.067 103.808 112.277 255 251 246
94.3688 174.369 111.517 207 221 255
92.7574 163.162 109.579 191 211 255
73.6732 97.7667 115.838 254 248 255
84.0052 125.819 117.313 219 228 255
112.876 159.301 113.139 205 220 255
94.4173 174.35 111.572 214 225 255
112.104 111.926 119.065 255 252 248
181.909 57.5064 110.693 189 210 255
85.0517 140.155 111.317 227 233 255
78.3336 25.3422 115.161 212 224 255
58.9102 130.238 120.447 197 215 255
120.88 140.354 113.899 199 216 255
51.8835 50.0094 102.68 221 230 255
120.022 85.4628 118.196 255 227 204
74.8152 104.407 114.866 206 220 255
63.7701 156.247 116.471 234 237 255
129.649 82.3458 116.318 213 225 255
123.295 130.079 111.139 255 190 137
115.362 117.271 115.456 218 228 255
42.9515 200.879 112.405 199 216 255
161.734 157.115 112.498 209 222 255
170.873 54.1878 112.761 192 212 255
113.384 150.459 104.884 255 186 128
94.3798 174.367 111.53 210 223 255
102.153 168.574 124.113 189 210 255
152.432 65.254 114.306 214 225 255
163.388 151.222 113.427 211 224 255
94.3359 174.385 111.476 194 213 255
102.842 83.5899 117.499 250 246 255
94.3816 174.366 111.533 199 216 255
116.88 119.659 112.456 255 114 0
90.8507 178.735 111.471 201 217 255
155.84 143.122 111.302 205 220 255
158.376 149.376 111.44 199 216 255
123.389 83.8427 117.564 215 226 255
83.2758 137.956 113.562 230 235 255
168.798 108.088 105.516 216 227 255
106.456 109.146 112.163 255 249 255
134.3 109.336 111.183 255 243 232
107.432 115.678 119.547 229 234 255
93.0127 175.877 110.226 221 230 255
164.291 154.964 117.13 186 208 255
165.657 156.853 113.998 212 224 255
114.149 77.5156 116.01 249 246 255
112.3 111.156 114.018 209 222 255
191.644 84.1343 112.159 190 211 255
84.2697 21.1293 114.989 182 205 255
90.2943 116.816 106.599 212 224 255
126.112 201.845 114.891 193 213 255
94.3862 174.358 111.551 215 226 255
130.759 76.0836 110.031 215 226 255
126.283 89.9304 117.793 212 224 255
184.754 59.7809 115.193 201 217 255
108.863 138.935 107.251 255 250 244
64.7443 47.2573 110.117 192 212 255
196.729 84.0171 111.137 227 233 255
83.1836 95.9209 117.695 234 237 255
5.25402 94.9926 116.177 178 203 255
104.514 150.671 123.455 215 226 255
147.089 99.0852 110.285 233 236 255
164.269 116.977 121.705 255 246 238
25.097 104.927 112.037 249 245 255
115.554 117.682 110.642 207 221 255
129.545 120.141 112.906 223 231 255
153.528 32.4954 114.7 200 217 255
148.639 77.1891 117.354 255 237 222
79.9987 144.31 114.366 210 223 255
33.2133 42.9593 113.21 178 203 255
168.727 142.702 112.179 233 236 255
179.909 127.574 114.752 196 215 255
108.373 115.758 116.906 255 252 246
105.953 144.628 113.003 237 239 255
94.3568 174.363 111.488 215 226 255
59.4494 121.138 112.344 250 246 255
66.4115 80.6244 112.627 218 228 255
19.9569 177.644 113.744 186 208 255
165.094 157.304 108.379 248 245 255
134.085 5.35169 113.847 193 213 255
69.0736 129.129 113.318 233 236 255
122.468 214.965 86.8269 204 219 255
113.683 113.657 111.112 255 211 175
107.621 120.368 107.433 240 241 255
84.3494 114.899 119.353 255 240 226
142.253 75.8421 114.861 196 214 255
128.247 96.3567 107.168 255 251 246
103.296 129.32 109.995 255 150 50
97.6037 174.592 109.78 200 217 255
94.5942 174.252 111.971 202 218 255
111.343 102.103 111.919 255 241 228
79.2757 69.056 109.785 219 228 255
108.19 112.075 116.426 255 231 212
94.0848 173.838 111.436 211 224 255
111.614 111.752 104.097 255 238 223
33.4938 172.74 115.139 193 212 255
94.5543 88.3877 108.127 199 216 255
56.7945 75.3752 111.441 206 220 255
109.992 108.114 112.976 255 211 176
94.3864 174.364 111.539 188 210 255
174.138 130.267 117.827 189 210 255
115.528 145.218 115.286 255 236 220
75.7782 142.087 103.506 193 212 255
112.644 111.174 113.66 255 164 81
140.325 73.1884 115.938 205 220 255
129.822 88.0044 111.788 255 238 223
114.659 90.5616 113.402 251 247 255
207.262 143.693 110.843 184 207 255
78.9285 45.7236 109.357 193 213 255
79.0189 131.802 96.4808 208 222 255
102.549 96.4241 113.014 208 222 255
149.914 97.1953 116.73 208 222 255
138.274 169.632 111.558 205 220 255
115.986 112.588 110.041 222 230 255
90.6498 100.895 111.876 240 240 255
3.70894 94.6679 111.556 195 214 255
89.5256 144.358 114.113 217 227 255
95.6804 91.2809 114.214 191 211 255
105.354 158.355 112.825 255 250 243
97.5495 129.542 122.017 255 240 227
0.63009 105.574 111.74 188 210 255
81.3834 141.083 111.605 225 232 255
106.417 118.178 109.189 255 202 160
109.171 123.47 118.897 250 246 255
130.256 78.0045 104.875 255 238 224
37.6024 109.893 113.134 203 219 255
106.815 110.017 110.861 255 252 247
187.63 40.6229 117.853 187 209 255
85.5288 17.0888 106.101 190 211 255
113.844 109.021 116.003 230 235 255
127.097 150.061 113.496 236 238 255
177.966 126.908 124.06 194 213 255
81.6939 101.701 111.272 222 230 255
84.994 215.175 109.62 215 226 255
221.006 80.8699 113.526 189 210 255
105.863 80.6851 110.337 222 230 255
152.299 123.409 115.686 198 215 255
116.788 125.108 120.927 255 240 227
64.9187 189.554 114.112 201 218 255
108.163 122.392 117.15 255 179 114
106.135 102.027 112.018 255 183 123
151.613 180.206 118.746 193 212 255
168.3 58.5941 111.509 209 222 255
94.4688 174.339 111.601 211 224 255
87.7271 65.8883 115.93 204 219 255
143.222 119.472 109.466 255 243 233
122.329 143.322 113.271 220 229 255
113.148 109.689 113.119 205 220 255
54.6469 108.039 98.5642 204 220 255
102.543 131.244 115.808 204 219 255
128.445 110.573 117.431 255 241 228
119.788 107.021 112.689 238 239 255
119.134 99.7572 116.66 220 229 255
102.424 81.7612 103.629 255 251 245
94.3876 174.331 111.537 197 215 255
101.159 31.7449 113.234 204 219 255
79.3932 118.726 112.545 255 240 228
100.144 67.1745 112.165 255 233 214
94.8138 174.242 112.202 205 220 255
95.3204 94.4272 106.657 207 221 255
72.8767 144.547 110.487 199 216 255
28.5428 117.718 111.388 216 227 255
63.1077 67.5435 114.232 202 218 255
94.4915 174.261 111.602 205 220 255
131.329 80.4807 116.847 217 227 255
94.4322 174.347 111.605 181 205 255
172.927 111.644 115.906 243 242 255
149.646 87.3903 112.492 255 237 223
168.065 130.508 110.866 202 218 255
45.5543 78.3337 106.136 202 218 255
94.4033 174.357 111.562 184 207 255
122.181 15.2762 111.548 212 224 255
102.481 132.593 110.589 206 221 255
201.669 89.7774 111.313 186 208 255
63.8795 85.6305 111.51 209 222 255
102.345 132.784 118.966 232 236 255
133.393 37.2272 110.805 184 207 255
102.802 121.794 117.741 204 220 255
91.9485 41.9238 112.413 187 209 255
200.248 68.392 112.974 188 210 255
49.2771 102.016 106.278 197 215 255
114.947 117.725 109.739 255 232 213
114.22 115.565 109.671 215 226 255
109.677 104.871 111.154 255 239 226
152.813 112.454 106.24 221 230 255
43.4749 79.3557 109.288 207 221 255
116.179 141.713 110.985 219 228 255
154.412 151.7 114.282 198 215 255
207.939 94.4374 112.048 221 229 255
93.8392 174.675 110.497 193 212 255
94.3511 174.372 111.488 218 228 255
94.4042 156.952 122.421 232 236 255
91.5773 90.3872 119.024 255 231 211
103.29 83.4734 112.553 255 231 211
94.6859 181.519 109.66 193 212 255
59.3605 118.867 106.483 255 238 223
114.542 66.4629 114.383 255 230 210
184.137 137.162 114.998 195 214 255
200.529 175.022 111.857 181 205 255
102.032 171.296 114.603 255 254 251
54.9257 171.277 113.075 198 215 255
63.2255 204.712 111.433 206 220 255
176.163 115.872 111.167 198 215 255
58.113 124.457 114.533 255 194 144
101.138 174.653 109.823 182 205 255
162.09 193.212 127.941 191 212 255
149.263 141.068 108.472 238 239 255
94.4968 174.209 111.597 196 214 255
119.078 118.655 112.842 255 116 0
70.92 80.2694 111.358 209 222 255
209.574 43.635 115.276 191 211 255
193.834 95.8556 110.412 214 225 255
182.306 180.246 114.844 191 211 255
53.6076 109.13 114.707 200 217 255
120.082 73.3614 113.71 216 226 255
109.04 107.996 115.738 215 226 255
128.767 126.785 112.278 255 238 224
124.926 131.387 108.551 255 236 220
114.516 113.169 116.824 255 244 234
151.522 111.089 115.231 225 232 255
113.692 109.084 112.349 255 238 223
36.5913 127.306 111.16 180 204 255
156.747 152.19 106.49 206 220 255
154.367 108.865 113.082 233 237 255
114.003 110.631 113.092 235 238 255
94.2632 174.151 111.436 215 226 255
94.3507 174.357 111.522 196 214 255
138.694 130.236 110.593 204 219 255
15.1818 118.187 116.808 178 203 255
94.4473 175.419 108.534 195 214 255
126.395 98.1382 106.643 231 235 255
116.202 35.1573 113.062 198 216 255
94.4406 174.307 111.521 202 218 255
87.5155 39.8882 114.114 205 220 255
110.94 141.751 112.145 208 222 255
107.559 114.782 108.176 255 192 140
127.924 130.989 111.849 255 253 249
23.7159 121.179 112.562 185 207 255
94.3753 168.352 111.586 236 238 255
93.6561 172.968 110.892 198 216 255
129.097 101.435 113.126 255 240 227
112.994 123.111 117.092 204 219 255
101.488 128.438 115.395 255 172 99
32.1455 92.1562 111.794 202 218 255
181.034 169.742 116.317 185 208 255
114.703 138.966 100.512 255 234 217
161.127 154.513 108.175 203 218 255
160.905 80.3313 111.08 205 220 255
57.2935 82.0211 114.045 255 237 222
94.3831 174.365 111.535 196 215 255
80.0946 188.191 112.933 255 254 251
126.711 32.1497 112.949 215 226 255
114.163 110.081 113.287 213 225 255
177.324 42.8631 108.799 202 218 255
134.042 80.8979 119.682 255 250 244
94.3752 174.367 111.526 212 224 255
162.874 87.0882 114.26 206 221 255
156.907 87.9476 111.801 193 213 255
192.008 61.9104 110.203 202 218 255
49.4352 76.6428 104.824 255 249 242
105.791 105.15 117.609 255 239 226
97.1542 91.5864 110.233 255 254 250
76.2276 60.8497 117.531 201 217 255
147.746 165.68 112.998 201 218 255
94.3723 174.369 111.522 255 236 220
113.633 84.4376 112.735 255 172 100
142.699 194.081 105.989 215 226 255
56.4374 113.045 112.562 222 230 255
80.1786 52.7947 113.348 205 220 255
117.663 131.613 111.517 198 216 255
79.2554 95.9982 114.005 204 219 255
104.142 127.43 118.591 207 221 255
212.043 51.1667 109.815 185 207 255
199.962 76.3399 117.21 208 222 255
172.645 140.543 125.424 214 225 255
113.36 108.843 113.058 223 231 255
122.537 125.296 111.453 255 139 20
173.002 110.289 113.715 255 241 229
77.5114 32.7746 109.642 189 210 255
140.866 74.7512 127.98 204 219 255
129.23 84.7926 116.592 255 213 180
44.2379 133.715 114.966 255 249 243
139.167 33.9919 114.832 182 206 255
122.714 145.031 111.987 227 233 255
133.92 148.271 107.463 255 247 238
152.726 123.789 115.481 184 207 255
89.4601 83.5591 109.091 255 202 159
159.434 28.927 110.926 192 212 255
111.938 151.037 108.083 255 248 241
129.541 34.5483 117.469 202 218 255
89.9386 111.552 118.683 224 231 255
96.8665 107.593 112.332 255 241 228
94.3922 174.362 111.546 207 221 255
155.205 202.132 113.537 179 203 255
94.353 174.378 111.485 251 247 255
101.165 163.716 109.921 204 219 255
187.634 49.5388 114.115 185 208 255
108.104 82.6251 116.772 237 239 255
118.801 187.4 87.959 185 208 255
49.911 111.934 116.731 218 227 255
152.382 121.496 115.355 255 248 240
109.053 152.892 113.5 206 221 255
116.557 121.079 111.113 207 221 255
94.3694 174.368 111.534 190 211 255
111.535 114.518 115.789 255 234 217
94.5181 174.488 111.235 255 230 210
25.1442 114.25 111.483 194 213 255
215.51 74.6368 114.357 200 217 255
93.811 175.222 108.37 210 223 255
133.738 18.056 108.602 194 213 255
38.9498 213.954 118.476 208 222 255
134.168 82.2196 113.348 203 219 255
53.2755 196.278 115.896 199 216 255
119.086 93.5853 115.367 255 231 211
107.628 98.7514 106.328 202 218 255
143.551 79.9688 114.036 255 253 248
170.372 127.499 111.39 201 217 255
37.3587 187.023 112.086 188 209 255
82.3397 135.808 114.439 226 232 255
94.4151 174.353 111.576 193 213 255
167.302 111.865 113.275 255 184 125
28.8747 184.84 111.644 192 212 255
97.24 106.996 117.626 255 243 233
9.81384 135.823 114.676 184 207 255
164.162 80.283 116.039 196 214 255
115.049 136.355 109.751 209 223 255
116.898 122.858 113.939 215 226 255
147.597 182.708 113.881 192 212 255
81.9341 118.475 115.191 221 229 255
126.161 156.853 113.662 208 222 255
79.5836 132.779 106.65 247 244 255
117.508 17.7893 114.754 185 207 255
137.932 129.831 112.451 207 221 255
77.2541 115.304 114.797 255 227 204
116.124 71.8308 99.7635 255 252 247
68.3606 147.188 111.531 226 233 255
111.791 99.5395 109.255 255 221 194
94.3316 51.5039 108.438 255 249 255
132.658 81.7866 112.546 255 239 224
94.5036 173.912 112.337 255 255 252
195.059 131.7 110.894 196 214 255
66.2558 137.809 110.866 203 219 255
60.2961 111.845 113.263 255 202 160
27.0796 98.8412 115.109 191 211 255
186.31 171.156 116.275 191 211 255
112.078 110.448 111.157 255 249 242
69.542 93.5731 108.183 192 212 255
129.985 65.1482 113.224 200 217 255
142.836 50.5413 110.873 202 218 255
76.7233 34.768 110.201 200 217 255
135.336 126.357 109.44 195 214 255
153.419 122.747 116.492 255 180 116
129.048 61.5469 111.457 202 218 255
108.509 131.518 117.296 213 225 255
115.75 94.7943 113.348 215 226 255
160.108 140.652 110.292 222 230 255
136.06 71.3885 114.56 255 249 255
103.033 84.4381 128.089 243 242 255
69.8223 95.4855 118.58 255 233 214
107.486 110.907 115.368 192 212 255
168.842 61.7029 112.746 211 224 255
82.2773 148.593 111.363 212 224 255
120.108 128.588 116.121 255 230 209
110.638 84.5713 112.941 223 230 255
83.5419 78.8686 118.714 212 224 255
144.675 179.377 112.005 182 206 255
102.583 103.91 118.602 226 232 255
212.902 157.784 120.102 195 214 255
106.596 117.604 108.047 255 188 133
187.771 100.785 112.206 193 212 255
124.433 171.302 110.057 206 220 255
124.633 59.7069 117.79 209 222 255
109.437 102.649 112.78 255 224 199
54.9175 130.45 112.659 208 222 255
126.483 59.8294 109.519 203 219 255
210.979 97.853 112.44 194 213 255
63.4403 124.764 110.058 199 216 255
103.623 120.143 108.163 199 216 255
94.3533 174.366 111.5 204 219 255
102.554 97.6412 106.271 255 205 166
100.202 130.743 114.065 219 228 255
107.805 213.7 107.369 187 209 255
27.567 91.6188 109.226 187 209 255
109.483 109.633 109.063 255 157 66
129.323 49.2684 112.854 218 228 255
116.123 127.023 110.731 232 236 255
94.393 174.362 111.546 202 218 255
56.6958 118.169 109.159 228 234 255
80.1098 210.085 104.103 194 213 255
66.3514 137.604 115.289 243 242 255
29.3048 187.139 112.286 184 207 255
54.7326 222.913 112.704 196 214 255
56.7924 159.31 109.669 193 213 255
138.589 126.901 113.957 255 254 250
123.98 155.453 109.459 255 247 238
104.911 167.462 108.534 255 251 246
133.65 57.0776 117.379 209 222 255
25.9548 74.7466 110.494 212 224 255
117.837 32.5492 108.688 202 218 255
94.55 174.433 112.137 189 210 255
10.2694 150.357 114.45 186 208 255
155.111 44.3888 117.582 217 227 255
94.36 174.368 111.502 221 229 255
94.3775 174.367 111.527 211 223 255
37.2611 74.8346 118.577 200 217 255
90.9201 49.6656 112.611 193 213 255
99.8805 121.824 107.207 203 219 255
101.536 112.504 118.767 209 222 255
72.9872 35.2259 109.919 194 213 255
67.6481 139.869 116.377 208 222 255
108.083 143.608 108.863 249 245 255
36.8254 189.719 112.96 201 217 255
56.5962 115.676 112.592 214 225 255
110.777 70.3521 113.792 209 223 255
67.9 105.787 111.435 255 241 228
185.973 166.351 114.828 186 208 255
205.817 101.532 113.247 193 213 255
11.3298 72.3426 110.821 180 205 255
109.433 51.8277 111.683 214 225 255
104.266 44.1244 116.947 213 224 255
79.8422 95.5617 118.481 255 250 244
103.879 167.413 109.458 223 230 255
132.104 21.3272 114.286 189 210 255
156.747 133.387 110.183 255 230 210
164.473 153.988 113.19 199 216 255
164.751 85.144 109.177 186 208 255
127.009 130.373 110.099 209 222 255
101.874 45.265 119.001 214 225 255
54.267 84.2069 113.769 218 228 255
119.103 124.255 114.478 214 225 255
135.418 96.4316 106.098 255 239 225
204.138 66.2493 112.382 203 219 255
57.2554 123.157 115.566 255 249 255
94.3208 174.375 111.478 203 219 255
74.6239 14.5856 114.554 207 221 255
94.3573 6.34427 120.313 184 207 255
134.833 38.9995 116.604 184 207 255
55.2934 77.0377 108.228 193 212 255
15.9884 169.088 116.291 190 210 255
210.4 152.443 112.816 195 214 255
101.098 117.129 116.301 255 0 0
81.0678 146.897 127.507 221 229 255
68.4769 132.205 110.445 255 236 220
104.779 147.621 110.57 206 221 255
84.7285 116.624 109.774 255 231 211
49.5066 101.411 100.675 255 242 231
36.6772 190.383 109.957 211 224 255
56.262 65.5567 113.172 193 212 255
65.2125 47.7346 112.235 197 215 255
28.8258 61.0622 109.324 215 226 255
168.482 130.973 112.205 184 207 255
96.5031 72.0707 109.376 218 228 255
111.522 114.441 111.998 255 190 137
111.024 114.872 107.318 202 218 255
29.7414 109.791 107.665 183 206 255
134.763 136.966 117.32 255 244 234
147.807 61.2409 112.305 195 214 255
41.7487 79.562 113.467 182 205 255
159.978 162.582 110.088 197 215 255
94.4055 174.348 111.574 216 226 255
103.173 84.1249 112.148 212 224 255
70.4788 108.739 110.394 255 249 255
116.075 147.079 114.411 216 227 255
168.951 46.9171 114.561 197 215 255
168.19 138.538 115.968 203 219 255
60.6987 89.6331 110.135 191 211 255
36.7201 194.862 113.831 186 208 255
62.0006 109.903 108.772 220 229 255
97.0213 163.067 121.946 211 223 255
49.9876 137.907 110.185 205 220 255
112.974 111.178 114.171 255 136 13
80.9116 137.287 117.499 230 235 255
55.224 80.6001 107.14 207 221 255
111.627 130.048 109.628 255 195 147
127.091 64.8221 118.328 234 237 255
118.87 116.147 115.092 209 222 255
89.5649 96.4272 107.575 219 228 255
75.7293 143.13 116.249 209 222 255
88.2982 65.0347 112.736 224 231 255
94.3266 174.408 111.467 185 208 255
114.348 131.55 111.779 255 252 247
99.825 64.468 117.467 191 211 255
100.316 35.9152 113.789 186 208 255
107.506 59.7873 113.711 255 241 228
78.4481 200.03 110.153 182 206 255
77.2956 145.331 108.426 190 211 255
110.021 123.2 110.579 255 254 251
191.32 84.8529 114.275 204 219 255
114.081 107.43 110.407 255 222 196
139.653 104.968 115.764 205 220 255
55.9516 118.484 114.273 199 216 255
73.9977 117.722 108.018 197 215 255
103.251 158.264 113.335 241 241 255
103.941 70.0649 111.875 255 246 236
73.3845 182.452 110.463 181 205 255
94.3662 174.367 111.513 197 215 255
103.886 151.549 112.119 255 223 198
167.124 180.722 111.805 182 205 255
95.2769 174.364 111.905 207 221 255
114.113 122.272 115.536 205 220 255
65.7073 134.234 115.549 202 218 255
137.688 167.089 113.602 254 248 255
173.814 125.923 129.142 232 236 255
65.0789 67.8639 111.402 202 218 255
115.448 7.79109 103.23 191 211 255
80.4552 180.768 114.447 218 228 255
165.856 166.351 113.644 190 211 255
70.0102 96.372 106.775 255 239 225
138.571 40.1981 118.36 198 215 255
134.059 126.696 112.654 196 214 255
100.707 65.2735 112.453 191 211 255
111.607 134.244 116.82 221 229 255
172.67 119.905 123.339 200 217 255
94.3522 174.371 111.493 186 208 255
104.283 97.5113 118.467 219 228 255
93.165 49.3346 113.006 255 252 247
94.3347 174.362 111.515 198 215 255
59.9794 175.617 112.928 201 218 255
21.4013 52.7368 111.741 188 209 255
125.024 52.4962 111.994 216 227 255
103.668 140.439 112.944 255 228 206
65.4529 120.667 113.095 195 214 255
109.609 137.716 110.96 231 235 255
161.273 7.9183 108.334 183 206 255
170.763 124.345 112.421 216 226 255
131.972 84.6494 113.284 216 226 255
91.6143 87.3572 112.499 255 239 226
110.528 113.422 115.727 255 230 210
164.016 54.7449 115.333 209 223 255
186.568 32.67 115.19 195 214 255
115.375 109.775 114.346 199 217 255
90.548 24.3792 111.112 189 210 255
50.6259 177.814 113.57 196 214 255
172.299 132.673 102.632 190 211 255
113.498 30.4273 115.306 205 220 255
117.769 98.0653 116.191 255 203 161
130.053 69.1869 117.292 248 245 255
174.126 16.098 114.764 176 202 255
101.685 162.377 116.384 194 213 255
94.3168 174.352 111.468 190 210 255
96.1949 161.249 124.474 180 204 255
138.805 57.209 112.49 227 233 255
85.3825 159.667 117.749 255 251 245
130.104 70.343 117.68 180 204 255
170.501 123.373 108.354 199 216 255
170.804 152.638 106.038 197 215 255
95.1342 183.13 107.379 212 224 255
137.933 76.8187 117.779 215 226 255
99.6305 186.187 112.548 184 207 255
45.742 203.431 112.24 208 222 255
137.501 152.17 111.538 211 223 255
125.428 70.3871 114.543 224 231 255
164.714 116.539 110.624 226 232 255
57.9853 116.004 115.348 188 210 255
64.4813 142.058 120.817 222 230 255
213.238 87.2202 112.629 186 208 255
89.3004 119.312 120.667 235 238 255
89.6901 57.2866 117.732 219 228 255
151.854 113.731 113.944 234 237 255
209.462 127.116 107.974 188 210 255
66.9041 116.57 118.35 255 216 185
167.922 129.49 111.534 203 219 255
106.79 126.25 110.799 208 222 255
134.67 105.379 107.553 255 247 239
109.738 147.106 105.68 222 230 255
95.2412 44.5863 110.612 198 215 255
149.021 121.487 114.607 188 209 255
108.397 113.396 112.637 255 217 186
102.516 155.499 112.813 218 228 255
94.4263 174.349 111.581 208 221 255
95.1716 91.3627 114.321 209 223 255
187.735 128.01 113.085 208 221 255
118.459 111.261 115.679 208 222 255
132.104 149.244 110.723 200 217 255
66.1885 120.106 110.759 211 223 255
30.5609 146.959 108.045 188 210 255
46.5142 86.5245 109.294 217 227 255
138.076 199.663 108.905 187 209 255
138.908 97.4547 107.532 209 222 255
128.931 174.055 107.589 183 206 255
89.4704 56.8289 112.848 200 217 255
157.1 206.34 113.722 187 209 255
155.695 157.083 112.156 191 211 255
64.8011 115.993 114.579 216 226 255
146.799 120.633 108.535 230 235 255
86.87 166.733 114.82 229 234 255
132.354 74.5559 115.488 255 246 237
163.627 95.7035 110.118 255 218 189
107.836 3.19711 108.756 178 203 255
92.2584 68.5025 110.272 208 222 255
143.967 74.9835 113.142 214 225 255
157.611 68.2952 110.598 206 220 255
104.769 115.653 109.808 255 247 239
179.123 73.0595 112.739 210 223 255
118.818 119.767 111.585 255 216 184
94.3699 174.368 111.517 197 215 255
190.406 113.951 111.712 205 220 255
33.6894 154.514 112.614 207 221 255
142.556 111.318 107.833 255 238 223
98.3936 172.596 106.06 255 254 250
63.9461 129.209 112.327 208 222 255
94.3633 174.39 111.515 191 211 255
144.018 70.8043 113.252 203 219 255
151.453 96.8098 107.87 255 236 221
111.782 104.81 115.977 196 215 255
40.4997 162.997 116.243 188 209 255
94.3845 174.365 111.536 197 215 255
149.991 71.7329 113.322 185 207 255
102.227 140.745 115.738 208 222 255
146.594 87.3898 111.044 217 227 255
67.7262 110.837 111.695 225 232 255
115.319 127.977 112.178 255 197 151
6.63295 133.395 114.544 190 211 255
185.408 61.1992 111.178 196 214 255
116.164 183.729 112.225 199 216 255
94.3865 174.364 111.538 199 216 255
169.274 138.344 111.964 198 216 255
103.149 161.477 109.449 210 223 255
151.774 198.882 109.774 185 207 255
126.624 80.4042 109.983 209 222 255
109.905 77.657 109.898 208 222 255
71.3301 79.1036 110.7 203 219 255
79.2484 36.3174 109.852 188 209 255
63.8849 104.807 113.786 206 220 255
77.1355 191.047 115.904 184 207 255
94.3884 174.363 111.541 199 216 255
95.8667 174.687 111.011 208 221 255
128.106 163.809 113.673 242 242 255
94.2203 174.994 110.268 192 212 255
67.6473 123.196 114.082 222 230 255
149.603 136.311 113.631 251 247 255
148.869 115.205 114.886 255 248 240
121.62 122.718 112.212 219 228 255
109.553 100.718 111.249 255 203 162
183.675 130.761 114.047 190 210 255
94.3698 174.369 111.52 206 220 255
112.832 147.806 114.212 255 191 139
114.003 115.015 111.264 255 170 96
64.5259 101.951 116.259 224 231 255
106.613 122.334 107.698 255 236 220
156.902 101.121 114.734 208 222 255
121.581 102.543 111.804 255 197 150
146.872 184.442 115.024 255 249 243
178.509 142.097 106.357 199 216 255
110.643 114.591 117.1 255 211 177
207.321 153.853 114.372 189 210 255
176.697 138.796 110.791 246 244 255
95.7804 51.3979 113.154 214 225 255
83.7701 146.252 112.819 192 212 255
108.132 104.482 111.406 207 221 255
120.259 132.167 113.183 221 230 255
159.178 155.17 116.704 204 220 255
110.115 0.481109 108.784 186 208 255
19.3046 52.4227 109.061 179 203 255
120.123 131.526 112.161 255 223 197
76.7327 124.792 115.635 211 223 255
55.5846 80.5409 113.148 185 207 255
64.0141 144.327 115.04 213 225 255
192.564 165.972 111.437 193 212 255
94.3653 174.392 111.503 204 219 255
115.456 114.506 111.051 255 244 233
11.4435 169.579 117.297 190 211 255
78.5609 129.353 116.219 255 254 251
80.9926 125.038 116.927 255 236 221
223.545 96.6158 110.046 189 210 255
94.3906 174.362 111.543 209 222 255
114.235 134.982 110.125 218 228 255
63.7136 99.3572 111.341 235 237 255
142.695 75.9134 120.458 194 213 255
94.4871 174.395 111.381 192 212 255
196.231 75.492 111.748 193 213 255
208.809 116.678 112.329 191 212 255
108.822 117.19 117.488 211 224 255
108.911 116.856 118.53 255 246 237
94.3632 174.369 111.506 208 222 255
69.2888 75.0792 111.2 255 213 180
149.076 123.99 111.914 213 225 255
116.158 111.876 110.998 255 242 230
73.7832 38.2469 105.509 204 219 255
89.0905 22.0851 109.813 195 214 255
129.346 98.0257 119.82 255 193 143
94.1228 174.682 111.373 221 230 255
78.7168 21.0421 109.122 225 232 255
111.076 124.12 109.323 248 245 255
94.2261 39.6431 117.279 224 231 255
109.85 124.687 118.394 255 253 248
20.014 100.34 114.995 183 206 255
20.9657 154.602 113.383 251 247 255
139.049 122.018 117.908 255 230 210
120.246 184.665 112.056 186 208 255
120.107 124.95 113.764 255 233 215
136.374 163.344 111.961 201 218 255
94.3886 174.364 111.541 215 226 255
67.24 135.885 116.317 217 227 255
123.852 105.7 111.752 203 219 255
71.3106 119.165 118.605 217 227 255
71.7001 121.202 117.788 230 235 255
48.0717 109.639 114.389 188 209 255
54.4056 74.0148 108.545 205 220 255
94.3679 174.373 111.518 237 238 255
11.8644 102.933 115.257 177 202 255
101.967 114.715 106.122 218 228 255
72.4072 38.4708 110.813 194 213 255
151.506 61.7033 113.531 202 218 255
66.212 130.759 112.061 213 224 255
152.674 74.877 111.263 211 224 255
117.453 145.188 114.845 255 251 246
49.1054 90.0745 109.352 238 239 255
119.355 93.7546 106.631 255 241 229
54.2471 61.3326 113.26 199 216 255
94.3838 174.364 111.535 207 221 255
56.9841 92.237 111.387 235 237 255
97.6821 212.945 135.964 179 204 255
100.758 75.43 111.498 248 245 255
180.85 83.8312 109.923 203 219 255
138.299 84.924 114.133 252 247 255
167.119 148.611 113.271 223 230 255
92.7818 134.837 110.33 204 219 255
124.895 108.049 112.324 245 243 255
111.363 114.109 107.092 255 219 190
167.013 128.516 127.615 192 212 255
103.205 111.354 111.847 255 217 186
114.465 141.983 110.9 209 222 255
67.6394 48.639 112.148 255 249 243
163.883 75.4444 114.597 255 249 255
175.531 121.167 109.997 232 236 255
59.8537 95.6743 109.677 255 243 232
101.807 130.429 118.158 244 243 255
82.7261 169.933 114.435 195 214 255
17.1608 147.663 113.523 192 212 255
21.4801 93.1097 116.361 182 206 255
104.647 105.256 109.756 198 216 255
96.4388 155.132 118.929 254 248 255
119.965 75.2893 110.901 209 222 255
174.099 145.515 105.885 223 231 255
169.417 121.984 118.431 204 219 255
154.558 86.4927 116.14 218 228 255
66.5815 95.3937 106.572 201 217 255
221.937 108.331 114.283 193 212 255
59.7275 137.407 112.658 195 214 255
97.5845 118.816 109.521 255 231 211
105.409 93.1733 112.386 212 224 255
115.524 116.486 111.402 255 240 227
109.036 15.6255 124.048 203 219 255
155.153 84.8846 109.703 232 236 255
115.608 105.539 114.876 210 223 255
112.087 146.865 111.465 200 217 255
51.7826 55.7459 112.452 203 219 255
200.98 35.5176 111.061 194 213 255
124.856 127.405 112.302 196 214 255
135.496 173.337 112.901 190 211 255
135.014 72.0498 123.324 196 214 255
108.133 118.389 107.44 255 221 193
142.557 173.183 113.665 199 216 255
24.8396 83.2325 131.692 189 210 255
44.2465 164.054 109.77 201 217 255
74.7136 118.938 105.819 199 216 255
67.234 60.4325 112.665 234 237 255
94.3774 174.377 111.513 255 218 188
106.752 146.846 112.257 203 219 255
142.537 110.701 117.807 208 222 255
122.935 88.7221 113.405 255 242 230
7.60374 83.8947 111.992 188 209 255
164.683 154.997 110.339 203 218 255
147.748 77.7822 131.171 255 242 230
144.987 113.255 110.251 200 217 255
43.5822 84.7217 112.391 204 219 255
125.304 131.337 116.691 219 228 255
63.2358 144.055 106.402 255 222 195
95.3795 168.338 109.981 235 238 255
110.195 136.71 109.79 255 239 225
124.033 103.08 111.956 255 196 147
143.11 81.3324 117.859 244 243 255
58.9922 96.006 111.26 255 251 245
94.3733 174.368 111.522 197 215 255
94.2384 174.423 111.386 202 218 255
114.341 108.173 108.546 231 235 255
114.224 112.966 112.111 255 209 173
19.5745 58.6493 113.024 185 208 255
174.508 95.9034 113.792 228 234 255
127.898 93.83 110.085 255 203 161
155.162 9.05166 111.297 188 209 255
118.582 110.157 113.086 240 241 255
106.524 63.4509 110.931 188 209 255
109.124 106.989 109.265 211 223 255
94.4316 174.388 111.57 221 229 255
143.064 64.3864 111.334 200 217 255
86.4426 92.9064 111.937 230 235 255
50.9531 68.767 112.234 205 220 255
159.692 105.054 109.825 248 245 255
100.807 75.6422 111.55 195 214 255
97.981 119.189 116.13 200 217 255
77.639 51.502 114.809 211 224 255
122.417 85.777 120.87 213 225 255
117.454 94.9016 111.306 216 226 255
159.446 104.971 111.201 201 218 255
157.48 116.826 119.35 215 226 255
90.7796 202.841 114.945 190 211 255
148.157 145.901 108.429 220 229 255
22.5695 113.46 108.09 189 210 255
145.786 113.419 113.868 233 237 255
93.1956 177.371 111.503 255 176 109
44.3297 122.432 110.851 195 214 255
154.245 101.525 110.108 199 216 255
159.446 151.252 112.745 208 222 255
94.3775 174.367 111.528 210 223 255
114.464 142.343 110.603 255 170 95
129.472 71.1733 118.483 202 218 255
110.273 62.2618 109.301 233 237 255
114.43 19.5623 117.104 202 218 255
98.5228 64.101 110.879 197 215 255
76.9623 146.889 110.489 244 243 255
198.644 40.8176 115.071 198 215 255
110.586 154.312 108.434 198 216 255
52.7857 96.972 108.619 223 230 255
170.493 117.481 115.664 199 217 255
94.2083 174.738 111.699 224 231 255
135.213 74.1933 128.003 203 219 255
88.4794 50.5566 114.871 204 219 255
103.668 111.503 114.009 255 234 216
166.694 194.299 115.251 197 215 255
69.6488 138.006 118.326 235 238 255
94.391 174.362 111.545 230 235 255
109.967 123.227 108.25 228 233 255
197.894 144.078 115.622 182 205 255
94.6436 174.513 111.424 209 222 255
50.3243 100.794 113.807 214 225 255
164.174 105.298 117.697 231 235 255
56.3494 106.036 118.966 203 219 255
78.1574 52.087 115.772 205 220 255
111.829 118.832 109.607 255 230 209
172.353 132.179 110.332 206 221 255
151.696 57.0136 110.578 199 216 255
141.559 126.441 110.09 213 225 255
147.739 162.307 113.257 191 211 255
109.492 110.911 117.975 235 237 255
114.858 33.7816 112.449 198 216 255
114.118 107.168 113.185 255 107 0
103.783 111.95 113.949 255 228 206
91.7529 90.6931 111.642 199 216 255
97.5147 173.413 109.475 204 219 255
94.5379 174.383 111.47 218 227 255
142.163 121.384 109.058 215 226 255
132.687 4.58654 102.346 255 250 243
108.241 16.2998 111.219 189 210 255
118.789 178.171 112.347 255 249 242
44.3716 131.625 107.274 203 219 255
148.764 27.2757 113.164 193 212 255
132.932 133.462 107.295 195 213 255
47.0869 85.7499 108.413 202 218 255
143.743 97.3186 117.043 208 222 255
17.7527 182.099 112.173 183 206 255
112.861 122.627 112.504 255 228 206
112.232 124.347 106.568 239 240 255
177.874 123.353 122.998 189 210 255
14.6784 105.584 113.04 184 207 255
173.908 133.527 103.809 255 248 239
153.325 143.663 108.63 192 212 255
66.6208 103.36 118.611 255 250 244
87.1668 121.466 109.322 251 247 255
118.876 200.87 102.882 191 211 255
115.759 111.334 109.851 250 246 255
85.1774 85.1887 110.949 239 240 255
113.834 113.681 112.001 255 231 211
59.3621 108.235 108.572 225 232 255
117.282 106.102 113.309 217 227 255
85.2379 37.6619 112.461 196 214 255
81.5788 140.53 113.897 214 226 255
109.308 159.822 110.878 195 214 255
73.2882 74.7944 111.508 225 232 255
102.023 84.7082 116.502 207 221 255
192.618 101.958 116.162 241 241 255
76.068 56.9062 112.405 214 225 255
141.887 153.554 114.022 247 244 255
123.213 85.2499 109.303 205 220 255
163.086 192.872 87.944 236 238 255
74.4766 78.141 112.936 210 223 255
149.144 111.288 113.892 230 235 255
94.8538 174.144 112.095 237 239 255
36.0679 143.28 113.074 189 210 255
183.192 99.59 111.932 232 236 255
126.042 132.383 108.93 228 234 255
138.525 76.3972 131.66 210 223 255
114.404 127.968 110.979 207 221 255
140.854 105.445 111.672 255 235 218
142.941 84.1203 117.562 195 213 255
135.824 161.279 110.943 202 218 255
49.3773 76.349 116.11 185 207 255
106.336 128.806 112.222 255 227 205
16.1536 57.6146 116.027 188 209 255
164.858 69.8802 113.765 213 225 255
146.769 198.354 102.905 227 233 255
162.13 195.382 113.761 205 220 255
132.398 109.497 117.792 255 240 226
62.5388 53.4034 114.375 212 224 255
150.851 64.4432 115.853 245 243 255
129.167 79.6171 100.252 255 224 199
70.6778 142.295 122.32 219 228 255
132.352 60.0017 113.296 214 225 255
129.833 195.53 110.664 194 213 255
115.276 81.1281 105.338 211 223 255
95.3335 113.734 107.777 214 225 255
94.4326 174.348 111.597 255 226 202
157.471 135.619 110.232 220 229 255
66.8876 172.912 112.357 196 214 255
102.135 99.1601 100.685 202 218 255
96.1348 72.5727 114.939 255 240 228
142.681 128.232 110.764 209 222 255
87.4692 94.3236 110.493 193 212 255
119.073 97.8532 114.467 255 250 244
45.8197 147.624 111.911 213 225 255
96.4367 35.5737 110.813 195 214 255
104.643 105.038 112.101 255 243 232
117.552 27.5705 110.937 201 217 255
157.433 150.803 114.947 255 247 239
156.589 163.989 107.674 183 206 255
112.158 113.144 113.591 255 250 243
117.155 99.4775 113.743 255 157 66
121.486 140.335 112.215 220 229 255
96.6839 136.745 109.533 203 219 255
82.0828 133.245 107.605 204 219 255
96.1777 181.158 112.143 194 213 255
87.9581 175.072 106.464 255 252 248
94.3677 174.372 111.515 194 213 255
111.582 109.095 109.636 239 240 255
123.922 79.7671 115.943 191 212 255
104.309 113.708 106.433 255 251 255
179.718 114.094 111.851 196 215 255
70.1763 135.813 111.371 210 223 255
167.623 134.764 111.843 223 230 255
93.6593 174.137 111.531 191 212 255
136.384 100.1 118.827 255 251 245
104.555 142.053 113.811 213 225 255
113.926 77.2707 110.351 204 219 255
16.0818 179.293 114.263 183 206 255
97.2824 161.992 110.315 200 217 255
192.486 41.4709 107.972 191 211 255
158.531 135.119 115.303 221 229 255
106.512 124.085 118.502 255 213 180
99.5693 70.9425 106.276 202 218 255
92.5322 142.427 113.467 255 248 240
50.2752 36.7005 108.775 204 219 255
92.7076 68.1347 110.309 255 242 231
47.82 85.2334 95.1747 206 221 255
51.9092 73.6571 107.415 187 209 255
115.447 75.4037 112.972 199 216 255
106.13 107.637 105.288 241 241 255
145.465 186.005 107.683 190 211 255
94.3813 174.366 111.532 184 207 255
112.379 104.414 113.061 255 250 244
84.7443 135.635 99.5861 190 211 255
89.2515 92.343 112.067 217 227 255
186.56 42.2657 110.37 187 209 255
154.277 9.35546 112.612 198 215 255
148.983 183.842 89.1082 213 224 255
134.132 206.212 125.223 198 216 255
156.008 123.12 106.916 233 236 255
115.242 114.537 112.313 255 191 139
122.935 81.0769 117.528 207 221 255
137.255 172.562 109.962 194 213 255
107.451 128.376 111.97 220 229 255
4.85501 112.408 113.74 184 207 255
70.2806 142.598 111.441 193 213 255
67.3462 51.2111 110.891 212 224 255
94.7664 174.67 111.049 238 239 255
92.3508 110.937 106.529 255 219 190
114.614 112.946 111.601 218 228 255
93.2008 60.8502 111.76 195 214 255
34.3196 179.056 110.987 193 212 255
107.635 168.645 109.998 255 192 140
107.924 88.0872 118.238 236 238 255
100.859 19.4291 109.128 215 226 255
103.936 91.4958 116.738 255 242 230
59.8338 49.2433 115.396 206 221 255
124.571 105.596 107.727 197 215 255
63.2654 66.0155 113.332 214 225 255
186.536 148.412 114.139 239 240 255
125.906 90.089 108.97 248 245 255
47.997 158.606 111.138 193 213 255
202.365 119.628 111.265 195 214 255
139.873 134.171 111.835 215 226 255
112.016 115.908 111.137 255 126 0
213.717 76.0635 112.41 189 210 255
174.299 95.4451 112.561 205 220 255
108.588 155.443 113.2 255 238 223
34.3318 38.0803 115.241 187 208 255
94.3487 174.379 111.475 191 211 255
115.825 97.9206 109.05 255 251 255
66.7355 129.693 115.157 228 234 255
89.9353 152.72 112.598 255 232 213
94.3735 174.369 111.522 221 230 255
108.941 114.129 116.376 255 249 241
94.373 174.42 111.438 205 220 255
110.314 115.631 107.899 204 219 255
174.399 116.626 114.174 255 234 217
39.5385 143.86 114.5 187 209 255
104.989 43.035 114.203 195 214 255
131.628 118.076 116.167 196 215 255
52.9106 79.9772 118.222 202 218 255
121.032 202.203 109.577 191 211 255
159.956 92.3378 113.343 186 208 255
66.0276 158.876 115.067 201 217 255
142.577 157.409 109.25 212 224 255
116.583 125.462 115.621 220 229 255
33.8677 203.201 111.493 192 212 255
109.712 105.54 111.449 221 229 255
104.212 109.789 111.803 255 253 249
178.039 132.124 112.595 188 209 255
46.6548 194.73 111.065 206 220 255
157.932 136.127 114.045 209 222 255
35.0824 94.0104 110.983 180 204 255
99.1186 117.076 112.092 255 238 223
188.654 18.391 109.11 191 211 255
106.566 38.3156 111.433 217 227 255
121.41 74.4125 112.572 214 225 255
154.265 155.147 110.815 204 219 255
117.162 131.641 111.552 255 243 232
129.421 89.3831 112.25 217 227 255
159.332 148.586 112.801 201 217 255
88.0826 135.369 118.92 189 210 255
141.733 135.321 108.57 255 248 240
102.6 116.101 119.569 255 246 237
94.3481 174.382 111.484 211 223 255
82.1408 68.7533 116.236 194 213 255
8.46556 151.554 113.982 193 213 255
