ply
format ascii 1.0
element vertex 1341
property float x
property float y
property float z
property uchar red
property uchar green
property uchar blue
end_header
150.859 96.1924 113.697 220 229 255
75.0144 36.9984 121.322 224 231 255
103.76 104.549 107.746 217 227 255
93.4018 173.503 110.568 255 231 212
116.041 142.103 117.296 206 220 255
136.083 85.5592 115.918 255 241 229
123.016 144.052 108.928 232 236 255
113.276 143.926 108.927 199 216 255
163.967 107.491 112.138 216 227 255
150.971 150.735 114.278 203 219 255
104.341 99.4168 112.712 215 226 255
37.9381 47.6128 107.723 190 210 255
104.636 110.634 118.911 255 250 244
43.733 123.94 110.367 193 213 255
86.5974 140.915 115.471 224 231 255
93.2131 173.321 111.491 223 231 255
54.2785 164.398 112.188 189 210 255
68.5606 108.594 111.931 255 196 148
128.253 32.8172 112.961 195 214 255
72.2484 140.643 103.822 255 225 202
52.5746 85.3801 109.035 190 210 255
104.058 187.596 114.983 255 241 229
114.415 123.676 107.861 228 233 255
118.579 92.6265 130.321 211 224 255
49.2173 81.0839 131.064 186 208 255
107.577 97.5655 112.794 205 220 255
156.164 48.5027 118.24 255 241 228
170.996 155.797 113.445 201 218 255
61.2594 98.225 115.285 185 207 255
60.3942 119.916 124.109 198 215 255
109.717 104.882 115.079 255 235 218
150.651 91.2803 110.423 216 227 255
109.677 173.429 107.632 210 223 255
93.7503 116.545 111.452 255 173 102
160.724 120.015 112.194 207 221 255
60.4635 132.5 123.516 222 230 255
205.804 78.9862 108.315 221 230 255
216.018 133.946 119.32 185 207 255
90.6674 176.124 113.281 225 232 255
89.7295 165.714 113.363 255 219 190
122.317 115.953 109.413 255 255 251
117.203 101.133 112.405 236 238 255
50.9112 141.377 93.6831 255 227 205
91.7826 201.363 108.431 208 222 255
118.72 141.198 108.814 234 237 255
153.251 135.053 110.895 255 237 221
121.967 197.505 136.522 180 204 255
107.964 102.248 105.402 203 219 255
163.623 115.003 105.478 217 227 255
106.938 129.929 115.894 216 226 255
68.0412 117.651 112.607 218 228 255
118.859 108.588 99.3345 255 232 213
90.7635 140.357 112.811 255 251 246
101.156 114.084 115.539 255 240 226
97.9879 117.62 115.136 255 244 234
87.0405 46.7134 112.031 196 214 255
96.304 165.043 111.456 244 243 255
167.61 105.909 141.336 210 223 255
107.848 104.226 100.804 255 247 238
130.875 73.7298 107.687 255 251 245
155.709 135.677 90.1166 241 241 255
143.216 137.177 114.816 197 215 255
116.028 91.5677 111.264 221 230 255
54.0006 133.24 96.2373 203 219 255
156.727 149.594 116.152 202 218 255
108.276 117.599 129.859 255 228 206
33.591 155.935 117.478 193 213 255
89.7454 216.364 120.319 184 207 255
159.196 127.463 110.315 208 222 255
121.317 117.926 108.07 219 228 255
147.09 90.2946 115.621 206 221 255
55.4022 48.6105 112.204 182 206 255
165.013 85.1901 113.967 203 218 255
121.423 113.581 107.571 255 250 244
60.5902 114.638 99.9226 199 216 255
130.417 154.796 103.42 203 219 255
122.508 28.9684 112.376 191 211 255
103.437 16.0563 115.183 226 233 255
93.4227 173.586 110.655 215 226 255
118.343 123.858 104.416 255 227 205
53.3624 177.481 114.157 199 216 255
113.178 116.15 131.719 255 207 168
103.151 126.117 109.995 255 141 27
60.5988 140.117 116.239 197 215 255
93.4071 173.545 110.612 190 211 255
93.4172 173.574 110.641 189 210 255
103.915 114.785 109.574 255 167 88
113.533 113.769 96.8632 198 216 255
115.841 85.826 118.5 255 247 239
93.0442 174.164 110.674 255 200 155
40.854 78.7408 112.788 201 217 255
93.4116 173.559 110.624 206 220 255
57.3747 94.0779 125.134 206 220 255
159.879 136.196 114.271 181 205 255
145.855 169.547 113.292 195 214 255
49.93 193.931 112.489 189 210 255
126.363 75.2709 121.991 222 230 255
188.343 185.051 118.878 191 211 255
102.109 124.13 110.819 255 240 227
72.872 152.85 118.548 222 230 255
110.835 61.5177 114 188 210 255
122.562 115.176 132.314 255 224 199
77.0803 127.791 113.273 216 227 255
68.053 59.5874 126.477 203 219 255
23.8341 89.535 128.921 188 209 255
172.885 89.2416 114.76 195 214 255
72.3715 84.8969 114.159 216 227 255
147.14 37.8538 113.761 195 214 255
80.2714 110.066 114.152 201 217 255
139.486 79.9013 93.2543 222 230 255
118.372 118.322 104.484 255 194 145
91.2233 196.563 112.181 208 222 255
93.4162 173.571 110.638 190 211 255
113.179 103.033 95.1369 229 234 255
93.4218 173.584 110.653 203 219 255
128.4 18.8695 104.319 176 202 255
96.1294 162.768 109.859 255 250 255
104.857 110.058 126.978 255 205 166
107.731 122.512 108.31 228 233 255
161.732 168.724 95.9338 213 224 255
82.7081 141.94 115.603 187 209 255
93.4155 173.569 110.636 192 212 255
93.4146 173.567 110.633 206 220 255
101.465 120.958 121.933 255 219 190
125.774 111.665 102.934 255 229 207
96.4088 85.1061 111.626 255 242 230
103.047 101.36 115.941 207 221 255
4.24095 146.515 109.506 182 206 255
59.6129 214.753 104.18 177 203 255
72.9696 129.763 114.358 184 207 255
121.122 187.658 110.612 205 220 255
130.286 120.836 109.204 255 239 225
69.7196 134.693 113.555 199 216 255
97.4603 172.584 106.672 213 225 255
0.992967 103.882 110.385 182 206 255
117.867 148.042 119.232 255 231 211
146.081 95.831 114.509 189 210 255
74.023 61.9088 111.667 189 210 255
163.599 84.9539 107.789 195 214 255
123.375 87.938 112.797 218 228 255
96.5706 133.691 111.188 219 228 255
167.538 53.7362 114.962 199 216 255
124.745 132.395 115.072 255 176 108
101.621 160.506 121.47 224 231 255
48.1057 97.6686 90.3438 187 209 255
122.831 92.4102 133.406 223 230 255
111.487 114.56 109.852 255 241 228
110.121 128.916 110.834 198 216 255
164.761 121.012 104.782 217 227 255
175.011 42.7018 114.266 255 254 249
93.4013 173.529 110.59 193 213 255
99.0043 170.03 98.0369 255 187 131
93.1514 163.077 100.905 233 237 255
140.713 109.217 113.839 241 241 255
148.144 146.348 111.835 198 216 255
140.956 167.056 111.55 198 215 255
89.6081 145.901 112.219 215 226 255
84.9475 53.3991 106.761 186 208 255
104.683 93.2723 115.517 255 227 204
63.9861 51.4515 104.375 193 213 255
84.7819 161.62 112.612 207 221 255
110.148 119.571 105.941 215 226 255
121.615 112.787 118.583 198 216 255
167.472 143.27 110.587 186 208 255
84.871 140.832 109.263 216 226 255
93.3469 172.557 109.88 203 219 255
100.739 115.057 59.4498 206 221 255
158.975 116.524 93.077 202 218 255
49.5255 96.1597 118.987 201 217 255
58.1343 64.0581 105.028 191 211 255
61.5941 71.2151 100.912 255 208 171
161.176 100.977 109.918 232 236 255
101.056 19.0303 115.002 199 217 255
160.444 4.51108 116.683 187 208 255
86.1491 136.383 113.446 236 238 255
153.687 80.4558 104.557 219 228 255
119.761 118.809 112.177 199 216 255
119.537 73.0686 119.922 206 221 255
124.138 125.992 113.115 192 212 255
43.9922 84.753 121.885 208 222 255
119.63 123.639 100.827 255 223 198
101.211 90.3449 111.232 255 247 239
122.913 83.4352 110.533 235 237 255
92.9949 143.382 111.648 197 215 255
93.4301 173.602 110.672 255 217 187
117.857 145.48 105.745 255 253 248
105.842 109.978 108.384 255 184 124
146.924 80.703 103.889 199 216 255
93.4204 173.581 110.649 236 238 255
108.388 111.926 107.231 228 234 255
124.809 52.4288 114.487 216 227 255
193.16 163.886 116.775 195 214 255
128.755 160.947 117.705 197 215 255
93.4116 173.559 110.624 212 224 255
70.3868 104.829 94.3893 191 211 255
81.2061 84.8536 113.7 213 224 255
142.916 112.416 111.472 211 224 255
119.757 213.072 121.33 196 214 255
70.5006 151.488 118.913 221 230 255
155.789 66.6631 110.105 199 216 255
100.262 112.083 110.39 217 227 255
102.732 169.933 121.252 246 244 255
138.064 188.756 133.103 199 216 255
122.328 170.367 114.086 190 211 255
133.944 162.921 114.105 192 212 255
132.154 186.93 117.324 200 217 255
115.008 148.224 111.79 255 197 149
120.177 113.767 113.353 255 253 248
109.745 110.342 109.34 255 222 195
74.3057 35.0439 111.09 186 208 255
117.061 115.1 106.013 234 237 255
96.1185 135.045 113.675 212 224 255
130.861 84.573 135.04 202 218 255
180.677 50.6009 115.715 185 208 255
93.4206 173.582 110.65 201 217 255
142.597 17.942 104.887 177 202 255
82.5813 101.774 112.584 206 221 255
94.2155 174.285 111.231 224 231 255
106.77 121.93 113.244 212 224 255
107.895 113.392 100.614 255 222 195
105.589 123.001 117.502 208 222 255
91.1171 186.938 126.162 252 247 255
77.7052 119.814 113.224 203 219 255
125.675 114.99 109.691 218 228 255
25.4395 47.8195 107.701 201 217 255
97.4909 12.8588 129.95 196 215 255
59.5736 76.1451 106.353 219 229 255
88.962 137.672 112.964 246 244 255
36.9265 104.823 109.972 208 222 255
106.222 103.165 115.381 255 166 86
163.127 2.55747 99.8599 192 212 255
116.51 81.9757 119.056 214 225 255
97.3911 37.0979 80.7161 204 219 255
54.9156 161.308 112.796 224 231 255
193.543 167.891 106.958 178 203 255
113.286 87.2998 110.028 255 234 216
221.725 40.958 108.373 189 210 255
183.348 101.573 114.959 210 223 255
93.4119 173.559 110.625 208 222 255
106.365 103.293 118.524 255 222 197
196.333 103.238 108.332 211 223 255
95.2785 169.373 111.413 221 229 255
108.414 150.465 116.627 255 253 248
53.814 114.025 97.9762 207 221 255
187.432 53.6942 111.93 194 213 255
132.915 77.5012 104.695 233 237 255
147.854 81.9441 107.876 210 223 255
70.5685 203.18 94.361 204 219 255
102.72 116.101 118.017 255 227 204
101.644 99.0624 117.166 218 228 255
115.099 101.316 123.817 234 237 255
115.995 126.263 103.829 228 233 255
95.622 61.8573 113.251 219 229 255
110.143 87.938 118.476 255 227 205
119.763 125.694 110.138 255 246 237
122.424 93.4178 112.327 255 234 217
125.846 39.3742 113.099 194 213 255
108.222 107.866 110.839 220 229 255
49.8886 150.002 111.221 211 223 255
50.5162 87.0862 69.0571 198 216 255
157.369 71.0676 111.882 195 214 255
25.7979 173.404 112.264 217 227 255
106.507 135.619 109.938 217 227 255
81.7916 23.477 56.1571 190 211 255
131.523 142.148 111.596 215 226 255
115.296 77.6407 117.794 198 216 255
92.6466 182.63 115.454 230 235 255
106.51 100.969 104.62 209 222 255
121.122 149.983 113.166 221 229 255
72.7715 128.648 116.505 192 212 255
115.991 115.428 101.105 206 220 255
111.706 99.6947 118.378 255 244 233
105.866 120.936 107.763 220 229 255
84.3542 134.72 94.1639 216 226 255
136.425 81.9713 100.374 189 210 255
72.9729 142.929 98.0943 205 220 255
93.3323 173.461 110.57 195 214 255
97.7842 99.4934 105.17 198 216 255
196.225 45.4576 111.138 198 216 255
99.7805 129.318 110.334 226 233 255
18.864 147.231 113.366 196 215 255
209.698 82.2029 111.827 187 209 255
93.4182 173.431 110.483 255 190 136
112.974 75.7961 118.445 206 221 255
86.4408 144.561 99.1688 234 237 255
114.129 125.891 113.898 238 239 255
123.47 117.012 111.54 255 241 229
190.846 119.796 119.349 202 218 255
126.211 79.5511 127.843 200 217 255
123.248 74.0794 127.065 197 215 255
142.781 70.4982 123.991 210 223 255
143.212 62.894 117.465 191 211 255
175.486 82.045 111.918 194 213 255
186.648 67.413 114.017 184 207 255
122.577 84.6162 103.374 215 226 255
36.1054 116.814 107.662 179 204 255
98.3897 46.1583 111.059 199 216 255
93.4148 173.568 110.634 210 223 255
93.7852 173.839 110.399 255 252 248
192.524 35.3217 111.79 209 222 255
165.467 116.415 114.847 185 207 255
74.6882 57.8195 112.858 184 207 255
166.523 100.876 117.089 196 215 255
180.335 198.309 115.399 197 215 255
101.407 163.776 122.493 212 224 255
102.711 92.7644 112.656 215 226 255
126.888 92.2151 121.181 204 219 255
93.4074 173.546 110.61 203 219 255
122.547 175.116 114.196 195 214 255
156.362 117.987 108.207 237 239 255
93.4163 173.571 110.638 208 222 255
104.304 104.618 111.792 206 221 255
93.4162 173.571 110.638 202 218 255
99.2487 179.464 110.973 255 247 239
175.737 109.054 110.066 255 249 243
76.4147 147.03 134.508 204 219 255
106.971 176.681 110.578 208 222 255
80.0831 142.143 102.077 255 242 230
107.102 116.816 106.412 255 250 243
18.7456 123.318 116.552 191 211 255
93.724 173.774 110.932 255 206 167
74.743 115.032 111.729 202 218 255
164.95 120.33 110.926 224 231 255
98.9367 153.495 109.532 255 166 87
153.364 60.4851 116.719 202 218 255
47.6602 97.439 99.8993 203 219 255
115.761 4.3592 120.523 225 232 255
103.114 92.784 121.964 204 219 255
106.213 104.136 111.839 255 231 212
162.393 144.146 110.09 215 226 255
128.769 81.1797 106.731 244 243 255
98.0198 117.613 115.547 212 224 255
93.4159 173.57 110.637 189 210 255
180.471 126.73 102.522 188 210 255
109.791 116.355 105.176 255 244 234
93.1137 174.227 111.562 188 209 255
109.357 114.767 113.894 231 235 255
125.343 118.356 108.965 255 207 168
93.417 173.573 110.64 255 246 237
23.7044 77.2378 110.972 243 242 255
79.1377 19.3234 103.729 252 247 255
97.6307 103.806 104.634 255 243 232
109.719 81.4343 118.832 213 224 255
124.081 106.152 111.312 243 242 255
147.078 59.3276 112.343 198 215 255
132.802 18.0829 122.961 179 203 255
109.139 129.014 112.61 255 238 224
81.2553 155.974 119.409 215 226 255
99.6448 102.111 121.398 247 244 255
145.752 95.3732 105.332 199 216 255
96.6996 89.4044 119.863 240 240 255
17.4774 86.3117 108.801 185 207 255
44.5825 68.8705 95.8373 198 215 255
52.5228 109.928 118.019 230 235 255
68.0032 136.842 109.703 255 243 233
63.51 50.5902 107.143 217 227 255
119.112 162.137 110.484 185 207 255
109.233 115.595 113.685 213 225 255
52.6183 28.0483 119.037 180 204 255
140.258 72.6882 103.137 255 217 186
75.5909 80.1065 111.971 221 230 255
114.041 100.733 116.418 201 217 255
94.0063 63.1006 114.306 255 236 219
93.0228 27.1542 105.898 188 210 255
93.4109 173.557 110.622 196 215 255
89.8945 71.193 111.376 234 237 255
98.1403 105.083 120.294 225 232 255
93.4199 173.58 110.648 194 213 255
107.916 102.18 112.548 228 233 255
119.535 68.4996 119.964 213 225 255
121.45 117.756 112.459 236 238 255
113.157 126.499 110.924 208 222 255
111 120.088 103.523 248 245 255
78.2157 99.1558 111.584 200 217 255
93.4144 173.566 110.633 190 210 255
85.9192 186.843 113.956 212 224 255
93.4183 173.576 110.644 255 252 247
72.1091 132.252 115.852 228 234 255
130.301 83.943 107.033 248 245 255
171.616 117.541 95.2836 249 246 255
93.4005 173.521 110.584 233 236 255
93.4053 173.538 110.602 194 213 255
17.6766 137.651 105.903 191 211 255
146.771 75.2628 129.068 205 220 255
76.3168 40.5664 102.133 191 211 255
108.49 74.5689 116.348 217 227 255
108.663 104.176 111.505 255 229 208
107.498 103.026 115.098 255 250 244
122.456 76.5684 104.992 255 243 232
93.7789 124.864 113.319 235 238 255
95.2606 169.014 118.898 216 227 255
169.578 136.896 118.307 239 240 255
86.0806 48.4815 111.304 185 208 255
113.309 151.468 106.981 226 232 255
51.5048 128.254 113.134 225 232 255
14.2069 167.846 112.231 213 225 255
158.305 25.619 113.328 193 213 255
87.6962 185.608 111.029 228 233 255
103.212 120.799 115.267 255 222 196
90.6662 119.717 109.591 235 237 255
111.032 108.583 116.303 255 238 223
94.4097 67.6245 111.818 204 219 255
155.419 146.82 104.267 255 249 255
119.05 113.068 115.537 197 215 255
141.1 91.4791 111.293 216 227 255
104.606 165.519 119.275 195 214 255
72.8633 132.771 103.083 200 217 255
115.485 85.843 100.39 209 222 255
157.578 88.4893 112.845 232 236 255
137.149 104.499 113.266 221 230 255
93.3997 173.52 110.586 219 228 255
66.8739 121.203 137.902 221 230 255
62.5674 44.5224 83.0287 187 209 255
113.225 78.5008 106.576 255 253 248
92.3621 188.21 101.664 205 220 255
115.687 166.122 110.114 202 218 255
93.4035 173.534 110.597 255 244 234
121.476 149.107 113.729 192 212 255
114.535 127.293 106.406 255 250 244
183.111 23.1098 111.464 218 227 255
121.778 120.45 109.956 201 217 255
113.754 194.938 157.482 199 216 255
123.641 148.273 113.641 209 223 255
125.761 60.9161 119.134 221 229 255
117.616 86.4936 111.446 203 218 255
58.5282 197.56 112.438 191 211 255
93.9885 175.724 112.741 251 247 255
116.935 112.328 101.165 222 230 255
120.508 87.6684 124.866 255 205 166
107.555 97.4602 130.425 240 240 255
94.7169 178.948 117.83 205 220 255
145.909 98.5165 92.7295 255 242 231
125.599 79.59 128.827 238 239 255
93.4174 173.574 110.641 194 213 255
115.432 124.166 116.028 255 231 211
157.209 104.959 101.968 205 220 255
113.229 205.695 115.617 205 220 255
80.8762 145.154 105.866 248 245 255
38.931 167.736 108.201 187 209 255
93.4189 173.578 110.646 189 210 255
112.111 129.327 112.205 255 187 131
93.793 175.254 112.554 204 219 255
95.1756 118.21 115.426 255 253 248
106.763 122.106 111.906 227 233 255
93.42 173.58 110.649 218 228 255
63.9259 120.246 107.455 195 214 255
107.01 165.946 102.937 216 226 255
130.17 101.219 111.489 224 231 255
114.929 109.364 111.629 243 242 255
49.6938 47.0059 94.9749 198 216 255
115.667 121.289 110.878 224 231 255
81.7027 107.744 111.685 255 220 192
121.691 117.551 112.916 255 180 117
109.339 126.879 107.538 255 251 245
201.23 70.9382 111.534 201 217 255
93.4092 173.551 110.616 197 215 255
101.975 118.245 111.239 255 226 203
114.604 41.7846 116.778 202 218 255
48.8833 77.7403 120.039 192 212 255
155.075 218.206 122.963 186 208 255
152.962 139.448 112.98 181 205 255
59.5791 76.2114 87.1331 188 209 255
149.534 145.977 112.684 200 217 255
18.9576 198.55 112.238 190 211 255
168.38 53.5625 124.996 196 214 255
104.059 147.621 109.709 255 213 179
84.3201 91.9931 110.223 255 239 226
116.68 121.9 113.924 255 217 186
97.7513 67.9998 111.305 215 226 255
78.1088 178.958 115.166 186 208 255
119.744 124.599 113.257 255 221 194
99.3523 111.058 106.512 235 237 255
123.847 167.125 110.414 189 210 255
87.8088 24.1555 110.131 196 215 255
161.82 116.634 102.742 255 249 241
57.2141 122.131 108.081 202 218 255
67.692 20.0558 103.147 212 224 255
41.7156 79.8689 106.845 247 244 255
88.5948 13.8006 95.3651 194 213 255
96.4122 19.9602 114.956 187 208 255
91.9942 177.556 111.233 210 223 255
107.262 107.907 127.508 255 208 170
140.956 81.0151 121.328 208 221 255
129.772 58.3364 114.994 198 216 255
85.5434 156.605 107.452 221 230 255
166.72 59.1691 111.089 255 250 244
89.9468 36.1778 108.887 242 241 255
93.4098 173.558 110.62 210 223 255
142.576 94.0516 113.54 202 218 255
148.184 130.91 110.879 251 247 255
85.2077 49.9587 111.943 196 214 255
107.113 105.66 124.987 224 231 255
104.378 103.991 114.082 247 244 255
104.731 119.393 86.1661 255 251 245
93.4764 173.59 110.709 214 225 255
79.0948 91.9122 111.854 205 220 255
148.911 21.4817 112.386 188 210 255
36.2838 173.274 112.898 255 253 249
171.164 145.984 120.69 212 224 255
121.221 125.058 114.868 219 228 255
86.3369 209.969 115.428 197 215 255
69.916 131.835 122.385 198 215 255
194.378 16.3454 115.407 197 215 255
79.9784 179.402 112.095 195 214 255
17.4501 66.6661 115.609 192 212 255
133.956 164.579 110.102 198 216 255
126.424 79.3989 130.178 247 244 255
112.385 74.7714 118.724 203 218 255
164.069 144.496 147.906 192 212 255
131.96 159.739 88.3502 194 213 255
109.222 138.429 115.045 234 237 255
140.337 156.885 119.204 194 213 255
77.7235 164.24 115.135 255 251 246
112.878 130.073 111.616 226 232 255
98.8006 94.4282 108.464 255 247 238
116.951 90.7775 113.798 255 250 255
6.51436 93.5428 113.528 202 218 255
95.0658 99.6002 116.934 255 246 236
75.1487 36.8621 103.358 203 219 255
69.7754 123.92 107.552 223 231 255
57.7938 220.394 107.055 190 211 255
42.1847 84.0855 98.3002 223 231 255
114.689 112.79 105.186 220 229 255
113.93 108.088 122.075 225 232 255
119.003 124.993 131.618 255 196 148
93.4206 173.582 110.65 255 250 244
86.7058 148.826 106.549 255 251 245
108.567 112.948 110.689 255 244 234
81.6794 121.083 112.548 255 240 227
133.494 0.696802 121.328 202 218 255
51.5485 85.0849 119.716 217 227 255
60.8385 144.451 110.831 200 217 255
93.56 174.611 111.515 194 213 255
52.7436 117.367 92.1881 207 221 255
93.4087 173.55 110.617 190 211 255
93.4323 173.573 110.611 255 245 236
102.043 60.3363 114.877 255 242 230
103.615 116.694 112.933 203 219 255
105.979 132.598 97.7425 220 229 255
100.015 101.903 102.574 255 235 218
31.1691 150.406 110.017 190 211 255
115.511 156.51 110.047 213 225 255
153 155.639 110.128 199 217 255
93.4246 173.59 110.66 194 213 255
106.484 98.8862 113.929 255 252 247
105.707 95.8305 111.865 232 236 255
93.3476 117.45 112.332 210 223 255
31.7919 213.566 102.735 189 210 255
122.457 118.002 106.413 222 230 255
13.994 145.076 114.071 196 214 255
65.1232 61.4831 109.383 242 242 255
94.0587 172.621 110.788 199 216 255
103.835 104.6 111.314 255 212 178
95.412 149.345 130.16 221 229 255
97.5093 56.7412 115.545 224 231 255
90.1204 42.0163 119.025 185 208 255
93.4165 173.572 110.639 197 215 255
61.9622 53.8573 125.545 217 227 255
93.4207 173.581 110.649 218 228 255
103.059 115.265 106.188 217 227 255
149.515 45.0487 112.432 196 214 255
93.4277 173.562 110.394 220 229 255
118.784 84.7962 111.093 226 233 255
128.885 81.3699 124.941 216 226 255
89.0325 200.004 109.948 255 249 241
107.07 107.492 108.433 255 199 153
67.4772 185.587 109.114 191 211 255
99.5532 201.293 111.427 225 232 255
91.2643 124.109 111.045 255 239 226
112.802 154.068 104.196 200 217 255
107.832 109.745 112.998 255 243 232
109.898 78.7021 119.652 207 221 255
111.163 123.468 120.418 216 227 255
94.7645 174.999 111.187 255 239 225
40.9857 142.803 114.224 185 208 255
138.188 75.3927 112.788 206 221 255
51.2594 186.065 113.671 190 211 255
140.457 55.1 113.502 214 225 255
93.6834 173.67 110.645 209 223 255
201.351 55.0111 115.029 194 213 255
106.289 111.727 113.041 255 156 63
181.855 128.189 108.808 210 223 255
167.692 115.679 122.06 203 218 255
119.737 127.213 105.907 255 249 255
94.8575 45.8599 114.911 187 209 255
110.638 123.416 107.431 216 226 255
120.431 65.432 118.346 220 229 255
93.4031 173.493 110.6 255 240 227
100.421 114.327 119.299 255 253 248
151.206 93.694 121.659 181 205 255
110.662 128.287 106.332 255 226 204
136.478 172.431 111.378 199 216 255
220.05 59.3484 111.305 180 204 255
174.156 105.901 115.981 196 214 255
95.2214 151.992 107.441 207 221 255
109.34 111.631 119.005 255 249 255
116.677 92.2579 110.599 255 243 231
118.494 123.812 112.026 255 243 232
93.4195 173.579 110.647 228 233 255
75.9772 167.018 110.415 186 208 255
93.4082 173.549 110.614 197 215 255
101.768 83.4776 111.199 222 230 255
93.4708 172.534 109.951 227 233 255
147.148 12.069 112.6 195 214 255
107.656 105.827 112.782 255 197 150
118.71 103.709 122.129 236 238 255
143.307 87.7703 98.8971 228 233 255
135.172 72.4242 126.263 230 235 255
146.939 65.1032 116.202 214 225 255
93.412 173.56 110.625 201 218 255
65.417 63.6527 112.974 209 223 255
110.294 104.684 116.966 255 172 99
93.4074 173.551 110.622 255 243 231
120.073 75.8933 107.825 244 243 255
139.965 75.9372 113.133 255 163 79
111.371 129.419 111.831 255 199 154
77.2485 67.776 113.364 204 219 255
108.063 60.5181 113.421 199 216 255
165.25 146.667 95.0092 197 215 255
93.625 175.096 110.626 255 242 229
103.397 161.857 109.994 229 234 255
68.9016 135.052 100.86 199 216 255
92.9438 173.633 110.484 223 231 255
111.491 91.0466 112.357 233 237 255
163.542 94.9015 113.935 227 233 255
103.051 119.836 111.859 255 201 158
93.416 173.571 110.637 201 218 255
89.9027 37.5852 112.565 255 242 231
93.4162 173.571 110.638 203 218 255
93.2667 173.948 110.537 255 250 243
105.52 172.999 109.949 190 210 255
125.911 125.476 121.848 213 225 255
52.1618 91.5034 121.593 216 226 255
65.849 77.4768 114.269 188 209 255
93.4015 173.528 110.589 198 216 255
93.5034 169.461 109.562 207 221 255
102.807 187.566 114.139 202 218 255
115.876 79.5076 117.4 243 242 255
79.0156 107.479 111.471 197 215 255
71.8996 76.1128 112.828 216 226 255
86.0134 104.383 112.025 204 219 255
106.527 121.871 131.602 218 227 255
93.4158 173.57 110.637 211 224 255
113.19 152.215 110.22 196 215 255
63.1199 118.799 103.306 255 207 169
140.832 139.328 113.03 205 220 255
66.1492 63.9197 72.7691 208 222 255
89.81 111.102 114.525 242 241 255
130.005 80.4958 130.533 201 218 255
101.243 166.253 101.736 224 231 255
181.376 51.8811 108.791 190 211 255
203.826 72.3356 109.669 207 221 255
95.735 160.762 107.491 255 244 234
99.7394 163.895 107.13 250 246 255
34.7757 126.511 110.967 194 213 255
94.902 151.305 110.533 255 251 246
52.5727 108.13 109.987 242 241 255
77.5923 118.544 112.083 233 237 255
94.7027 173.274 113.43 220 229 255
142.276 127.343 110.707 225 232 255
69.3423 90.2535 114.554 255 252 246
65.1997 65.4796 78.6015 191 211 255
98.7997 164.897 129.417 194 213 255
36.3798 24.0001 61.2405 232 236 255
49.0166 164.191 115.424 232 236 255
75.4089 128.751 114.43 190 211 255
140.622 85.6582 116.038 255 249 242
57.7792 164.162 111.111 206 221 255
68.9107 88.5551 121.804 219 228 255
93.4133 173.564 110.63 201 217 255
93.4236 173.681 110.727 230 234 255
120.826 126.693 112.486 202 218 255
202.518 78.3758 109.1 196 214 255
92.9229 132.532 113.205 212 224 255
149.743 157.514 110.491 182 205 255
103.815 163.996 100.985 204 219 255
116.727 84.7388 111.99 198 216 255
101.133 122.737 115.008 255 250 255
52.8821 185.132 110.552 217 227 255
99.2817 71.8762 111.762 186 208 255
109.899 104.512 113.795 212 224 255
156.772 162.742 114.527 201 217 255
184.099 40.9634 111.132 187 209 255
117.159 115.113 109.541 255 236 220
93.4236 173.589 110.658 207 221 255
93.4172 173.574 110.641 194 213 255
93.4209 173.556 110.612 233 236 255
137.303 17.9273 119.143 191 211 255
124.486 123.22 103.456 255 196 148
93.4193 173.579 110.647 255 204 164
143.889 175.772 141.409 212 224 255
114.464 109.842 108.092 255 182 121
93.4211 173.583 110.651 200 217 255
95.3685 94.1874 108.637 199 216 255
93.6836 120.759 112.42 209 222 255
80.9355 123.243 111.932 255 183 123
49.0399 62.7286 120.936 208 222 255
99.4668 99.99 107.218 255 239 225
87.1946 36.8385 112.846 194 213 255
216.566 151.617 103.545 186 208 255
165.32 159.425 96.3491 212 224 255
127.065 84.1024 112.405 255 220 193
151.847 96.1747 122.288 246 244 255
110.485 116.374 113.579 255 222 195
108.706 150.972 99.4879 255 245 235
100.796 106.36 124.609 255 255 252
2.99952 106.279 119.11 195 214 255
174.377 97.1048 111.076 194 213 255
118.414 68.5883 69.7933 189 210 255
171.928 56.7939 109.344 196 215 255
93.4256 173.591 110.66 192 212 255
98.818 209.881 107.279 187 208 255
108.206 107.387 102.334 245 243 255
115.749 73.1906 125.653 255 220 193
93.0351 173.268 110.925 235 238 255
120.345 76.8737 116.926 203 219 255
160.622 121.673 107.576 189 210 255
112.115 103.979 118.385 231 235 255
126.384 136.981 108.472 255 243 232
99.3173 157.332 111.191 229 234 255
83.7894 23.7445 95.7415 241 241 255
52.2817 49.6027 116.838 186 208 255
100.339 149.16 118.219 243 242 255
97.2314 166.171 120.839 218 228 255
118.313 118.941 104.877 255 213 179
120.165 121.674 111.776 220 229 255
106.342 115.077 118.678 209 222 255
115.073 122.807 108.95 255 234 216
121.901 71.7274 119.073 198 216 255
23.7378 61.2171 114.785 199 216 255
113.416 190.656 111.585 190 211 255
89.0673 80.1266 112.115 217 227 255
30.5583 201.023 116.734 184 207 255
117.418 113.511 115.007 223 230 255
17.156 66.7858 112.644 189 210 255
128.256 78.2671 108.641 255 222 196
103.745 67.1434 117.083 255 228 207
121.528 97.0791 119.13 207 221 255
145.721 65.4853 121.485 240 241 255
93.4817 173.659 110.821 199 216 255
43.6594 118.623 93.9335 197 215 255
109.806 103.632 110.916 255 215 183
144.538 73.7159 125.417 204 219 255
105.518 114.085 106.357 255 219 190
104.86 105.201 116.628 255 233 215
105.596 120.152 113.543 211 223 255
158.696 108.114 109.686 208 222 255
77.1934 10.4525 111.616 191 211 255
104.855 177.397 117.763 196 214 255
14.1844 155.459 114.811 193 212 255
117.287 128.427 112.024 254 248 255
112.728 105.627 108.269 246 244 255
104.69 108.379 104.816 203 219 255
92.8823 176.293 107.484 205 220 255
93.4084 173.549 110.613 218 228 255
27.0366 75.2732 110.889 202 218 255
65.801 100.239 113.74 205 220 255
157.475 123.985 111.582 199 216 255
81.6236 33.8186 105.114 194 213 255
144.357 89.9364 103.174 227 233 255
54.177 82.066 100.917 216 226 255
108.873 109.772 110.068 209 223 255
219.644 67.3744 112.799 185 207 255
174.362 127.45 100.995 188 209 255
107.047 102.68 114.797 255 249 242
107.008 109.083 114.779 219 228 255
108.502 103.941 117.392 255 246 237
93.4196 173.579 110.648 194 213 255
86.1293 160.954 115.375 204 219 255
117.616 87.7803 121.604 235 237 255
69.7949 123.586 112.324 225 232 255
20.4686 78.5021 112.787 185 208 255
122.582 115.679 106.871 255 232 214
198.996 60.9752 114.851 209 222 255
93.4132 173.563 110.629 189 210 255
109.505 83.7891 108.801 188 209 255
73.1672 126.563 119.078 217 227 255
72.104 81.7688 113.36 204 219 255
93.4032 173.529 110.594 191 211 255
174.178 112.243 113.827 192 212 255
87.6821 148.235 114.953 208 222 255
26.7189 112.4 112.668 189 210 255
138.751 190.547 109.54 191 211 255
70.126 67.1173 110.133 187 209 255
106.849 130.927 103.522 211 224 255
116.687 100.947 77.6374 255 249 241
144.607 151.872 112.797 188 209 255
122.925 120.98 111.571 238 239 255
116.977 86.1819 120.041 217 227 255
117.12 91.8755 110 212 224 255
73.6242 124.661 108.544 204 219 255
78.8585 163.88 109.247 180 204 255
35.2922 113.885 108.644 189 210 255
106.793 98.1601 111.327 200 217 255
157.386 162.782 113.276 197 215 255
103.758 107.352 109.259 255 250 255
167.099 139.216 107.659 219 228 255
77.6081 218.083 105.76 195 214 255
127.94 123.975 112.354 255 186 128
101.857 123.915 117.938 255 243 232
114.467 125.518 101.997 234 237 255
130.127 111.759 111.856 228 234 255
116.424 141.254 113.78 207 221 255
133.924 117.926 112.485 215 226 255
110.498 156.278 112.623 255 252 246
77.3954 165.225 112.165 196 215 255
93.4209 173.582 110.651 191 212 255
96.0209 66.8801 116.124 246 244 255
93.4236 173.587 110.657 185 208 255
156.576 102.835 111.257 197 215 255
163.29 77.337 114.814 208 221 255
122.584 123.522 119.869 255 198 152
122.711 115.537 116.258 234 237 255
93.4055 173.538 110.602 213 224 255
103.181 110.274 103.585 233 236 255
113.906 133.433 103.927 195 214 255
127.142 76.2465 110.382 229 234 255
107.034 108.705 111.105 212 224 255
111.347 84.0028 115.739 209 222 255
134.069 21.0546 103.732 212 224 255
142.501 110.614 112.44 215 226 255
72.825 129.932 110.728 197 215 255
132.954 102.899 111.485 209 222 255
50.8917 104.624 101.231 196 214 255
207.793 26.241 114.169 197 215 255
100.312 79.5473 115.344 244 243 255
132.614 40.7529 115.193 192 212 255
56.6198 72.2104 98.208 193 213 255
118.369 127.97 105.47 255 181 119
46.7052 137.642 114.094 233 236 255
99.6223 163.015 108.204 212 224 255
145.688 90.2586 111.85 198 215 255
37.5718 78.8308 110.148 188 209 255
158.021 129.053 110.324 203 219 255
116.833 146.13 112.64 255 224 199
43.7106 141.523 113.537 207 221 255
58.4036 102.331 115.066 198 215 255
118.942 90.0606 115.176 254 248 255
186.77 15.7974 108.831 206 220 255
81.7489 37.5916 101.768 179 204 255
72.18 210.249 112.021 190 210 255
14.8941 73.7923 109.527 192 212 255
89.7884 94.886 134.712 210 223 255
115.469 165.496 111.435 211 224 255
131.921 169.967 110.734 197 215 255
177.992 10.6942 99.5336 221 229 255
109.64 95.7545 113.554 242 242 255
65.2403 70.8537 104.592 196 215 255
108.706 81.9159 95.3897 225 232 255
93.5806 174.005 111.003 217 227 255
186.095 63.7035 115.087 184 207 255
93.4337 173.606 110.68 190 211 255
177.997 81.5625 85.5016 239 240 255
93.4095 173.55 110.615 255 253 248
95.3845 147.228 112.22 218 228 255
105.785 152.755 115.186 255 246 238
93.4129 173.563 110.628 212 224 255
160.012 132.857 103.079 214 225 255
75.2616 141.721 145.737 233 236 255
93.4212 173.583 110.652 201 217 255
100.663 127.829 123.493 223 230 255
108.514 108.989 110.873 255 42 0
104.153 130.929 111.372 208 222 255
93.4054 173.504 110.564 205 220 255
104.413 140.53 111.736 230 235 255
121.978 117.563 109.457 210 223 255
123.41 163.988 107.042 221 229 255
14.1634 198.004 110.789 199 216 255
76.4664 46.3745 105.221 212 224 255
110.165 92.7532 109.249 243 242 255
214.724 23.6088 119.598 188 209 255
69.9738 24.3426 123.369 190 211 255
111.616 138.777 107.49 226 232 255
93.4222 173.585 110.654 243 242 255
101.098 22.123 113.266 207 221 255
112.087 218.216 94.2893 192 212 255
96.5387 168.31 107.017 206 220 255
130.372 181.358 110.008 192 212 255
117.84 117.487 104.876 255 193 142
188.151 182.985 109.461 177 202 255
57.1626 127.274 121.862 204 219 255
187.451 75.4377 109.851 199 216 255
93.4194 173.604 110.673 206 221 255
107.959 127.437 105.16 207 221 255
75.2142 127.609 111.656 208 222 255
93.223 173.703 110.614 255 249 242
2.09531 118.806 117.574 183 206 255
102.363 108.183 104.222 214 225 255
141.566 147.404 112.659 189 210 255
100.573 103.748 116.908 203 219 255
157.102 121.754 108.661 205 220 255
78.2727 51.9382 115.041 225 232 255
111.664 127.948 111.349 255 200 156
16.86 125.32 107.975 220 229 255
170.782 131.373 119.431 234 237 255
37.8352 43.3596 111.563 182 205 255
113.683 76.5167 141.536 215 226 255
102.004 61.515 112.355 198 215 255
121.206 125.883 120.864 255 254 250
167.508 121.355 124.523 198 216 255
110.72 108.762 118.839 220 229 255
78.1042 167.927 112.643 204 220 255
115.97 107.731 114.126 255 144 33
113.483 188.825 109.755 220 229 255
32.5122 161.57 118.668 197 215 255
70.1482 113.244 110.556 255 102 0
86.7135 199.265 112.953 201 217 255
132.643 123.304 111.292 212 224 255
118.134 92.3017 102.695 255 239 225
52.5154 132.977 104.536 222 230 255
105.837 20.5609 109.911 193 213 255
112.584 124.384 112.546 255 224 199
152.642 107.216 108.872 197 215 255
2.12631 149.55 115.377 181 205 255
55.0726 95.5202 96.7113 201 218 255
83.3874 26.4852 118.516 214 225 255
60.8687 215.054 108.934 185 207 255
23.9319 51.444 118.835 186 208 255
57.5912 96.6327 113.588 246 244 255
158.686 117.741 106.683 202 218 255
140.381 139.707 111.138 216 226 255
118.295 123.345 116.081 255 193 143
116.279 111.536 116.213 238 239 255
19.5098 53.7755 110.652 188 209 255
92.5662 114.766 115.366 255 216 186
93.4157 173.57 110.637 206 221 255
137.711 93.7543 96.4516 215 226 255
148.802 155.397 113.434 212 224 255
122.12 127.776 118.928 229 234 255
80.5963 24.2561 122.504 194 213 255
42.9945 94.7417 111.9 205 220 255
106.893 111.118 105.603 255 227 205
111.309 108.615 113.121 245 243 255
104.16 70.7888 114.244 225 232 255
93.0812 174.437 111.01 229 234 255
125.465 117.728 110.926 223 231 255
59.0493 83.132 110.742 201 218 255
106.301 90.2448 127.942 214 225 255
93.4146 173.567 110.633 255 251 245
114.579 111.922 118.136 255 253 248
102.727 123.496 113.529 255 251 255
104.192 159.981 103.484 255 250 244
70.0919 129.791 121.153 197 215 255
128.71 159.51 116.181 180 204 255
108.349 132.826 108.664 255 243 232
125.537 112.874 107.821 250 246 255
93.4151 173.57 110.645 193 213 255
93.3349 173.53 110.617 198 216 255
125.47 36.5961 116.227 209 222 255
8.44873 80.8331 117.631 192 212 255
61.7067 102.995 112.666 202 218 255
110.238 122.693 112.145 255 114 0
116.903 144.593 112.839 235 237 255
104.706 116.089 118.678 222 230 255
77.8612 30.6664 123.286 216 227 255
110.868 172.517 111.106 211 224 255
152.906 145.586 119.111 186 208 255
92.9626 173.474 110.31 216 227 255
111.23 106.426 114.303 206 220 255
132.545 90.1747 115.488 240 241 255
105.03 100.76 114.928 228 233 255
71.1672 95.3206 114.629 190 211 255
184.024 99.3688 117.033 196 214 255
76.2339 201.132 115.743 197 215 255
142.126 78.7789 129.28 226 233 255
145.523 117.598 115.907 219 228 255
147.025 124.327 132.016 228 233 255
93.3169 173.634 110.947 201 218 255
18.8854 112.74 111.637 200 217 255
100.884 103.644 101.105 208 222 255
68.4786 151.278 123.746 255 238 224
155.102 177.411 113.996 198 215 255
115.085 130.703 112.215 230 235 255
55.4184 85.1908 110.856 231 235 255
93.5854 173.895 111 203 219 255
173.433 111.144 104.063 197 215 255
158.619 120.831 112.784 198 216 255
22.752 132.741 116.082 195 214 255
93.4146 173.567 110.633 200 217 255
94.2358 173.561 109.755 213 224 255
81.228 55.0205 112.209 211 224 255
157.95 79.405 110.652 218 228 255
88.3222 155.394 109.993 214 225 255
15.744 158.958 114.997 200 217 255
136.22 42.5925 114.617 209 222 255
97.0615 79.212 112.984 211 224 255
93.4153 173.573 110.64 200 217 255
114.602 108.232 102.115 241 241 255
108.858 113.995 107.029 204 220 255
132.559 74.7931 106.324 204 219 255
136.96 33.9472 112.174 198 216 255
109.598 130.503 112.161 236 238 255
125.555 28.7353 108.863 193 212 255
106.59 110.976 119.08 255 234 216
106.233 102.386 116.307 255 235 218
78.379 172.287 114.37 191 211 255
110.078 99.1038 109.207 255 254 249
62.8843 108.311 111.949 209 222 255
182.871 65.0949 113.774 194 213 255
101.204 59.218 114.263 229 234 255
93.4242 173.589 110.659 192 212 255
132.269 88.6387 111.823 208 221 255
93.4016 173.54 110.587 196 215 255
93.4101 173.554 110.619 219 228 255
117.732 76.519 118.784 205 220 255
85.5092 208.063 110.542 187 209 255
179.766 165.568 109.96 191 211 255
118.788 119.42 97.2732 255 253 248
145.389 94.3917 114.279 233 236 255
76.0786 171.284 113.495 203 219 255
16.474 148.091 108.798 188 209 255
55.3575 119.709 126.491 208 221 255
128.609 206.396 104.769 193 213 255
134.848 67.6966 117.468 194 213 255
93.4173 173.574 110.641 215 226 255
100.05 187.409 137.995 206 220 255
101.704 108.425 113.803 207 221 255
64.943 31.8892 103.534 225 232 255
3.45013 182.389 111.271 188 210 255
50.5083 76.5515 90.3804 190 210 255
188.22 10.3493 111.583 236 238 255
93.414 173.565 110.632 226 232 255
158.094 143.567 112.363 198 215 255
118.879 92.8323 106.998 201 217 255
65.3991 74.6003 103.659 226 232 255
144.958 53.3383 111.604 191 211 255
93.4175 173.574 110.641 255 247 238
196.115 79.7349 109.609 192 212 255
42.0646 183.86 114.139 205 220 255
176.779 123.435 110.033 255 227 205
220.084 21.1596 102.305 211 223 255
44.5755 30.5873 112.748 187 209 255
207.481 26.7524 109.167 186 208 255
75.1948 104.294 114.192 221 230 255
85.382 108.771 112.712 197 215 255
40.7737 132.167 110.859 218 227 255
106.804 68.1987 124.276 231 235 255
63.2836 200.373 112.682 239 240 255
122.096 71.0452 123.076 237 239 255
192.075 96.5609 116.185 183 206 255
93.4174 173.574 110.641 193 213 255
55.52 46.0174 102.338 255 253 249
108.022 71.0889 128.233 255 230 209
98.3883 101.936 109.255 255 236 220
73.342 203.858 107.609 189 210 255
106.074 64.8549 113.622 255 250 244
56.5666 108.676 108.561 227 233 255
103.019 159.005 119.58 233 236 255
114.912 64.026 115.513 201 218 255
157.605 123.171 114.659 213 225 255
116.7 117.228 108.998 200 217 255
136.603 199.732 119.518 214 226 255
122.291 80.7642 89.4338 255 249 241
110.396 128.475 114.696 213 225 255
103.249 123.327 102.919 255 253 249
93.7641 173.457 110.906 195 214 255
179.223 125.027 105.372 182 206 255
118.665 85.3198 125.28 217 227 255
169.456 107.643 121.967 213 225 255
87.6594 87.0503 111.389 213 224 255
159.878 96.6473 98.6811 205 220 255
93.4087 173.55 110.615 255 247 238
98.3705 194.295 111.395 205 220 255
98.0705 146.597 108.509 203 218 255
79.288 44.5318 107.041 221 230 255
75.6904 153.754 109.2 234 237 255
85.0916 156.455 104.43 204 219 255
107.082 125.253 108.42 248 245 255
71.1121 61.1503 112.468 198 215 255
61.8511 68.9132 111.832 202 218 255
40.6844 70.8953 105.026 255 217 187
123.313 122.345 107.407 255 202 160
110.223 117.575 108.718 255 249 242
127.964 167.423 114.18 197 215 255
108.73 98.7566 114.118 227 233 255
93.4134 173.564 110.63 211 224 255
135.655 164.764 109.408 187 209 255
168.892 119.128 112.46 193 213 255
57.045 20.567 120.906 203 219 255
46.1584 100.764 138.279 201 217 255
172.519 24.2883 101.972 188 209 255
79.7692 125.981 111.966 244 243 255
8.22517 152.469 109.611 195 214 255
93.4149 173.568 110.634 183 206 255
140.326 119.872 114.133 244 243 255
93.4191 173.578 110.646 255 249 241
120.675 123.01 111.199 217 227 255
93.4237 173.588 110.658 213 225 255
165.677 133.429 113.427 208 222 255
123.702 84.3784 121.999 218 228 255
175.989 106.887 100.603 197 215 255
118.331 99.6645 115.562 227 233 255
109.7 161.284 109.549 198 215 255
117.025 126.656 106.132 255 249 242
114.44 150.777 114.369 192 212 255
100.639 100.278 92.3258 200 217 255
64.0395 114.981 112.024 193 212 255
148.653 94.7184 106.913 215 226 255
126.606 110.906 93.7045 202 218 255
70.4942 146.641 102.018 211 223 255
88.2841 110.929 116.394 237 239 255
89.9463 46.3428 111.426 189 210 255
93.4514 173.297 110.511 197 215 255
197.549 62.9511 111.9 196 215 255
115.531 21.7749 111.041 197 215 255
113.259 135.324 107.437 215 226 255
7.6259 138.975 110.873 184 207 255
93.3989 173.517 110.579 193 213 255
111.048 129.302 114.653 255 18 0
103.224 117.222 116.686 255 215 183
107.138 12.5509 98.1314 190 211 255
111.742 115.036 118.394 255 230 211
146.078 120.319 100.328 194 213 255
148.609 163.133 111.662 201 218 255
110.232 151.827 107.453 192 212 255
114.323 103.892 122.5 243 242 255
86.5892 104.127 114.342 255 246 236
93.3937 173.49 110.55 210 223 255
91.8185 162.157 105.594 255 232 213
115.899 56.3879 119.53 192 212 255
112.821 193.993 109.513 182 205 255
105.709 142.49 113.544 195 214 255
119.068 117.744 130.881 255 146 39
121.508 74.8731 125.795 225 232 255
98.0551 157.954 113.882 226 232 255
103.839 99.551 114.09 251 246 255
151.898 136.584 111.654 216 227 255
143.474 181.887 113.007 181 205 255
97.3573 25.3026 109.009 187 209 255
117.057 118.602 108.619 208 222 255
142.127 173.404 111.474 201 217 255
69.4764 101.614 112.815 238 239 255
108.488 122.706 107.113 255 231 211
221.455 21.881 115.847 190 210 255
125.172 81.4547 123.896 203 219 255
119.596 179.709 110.622 255 250 255
122.127 106.08 111.311 255 229 209
75.124 136.156 111.589 194 213 255
93.4637 173.642 110.687 201 217 255
93.142 91.375 116.059 226 232 255
93.7352 173.343 110.173 200 217 255
199.659 82.8448 115.158 179 203 255
169.118 144.857 109.275 211 224 255
110.295 96.8864 109.226 233 236 255
214.834 36.9533 110.614 180 204 255
93.7925 13.0045 106.236 184 207 255
113.028 112.093 126.856 245 244 255
215.563 93.5448 113.451 190 210 255
107.585 105.488 110.309 255 238 224
125.798 133.969 110.442 255 236 220
97.1946 68.8836 115.033 255 254 250
140.038 168.685 81.8312 189 210 255
160.856 128.202 92.1177 202 218 255
103.804 111.838 97.5492 216 226 255
153.696 104.1 95.7111 248 245 255
92.5419 173.347 110.884 221 230 255
130.927 79.7604 103.165 208 222 255
124.387 117.829 111.776 210 223 255
169.156 132.796 116.044 200 217 255
128.373 15.2754 106.314 191 211 255
107.441 110.502 113.043 203 219 255
60.2067 61.9771 110.342 176 202 255
120.13 109.678 112.441 255 233 216
117.102 129.195 119.705 233 237 255
127.291 127.183 102.98 255 229 208
121.216 122.755 114.696 245 243 255
63.7819 212.036 107.957 185 207 255
42.733 85.8523 105.34 255 251 246
165.526 144.226 105.511 235 238 255
93.4193 173.579 110.646 255 245 235
39.3838 64.5304 112.784 196 214 255
144.673 153.616 106.613 182 206 255
108.69 187.771 112.415 224 231 255
173.551 67.1725 108.905 209 222 255
120.317 181.298 108.646 200 217 255
107.98 158.14 120.29 239 240 255
123.841 207.608 118.001 187 209 255
93.4142 173.566 110.632 199 216 255
111.085 110.875 121.403 255 190 136
113.827 128.171 112.695 227 233 255
129.318 49.6855 114.641 193 213 255
63.6248 109.303 101.816 255 215 183
93.4001 173.52 110.583 210 223 255
104.279 96.9539 124.123 212 224 255
106.96 113.824 106.652 219 228 255
90.2742 165.149 124.551 255 245 236
112.977 99.9 120.197 255 252 247
92.8327 175.235 106.109 255 212 177
159.017 154.355 110.858 211 224 255
6.72353 187.774 110.682 208 222 255
82.9605 130.757 112.49 205 220 255
52.101 104.894 100.923 255 248 240
66.8566 164.771 113.481 255 250 255
122.592 122.892 113.247 255 199 153
128.753 116.065 110.536 255 196 147
163.044 78.1817 110.947 194 213 255
83.4629 183.332 106.669 207 221 255
132.584 85.4569 107.143 240 241 255
52.2539 54.6249 107.203 255 232 213
65.0103 106.848 111.257 222 230 255
93.4157 173.57 110.637 194 213 255
140.715 72.0923 130.172 205 220 255
215.745 51.1065 110.73 174 200 255
107.883 176.192 111.846 205 220 255
159.999 58.7568 113.745 201 217 255
106.975 103.289 118.242 235 238 255
156.423 140.792 110.876 194 213 255
83.2465 87.0488 113.753 216 226 255
115.627 86.1772 121.505 255 250 244
22.3218 52.8021 109.397 185 208 255
118.555 128.077 95.7394 255 217 187
154.063 116.013 107.824 186 208 255
162.844 105.35 116.37 243 242 255
27.5212 148.327 116.294 195 213 255
166.513 146.674 110.823 206 220 255
137.648 76.3054 107.813 255 233 215
93.4163 173.571 110.638 197 215 255
192.928 79.5924 110.635 198 216 255
22.9353 199.014 103.73 190 211 255
84.2775 213.059 123.388 198 216 255
68.7865 85.0816 113.109 255 246 237
118.42 146.075 109.016 246 244 255
99.2747 113.992 108.979 255 251 255
107.712 128.26 101.147 255 219 190
167.97 116.07 114.672 244 243 255
63.8948 105.693 98.9541 255 215 183
118.507 85.9328 109.809 218 228 255
146.572 132.615 113.269 202 218 255
194.974 107.96 122.322 255 251 246
109.287 102.804 105.267 255 252 247
145.512 161.932 111.381 209 222 255
92.1147 70.8097 114.677 233 237 255
93.416 173.571 110.635 250 246 255
53.6757 111.095 116.409 255 204 163
115.387 150.351 111.08 225 232 255
129.386 76.6581 108.665 228 233 255
112.076 102.584 114.626 255 236 220
93.4148 173.567 110.637 189 210 255
223.465 147.569 116.463 186 208 255
49.7811 81.383 96.919 197 215 255
71.3944 17.9588 103.619 187 209 255
115.075 153.544 116.488 255 253 249
93.4156 173.57 110.636 185 207 255
125.917 69.1021 125.474 255 163 79
70.0074 125.972 103.494 241 241 255
78.5641 185.946 112.661 198 215 255
93.4242 173.561 110.538 211 223 255
93.3907 173.472 110.674 196 214 255
41.1507 137.777 114.514 228 233 255
141.702 72.2991 114.745 192 212 255
117.964 179.053 109.932 196 215 255
155.029 152.478 142.28 248 245 255
114.307 112.387 96.1567 255 195 146
95.8764 102.884 119.297 255 219 190
111.184 109.513 111.191 219 228 255
45.5161 58.8898 111.197 209 222 255
139.4 82.1957 104.491 226 233 255
100.805 119.877 107.171 240 240 255
43.6584 60.1641 94.9867 223 230 255
99.812 116.398 111.314 200 217 255
71.0276 96.3052 111.663 230 235 255
99.4047 186.238 107.311 223 231 255
114.003 128.274 105.045 217 227 255
93.4036 173.532 110.596 187 209 255
94.355 55.4813 114.987 254 248 255
166.521 97.9259 99.6269 227 233 255
48.2706 86.0613 114.357 255 210 174
73.0425 48.0353 99.8104 217 227 255
164.509 94.259 123.952 207 221 255
110.623 107.395 117.112 255 184 124
61.8758 65.2516 105.484 189 210 255
127.358 116.67 120.174 255 220 192
99.259 124.457 122.336 233 237 255
93.8869 174.461 111.209 205 220 255
38.7339 43.9872 111.361 202 218 255
113.16 141.692 111.84 255 236 221
113.831 201.704 120.809 193 212 255
96.1298 35.89 111.315 199 216 255
105.571 120.751 105.282 199 216 255
110.149 118.614 117.414 209 222 255
23.8597 69.7969 106.741 204 219 255
68.7214 131.103 101.33 206 221 255
110.721 111.151 112.478 214 225 255
81.9196 197.989 112.482 194 213 255
93.418 173.575 110.643 181 205 255
100.666 116.677 111.224 211 224 255
62.1742 69.4417 119.735 202 218 255
177.042 175.211 112.845 193 212 255
117.4 93.5696 111.041 203 219 255
172.551 25.0271 129.816 217 227 255
105.717 194.997 128.486 184 207 255
125.548 76.1415 124.03 195 214 255
94.6118 174.605 111.11 230 234 255
113.626 128.032 116.804 255 250 244
121.065 93.6675 115.618 204 219 255
104.773 119.749 110.461 199 216 255
107.592 89.4908 98.8874 210 223 255
111.156 30.9373 112.047 185 208 255
93.3953 173.501 110.568 205 220 255
86.432 126.462 112.516 213 225 255
93.4109 173.557 110.622 212 224 255
84.7686 49.8502 108.575 186 208 255
90.1328 89.5078 112.633 232 236 255
83.0043 185.543 111.166 192 212 255
111.382 123.677 102.613 255 225 201
105.309 102.654 110.301 255 254 250
105.185 181.825 87.1523 255 246 237
77.2175 55.5101 118.195 193 212 255
104.013 96.8341 102.4 236 238 255
102.424 200.574 107.211 187 209 255
112.422 113.23 112.21 199 216 255
70.9618 171.202 115.61 201 217 255
121.191 106.997 121.703 236 238 255
128.383 104.794 113.758 255 249 243
140.355 74.1321 108.212 205 220 255
62.5394 131.459 121.885 201 218 255
66.5481 122.313 105.904 255 211 177
74.1321 175.449 93.5064 221 229 255
104.287 160.277 105.197 255 236 220
126.074 91.6315 112.998 235 237 255
108.306 96.4902 111.86 196 214 255
172.829 123.481 105.555 204 219 255
206.308 67.5306 111.936 196 214 255
83.2036 168.809 102.725 255 251 245
157.467 108.743 111.103 255 250 255
82.1528 197.744 111.4 202 218 255
118.421 84.1422 122.597 205 220 255
151.933 142.472 112.777 255 183 121
66.3359 131.097 113.104 214 226 255
87.1326 89.3772 113.904 255 245 235
132.114 33.6517 115.061 200 217 255
179.854 151.388 117.524 189 210 255
44.4976 133.534 109.281 255 244 234
56.9127 205.006 111.147 196 214 255
95.7458 186.139 111.007 227 233 255
198.306 141.969 116.594 189 210 255
54.8505 71.3151 107.346 193 212 255
128.605 120.771 117.536 255 248 240
114.572 81.7387 119.768 255 226 202
29.8968 195.783 110.913 188 209 255
131.893 124.985 109.296 205 220 255
