ply
format ascii 1.0
element vertex 1342
property float x
property float y
property float z
property uchar red
property uchar green
property uchar blue
end_header
58.7663 150.832 116.767 202 218 255
99.1312 135.535 120.944 255 252 247
68.1854 131.686 113.684 207 221 255
161.302 102.422 115.246 255 202 159
196.746 127.507 112.911 195 214 255
182.373 62.945 113.27 214 225 255
49.4682 190.76 114.618 200 217 255
88.2961 62.4752 110.479 220 229 255
63.4771 144.185 111.68 193 212 255
128.36 158.97 107.468 201 217 255
64.2944 16.4236 113.095 182 206 255
136.107 57.398 112.32 224 231 255
74.5342 190.187 109.723 198 216 255
193.793 103.746 111.232 185 208 255
165.724 86.5774 105.822 207 221 255
118.635 130.776 112.67 255 228 206
32.5229 117.031 113.224 205 220 255
6.54853 106.57 113.135 176 202 255
88.3516 95.0156 100.236 255 245 235
103.615 45.7482 116.417 213 224 255
218.989 101.921 113.476 200 217 255
140.735 152.983 103.429 195 214 255
109.206 3.27977 115.041 190 211 255
31.1866 134.724 109.578 214 225 255
138.035 93.4306 125.272 237 239 255
82.952 66.6126 120.631 199 216 255
136.231 94.9093 106.547 255 233 215
35.2347 186.398 111.724 200 217 255
164.208 157.695 117.003 204 219 255
116.239 52.4227 116.799 200 217 255
135.388 51.4942 113.553 203 219 255
96.4931 83.3667 114.739 207 221 255
128.407 4.97867 114.701 182 206 255
87.3448 62.6002 106.92 255 250 255
174.388 148.236 112.702 195 214 255
118.227 119.914 115.551 255 219 191
131.92 76.168 114.119 255 235 219
185.632 48.1679 114.541 197 215 255
46.124 175.954 112.003 190 210 255
126.706 131.567 101.782 248 245 255
27.7257 107.971 110.259 177 202 255
149.4 114.734 115.905 197 215 255
81.618 89.1449 109.698 255 143 31
151.747 74.0972 110.004 205 220 255
162.179 113.984 119.077 204 219 255
35.6175 129.651 111.359 210 223 255
50.9728 143.469 116.651 255 191 139
91.3615 134.989 124.1 255 243 231
104.195 118.594 117.762 255 250 255
163.395 160.79 110.523 208 222 255
97.0857 111.116 121.785 230 235 255
149.919 94.0599 122.673 201 218 255
192.139 127.331 113.974 211 223 255
97.3457 101.438 103.467 222 230 255
192.563 102.128 111.912 202 218 255
70.1209 131.909 122.906 240 241 255
70.7211 85.1619 103.681 219 228 255
124.939 184.62 116.744 203 219 255
123.4 165.966 105.815 208 222 255
117.108 154.189 111.239 211 223 255
38.997 32.0156 110.581 181 205 255
130.626 125.226 107.989 204 219 255
144.403 103.398 119.308 203 219 255
135.113 139.446 103.568 221 230 255
87.632 137.694 110.893 224 231 255
115.487 100.036 106.307 255 245 235
116.979 178.823 112.132 221 229 255
60.5468 191.917 110.838 180 204 255
102.438 170.22 112.959 201 218 255
159.786 179.352 112.475 219 228 255
61.263 58.0727 108.846 205 220 255
124.211 109.597 105.02 252 247 255
101.871 155.498 120.868 194 213 255
186.255 117.999 108.633 194 213 255
78.3718 191.858 114.859 191 211 255
108.888 82.2295 106.599 234 237 255
109.981 95.753 109.766 255 247 238
40.3244 92.6199 114.948 212 224 255
125.932 160.575 119.557 193 213 255
12.1055 124.01 112.609 181 205 255
124.369 71.526 105.343 216 226 255
121.756 102.826 125.543 229 234 255
89.9233 79.4115 123.13 255 247 238
114.134 6.53537 114.281 188 209 255
150.501 123.061 115.663 255 210 174
96.2504 98.4229 112.117 220 229 255
68.7106 118.921 116.103 250 246 255
141.062 81.7208 107.803 236 238 255
103.76 151.711 122.402 185 207 255
125.533 119.023 116.435 239 240 255
78.0351 206.44 114.628 187 209 255
152.476 99.1341 116.569 223 230 255
90.1982 201.512 111.902 192 212 255
122.614 158.275 106.81 195 214 255
72.1164 118.992 115.123 255 224 199
154.122 208.17 113.348 179 203 255
116.809 18.3994 110.56 189 210 255
79.2275 139.393 122.054 255 244 233
115.907 150.566 102.446 255 245 236
143.65 85.854 115.608 255 230 210
141.945 87.3206 123.598 221 229 255
125.927 74.173 104.417 243 242 255
109.864 81.8102 102.528 237 239 255
43.8375 125.236 107.199 255 253 248
91.7734 121.339 103.046 255 250 255
211.128 99.8597 110.126 187 209 255
148.923 150.134 105.647 232 236 255
123.747 126.566 118.826 255 240 226
147.826 101.359 111.831 255 181 118
74.7741 132.512 110.753 191 211 255
100.437 151.3 121.596 239 240 255
80.624 172.184 109.726 229 234 255
115.961 113.297 91.3526 221 230 255
131.206 48.9435 115.684 244 243 255
144.675 155.334 118.933 238 239 255
167.475 145.279 117.974 195 214 255
124.229 153.41 107.316 252 247 255
122.81 20.6232 111.737 208 222 255
67.3592 78.6594 113.585 255 240 228
69.6003 15.3574 114.532 189 210 255
142.624 152.113 119.066 251 246 255
116.168 28.4158 112.408 184 207 255
84.1384 49.4906 112.607 205 220 255
92.6544 151.165 109.894 218 228 255
158.879 83.8205 105.422 242 242 255
100.949 48.9711 109.253 206 221 255
69.2539 29.8374 111.325 193 212 255
101.773 110.288 124.903 216 227 255
130.377 75.5432 109.389 205 220 255
84.9547 126.789 101.838 212 224 255
136.518 127.641 98.8732 255 182 120
71.423 27.6482 111.192 187 209 255
191.708 133.321 110.875 198 215 255
161.991 101.773 104.81 255 246 236
81.2854 110.582 109.514 229 234 255
186.535 67.0577 113.791 187 209 255
157.47 54.2854 109.343 205 220 255
42.6105 167.758 112.644 192 212 255
150.969 69.4372 118.83 189 210 255
202.639 90.8414 113.853 188 210 255
80.326 97.549 120.78 237 239 255
205.814 87.2153 113.931 204 220 255
89.2717 68.7124 119.73 212 224 255
102.1 109.706 116.004 229 234 255
162.174 142.606 117.389 239 240 255
83.3911 85.1674 118.33 216 227 255
175.092 23.5336 113.032 186 208 255
69.0472 100.279 107.758 220 229 255
107.594 123.67 126.017 242 241 255
185.9 133.521 112.142 196 214 255
130.333 108.711 102.678 205 220 255
77.3246 110.498 119.481 228 234 255
171.103 141.287 108.137 239 240 255
113.107 106.619 89.589 192 212 255
149.058 113.43 123.572 240 241 255
111.74 102.347 97.7754 255 225 201
79.1902 64.6188 116.128 250 246 255
106.229 197.118 115.491 187 209 255
46.6737 136.679 113.889 206 220 255
86.9296 81.3933 117.347 214 225 255
213.968 87.4857 110.265 178 203 255
116.705 70.3116 105.487 225 232 255
167.213 151.004 109.579 212 224 255
126.837 60.2214 112.175 213 225 255
76.4431 130.286 113.316 255 250 255
180.006 148.627 109.062 187 209 255
122.587 160.288 116.89 191 211 255
139.092 45.7127 117.914 219 228 255
88.8108 41.7633 114.488 190 210 255
124.266 113.558 101.135 235 238 255
83.6721 73.072 108.507 212 224 255
66.2533 89.6702 106.518 255 245 236
162.777 119.123 103.252 186 208 255
79.8494 132.8 101.622 205 220 255
106.699 124.662 94.6978 255 221 194
64.7276 74.3234 118.663 192 212 255
113.055 57.6297 116.622 199 216 255
53.224 53.4579 109.693 215 226 255
159.094 121.963 111.562 219 228 255
61.8052 205.324 114.593 204 219 255
77.9033 135.208 103.388 255 206 167
107.07 120.06 117.585 255 249 255
42.8838 99.2814 111.586 202 218 255
177.231 154.64 113.43 204 219 255
116.749 106.899 125.281 221 229 255
141.77 72.7831 107.2 213 225 255
139.79 214.213 111.941 181 205 255
127.989 117.914 128.425 255 250 244
128.756 156.465 116.383 215 226 255
41.9491 119.667 112.203 200 217 255
68.6904 124.248 120.123 215 226 255
140.581 140.452 101.653 255 254 251
47.9215 155.546 108.538 188 210 255
53.3877 103.844 113.094 213 225 255
136.25 187.292 114.56 193 213 255
71.1889 94.2985 118.929 214 225 255
107.735 74.1139 107.358 223 230 255
140.687 143.139 102.813 197 215 255
71.7793 80.0428 104.444 224 231 255
165.628 98.9346 112.91 228 234 255
108.173 92.3407 127.846 250 246 255
99.2407 114.562 104.714 208 222 255
108.073 170.864 115.531 200 217 255
158.883 56.2115 108.378 201 218 255
165.559 114.383 105.553 213 225 255
101.979 128.283 106.153 255 198 151
63.129 171.297 110.641 190 210 255
148.598 189.091 110.412 189 210 255
76.5058 166.242 112.187 240 241 255
131.72 95.0814 102.627 255 253 248
103.539 76.295 107.228 225 232 255
138.503 155.992 106.994 215 226 255
75.9172 24.5282 110.167 195 214 255
117.135 122.276 128.055 255 233 215
131.6 72.802 118.387 185 207 255
148.161 33.0236 112.473 214 225 255
41.0571 66.308 114.593 244 243 255
97.8183 31.1683 109.727 199 216 255
136.077 139.701 110.384 210 223 255
83.2353 115.597 104.833 224 231 255
169.685 172.036 111.849 187 209 255
171.077 129.085 113.602 206 220 255
79.8371 166.856 111.632 245 243 255
197.313 135.828 114.432 190 211 255
137.289 98.6381 109.025 255 220 192
117.317 178.089 108.856 203 219 255
72.4358 102.796 115.959 205 220 255
93.4472 25.4446 113.426 194 213 255
88.8814 105.621 118.831 217 227 255
143.793 71.2709 109.721 203 219 255
208.113 73.9085 111.387 195 214 255
183.414 79.3766 114.334 196 214 255
142.087 182.547 115.106 201 217 255
144.231 115.922 120.941 227 233 255
104.123 76.5715 104.906 255 212 178
106.113 56.7906 119.861 199 216 255
87.4967 193.614 112.006 181 205 255
205.865 76.606 111.943 189 210 255
81.0218 78.6694 105.677 221 229 255
84.9013 98.9255 108.669 255 203 161
124.602 92.4703 127.49 220 229 255
78.2245 101.909 110.986 199 216 255
114.996 122.726 134.676 255 226 202
99.2378 91.8701 122.17 209 222 255
210.802 157.006 113.268 186 208 255
92.4446 85.42 107.899 198 216 255
67.5829 77.0465 117.102 212 224 255
118.666 97.9197 124.605 217 227 255
151.721 186.071 112.37 195 214 255
111.226 116.718 133.344 255 249 255
33.6379 182.258 112.68 194 213 255
105.683 67.5681 119.864 204 219 255
54.0754 89.87 112.761 255 240 227
155.848 107.355 109.757 247 245 255
91.6549 177.533 111.269 197 215 255
148.457 71.6587 114.055 248 245 255
89.6516 70.9191 112.049 232 236 255
100.342 131.714 115.338 232 236 255
154.574 126.005 107.346 197 215 255
63.5605 44.8644 113.343 193 212 255
164.779 67.6494 115.744 186 208 255
153.845 156.8 116.354 207 221 255
118.926 48.3243 116.145 193 212 255
145.102 105.047 125.287 255 251 244
67.8087 50.264 116.847 197 215 255
95.6499 160.395 111.436 196 214 255
134.163 56.1987 106.56 212 224 255
152.135 135.379 109.005 197 215 255
139.226 99.2666 119.988 223 231 255
108.346 57.7634 109.062 193 212 255
198.293 90.0266 113.77 191 211 255
123.892 83.0789 119.53 218 228 255
199.936 131.251 113.107 197 215 255
101.185 119.53 98.5946 255 194 144
110.637 121.964 126.261 248 245 255
88.4728 32.5362 110.377 212 224 255
119.704 117.119 101.929 255 199 154
56.5457 110.059 108.101 255 204 164
78.7171 87.2233 101.786 204 220 255
142.229 167.087 114.997 205 220 255
111.429 159.385 119.552 214 225 255
74.9204 95.6958 120.717 217 227 255
112.923 68.7021 117.427 226 232 255
100.993 59.9185 109.314 255 226 203
64.2971 94.189 117.863 241 241 255
87.6093 93.2518 107.782 255 250 244
196.368 98.7079 109.497 204 219 255
69.7666 147.147 106.139 231 235 255
92.8589 104.141 121.771 255 234 216
138.417 40.1745 116.417 255 249 242
137.942 96.401 103.822 239 240 255
91.9419 104.363 101.963 230 235 255
144.773 75.5992 120.066 255 253 249
85.0682 175.21 108.449 194 213 255
68.8871 26.1011 114.563 200 217 255
85.2655 147.494 116.691 255 243 232
166.373 96.3056 106.602 255 250 243
42.3852 81.6682 109.916 194 213 255
183.916 185.216 113.59 183 206 255
58.7581 91.5232 119.519 255 248 240
142.968 167.569 111.744 215 226 255
114.089 102.153 113.129 219 228 255
96.0502 110.853 126.653 234 237 255
133.119 136.005 124 205 220 255
169.584 102.4 105.094 186 208 255
115.339 108.723 96.6896 255 226 203
118.765 54.6987 111.053 255 242 231
101.852 81.5618 103.071 214 225 255
124.513 157.779 108.842 201 218 255
104.618 60.9847 119.343 210 223 255
79.3695 139.67 112.455 206 220 255
179.115 46.6357 113.714 180 204 255
168.351 64.5749 112.438 195 214 255
84.215 86.9252 104.237 255 238 224
170.138 124.057 114.927 225 232 255
205.088 154.638 113.357 182 206 255
126.567 221.642 110.699 182 205 255
219.645 98.186 110.936 183 206 255
170.946 137.042 116.126 202 218 255
6.10807 122.455 111.203 188 210 255
88.5565 124.181 98.8105 255 252 247
101.167 141.464 113.322 236 238 255
80.7575 161.332 113.356 227 233 255
126.211 94.139 108.077 209 222 255
67.3272 161.649 116.304 217 227 255
131.759 108.157 114.451 246 244 255
66.1377 46.3503 112.256 201 218 255
118.515 162.96 117.752 194 213 255
173.314 65.9127 112.859 208 222 255
151.346 59.3208 108.187 219 228 255
132.657 86.9028 100.634 255 254 251
175.9 113.382 110.449 218 228 255
78.8515 86.8637 118.556 212 224 255
122.701 53.6888 119.189 208 222 255
94.3223 121.359 109.302 214 226 255
118.136 26.6918 114.944 201 218 255
148.384 76.8512 104.705 207 221 255
180.368 83.3583 108.981 193 212 255
98.1016 179.787 114.475 202 218 255
146.963 125.186 116.499 255 250 255
200.251 148.456 111.036 185 207 255
184.388 141.793 111.716 186 208 255
95.1024 170.159 109.295 216 227 255
208.395 60.8195 112.279 190 211 255
118.551 116.68 126.852 255 129 0
86.7076 66.447 109.827 187 208 255
122.788 124.35 107.937 255 250 244
131.915 112.242 111.076 217 227 255
112.34 68.504 104.349 255 251 245
14.8751 100.623 111.732 177 202 255
73.3767 110.293 117.055 219 228 255
96.8257 158.521 120.998 212 224 255
177.406 42.2096 114.03 203 218 255
84.2529 114.397 112.709 232 236 255
133.793 56.3582 116.833 209 222 255
68.0139 93.6582 118.861 197 215 255
104.822 39.254 109.776 206 221 255
138.317 117.357 125.57 197 215 255
83.6553 128.357 109.488 225 232 255
161.438 113.293 121.217 241 241 255
83.0149 155.661 116.399 255 251 245
104.523 92.208 122.43 207 221 255
145.926 79.2682 116.628 255 219 190
122.038 63.6729 106.805 213 225 255
180.716 77.0552 115.287 193 213 255
139.93 107.849 108.928 210 223 255
90.1729 170.704 107.025 193 213 255
141.984 106.876 106.895 218 228 255
88.235 15.9482 110.747 208 222 255
65.8513 129.091 120.639 222 230 255
140.796 103.142 104.502 255 234 217
201.192 148.432 113.78 207 221 255
153.106 78.3942 109.416 216 227 255
143.211 158.242 107.591 217 227 255
83.8716 65.1269 113.346 220 229 255
179.869 79.7113 110.337 193 212 255
79.2368 109.872 104.74 230 235 255
144.885 138.245 106.761 195 214 255
155.45 127.823 104.96 255 239 226
79.8233 151.183 114.464 195 214 255
168.34 91.7994 112.621 202 218 255
67.7094 131.335 106.871 210 223 255
61.0541 24.25 113.706 185 207 255
52.3564 148.907 115.377 193 213 255
213.523 122.719 114.834 194 213 255
103.063 84.218 107.148 255 207 169
51.414 75.4632 109.099 200 217 255
179.472 44.4544 112.146 191 211 255
205.455 127.763 111.422 192 212 255
42.4976 170.165 112.565 204 219 255
54.0555 131.398 109.689 195 214 255
87.7224 68.3628 105.767 255 211 176
209.626 71.4558 112.297 188 209 255
67.4483 136.752 120.441 208 222 255
133.712 128.204 114.221 255 249 242
70.3255 145.98 105.947 244 243 255
45.5696 150.368 108.635 194 213 255
132.994 166.389 108.262 196 214 255
125.755 150.796 113.208 202 218 255
211.081 110.552 111.316 198 215 255
200.505 82.0782 111.049 200 217 255
143.617 78.0624 106.929 192 212 255
166.175 172.108 111.238 194 213 255
141.438 140.266 105.729 183 206 255
111.662 162.255 115.468 205 220 255
195.4 122.089 114.601 193 212 255
158.771 33.8843 110.069 186 208 255
117.417 121.358 120.706 255 235 218
32.1316 79.9693 112.777 197 215 255
193.069 170.157 111.63 219 228 255
99.2791 116.651 130.54 255 247 239
207.012 69.119 114.619 199 216 255
176.968 142.701 107.499 210 223 255
92.6621 107.264 125.222 255 249 241
111.786 163.508 112.46 212 224 255
206.772 154.728 114.4 180 204 255
94.6115 117.711 121.34 211 223 255
102.6 78.2032 117.817 200 217 255
95.4727 85.5392 124.568 204 219 255
146.397 191.841 114.843 203 219 255
148.835 51.6861 108.001 192 212 255
82.1353 105.953 103.697 211 223 255
79.1871 145.495 122.758 188 209 255
119.475 28.6299 110.319 184 207 255
119.424 166.935 117.881 255 249 242
103.077 142.949 113.075 255 251 245
78.3421 115.657 102.34 255 229 209
143.411 103.412 105.338 191 211 255
95.5536 114.708 97.7254 255 227 204
73.5534 65.6688 116.318 196 214 255
86.7554 103.346 116.881 241 241 255
31.225 184.5 114.337 194 213 255
96.619 108.504 109.002 255 243 232
79.1683 96.5387 120.923 204 219 255
159.147 158.413 108.338 188 209 255
12.885 71.8322 114.324 186 208 255
107.24 178.028 118.621 246 244 255
144.393 18.9053 113.339 204 219 255
94.4449 139.25 105.797 255 249 242
100.196 112.589 112.303 255 159 70
110.887 12.394 113.242 190 211 255
113.47 154.867 121.773 255 193 143
114.203 102.612 124.8 255 199 154
198.081 52.1117 112.464 181 205 255
56.4546 94.0782 115.31 200 217 255
161.617 100.688 115.284 196 214 255
101.759 101.748 111.312 255 217 187
196.5 82.9842 112.188 192 212 255
173.193 53.7887 115.024 204 219 255
187.465 48.0831 112.969 193 212 255
158.884 111.818 120.152 255 206 167
39.4633 121.471 110.014 237 239 255
133.815 141.467 119.177 209 222 255
133.269 188.266 111.737 197 215 255
88.476 117.372 101.405 229 234 255
162.07 107.117 103.496 188 210 255
182.304 70.0928 110.547 215 226 255
91.2918 46.1562 114.78 255 252 247
121.442 202.452 112.258 201 217 255
119.482 99.9972 100.78 255 249 242
137.48 145.413 116.281 255 201 158
158.857 183.584 112.467 194 213 255
128.012 116.879 108.838 230 235 255
135.212 110.856 118.213 250 246 255
43.9218 87.8436 116.562 200 217 255
135.798 39.2682 108.208 186 208 255
80.4814 80.6649 112.42 221 230 255
186.34 126.075 110.275 193 212 255
88.4668 138.968 114.111 255 220 192
162.911 102.775 110.187 193 212 255
144.857 156.553 110.047 205 220 255
177.515 154.182 111.348 197 215 255
24.3272 114.776 110.81 220 229 255
136.229 78.2393 114.098 252 247 255
138.673 119.969 112.763 211 223 255
62.7304 82.3479 114.826 218 228 255
127.479 105.593 123.801 212 224 255
97.1226 77.9623 105.329 255 228 206
147.776 122.952 116.349 213 225 255
85.209 117.427 118.487 201 217 255
93.5324 44.4656 113.4 244 242 255
156.346 151.803 114.794 255 250 255
124.994 52.7911 114.569 198 216 255
54.267 71.4677 107.305 255 203 161
121.64 41.8988 118.077 182 206 255
108.007 131.466 124.531 197 215 255
100.627 139.805 120.412 213 225 255
72.2098 37.0951 110.18 189 210 255
88.4695 67.78 119.411 255 252 248
83.4495 133.575 123.902 205 220 255
58.4775 87.7348 105.359 204 220 255
149.67 54.3655 107.255 198 216 255
160.78 55.5291 108.881 195 214 255
161.697 59.4123 114.42 205 220 255
39.0241 68.2054 108.841 203 219 255
104.925 112.422 94.252 210 223 255
89.8787 192.799 113.26 188 209 255
27.767 160.469 113.555 196 214 255
167.414 130.358 107.534 230 235 255
108.607 107.883 120.707 213 225 255
72.7615 97.7721 116.472 255 232 214
31.7706 154.38 110.371 184 207 255
32.5388 170.308 113.924 207 221 255
148.046 54.434 113.892 200 217 255
129.645 8.745 111.892 196 214 255
88.896 106.652 101.608 214 225 255
114.028 90.1291 116.202 255 248 241
131.788 126.741 110.068 255 183 123
211.468 68.4915 112.873 189 210 255
82.1889 92.8328 121.215 223 231 255
51.4494 41.0688 110.844 184 207 255
97.2319 137.275 117.967 255 210 175
100.54 70.0463 119.289 240 240 255
16.5237 96.1455 114.061 181 205 255
103.547 90.0559 117.373 255 201 158
98.2252 173.732 108.766 187 209 255
154.751 157.728 116.044 192 212 255
74.7907 83.1669 110.552 232 236 255
74.6637 113.471 108.976 235 237 255
139.383 86.4913 111.552 255 250 243
187.799 149.479 109.636 207 221 255
73.3627 134.721 106.006 216 227 255
120.732 100.37 115.745 255 221 194
22.0634 145.442 110.131 188 209 255
98.65 92.0372 112.48 255 195 146
84.5897 80.1373 116.293 218 228 255
185.615 71.8483 110.51 195 214 255
120.259 155.146 105.835 198 215 255
32.2121 129.538 115.675 198 216 255
186.923 112.314 113.752 223 230 255
176.744 120.197 117.472 212 224 255
164.14 20.6153 111.59 199 216 255
181.774 187.579 113.62 231 235 255
80.1163 126.794 112.119 231 235 255
90.4375 118.239 121.202 255 197 151
183.997 185.311 112.851 195 214 255
145.183 124.204 108.148 255 250 244
146.949 143.732 102.783 227 233 255
139.994 158.422 117.714 255 250 244
183.373 122.056 108.297 202 218 255
174.223 188.558 114.864 199 216 255
108.719 135.041 97.7074 243 242 255
92.5265 185.482 109.203 192 212 255
139.384 104.677 107.316 255 218 189
114.041 81.0844 109.041 255 220 192
144.69 116.402 115.998 226 232 255
122.022 122.283 92.5544 197 215 255
132.216 120.155 127.36 233 237 255
85.3833 162.437 113.202 201 218 255
98.0193 113.512 121.037 255 201 158
102.303 63.2049 117.449 255 242 230
142.264 35.146 111.627 195 214 255
108.687 15.01 113.158 183 206 255
158.426 189.111 110.916 202 218 255
76.206 82.0538 119.029 221 230 255
136.886 35.813 115.955 195 214 255
87.0699 58.0285 117.08 221 229 255
89.8922 53.9026 109.279 202 218 255
152.835 182.421 112.715 192 212 255
94.5551 164.362 108.393 193 212 255
47.7046 166.124 112.244 199 216 255
103.537 104.904 110.309 243 242 255
147.116 59.8105 116.908 205 220 255
123.244 52.1069 116.139 211 224 255
163.488 193.164 112.922 191 211 255
115.426 149.557 118.887 225 232 255
88.4539 74.1911 109.582 239 240 255
134.081 19.8954 114.288 180 204 255
103.981 98.4441 96.8206 197 215 255
103.641 62.8444 114.663 255 246 237
179.458 54.9812 111.178 188 209 255
133.075 98.5763 109.07 234 237 255
85.3416 74.2486 110.838 255 229 209
106.605 150.946 103.338 202 218 255
88.3543 124.988 124.51 248 245 255
80.487 61.2801 106.535 245 243 255
191.507 94.6715 113.135 202 218 255
136.043 160.13 115.985 202 218 255
73.0642 108.009 105.18 255 225 201
111.188 97.4334 113.94 255 222 196
84.3347 56.4948 107.613 198 216 255
101.25 170.106 118.381 246 244 255
34.7138 53.802 109.866 188 209 255
162.618 113.894 106.685 205 220 255
55.3028 91.3315 116.122 209 222 255
94.1112 58.1186 118.687 201 218 255
56.4139 136.235 116.73 249 246 255
54.4861 197.997 114.165 213 225 255
89.1212 129.201 106.23 255 197 150
156.162 90.8199 121.12 197 215 255
107.285 81.3526 104.789 255 203 162
121.955 104.298 109.263 214 225 255
104.143 76.4215 112.089 199 216 255
147.175 77.526 114.176 255 243 232
51.3356 131.93 113.663 198 216 255
217.073 106.45 111.174 182 205 255
82.5985 56.236 110.262 192 212 255
152.168 69.4483 117.43 186 208 255
137.616 125.09 99.4375 206 221 255
98.445 76.8272 115.131 193 213 255
190.956 133.532 113.059 181 205 255
97.1288 170.732 106.283 233 237 255
94.2794 166.968 119.814 191 211 255
98.9928 122.413 102.338 255 201 158
122.958 98.2215 102.52 255 222 195
172.428 156.533 112.435 214 225 255
72.4425 128.713 106.903 255 217 188
71.1386 176.087 108.884 195 214 255
52.3229 109.893 118.015 192 212 255
76.518 121.863 101.762 255 185 125
108.436 122.715 120.855 255 205 165
74.6777 138.647 108.809 255 206 168
25.3089 55.1236 110.865 186 208 255
156.986 126.298 117.172 209 222 255
148.64 99.4959 104.03 209 222 255
84.6492 82.8316 117.259 196 214 255
96.1948 67.7546 104.067 214 225 255
104.588 107.55 91.1815 237 239 255
80.8579 29.2471 113.499 197 215 255
118.837 162.564 115.864 186 208 255
126.806 119.221 94.4555 255 159 71
111.688 95.5935 116.217 255 217 187
161.202 47.8427 109.529 211 223 255
158.058 53.5903 113.33 189 210 255
193.186 138.587 115.432 198 215 255
126.299 159.815 105.929 204 219 255
94.3436 74.9284 122.426 218 228 255
120.075 108.784 89.7716 195 214 255
45.6119 117.199 111.4 193 213 255
107.522 142.408 109.119 255 236 219
37.4999 116.175 112.244 229 234 255
75.9769 81.7245 111.175 209 222 255
109.077 137.191 110.834 255 234 216
105.618 41.5226 117.299 208 221 255
105.067 116.691 122.605 255 225 200
93.4956 68.6034 116.833 199 216 255
121.114 146.265 123.416 209 223 255
137.004 79.1364 113.056 255 247 238
93.1117 143.307 120.859 209 222 255
145.901 149.091 116.86 194 213 255
103.53 147.677 103.446 246 244 255
37.8551 40.2046 110.353 211 223 255
47.5398 32.1387 110.375 220 229 255
99.2078 192.416 110.988 194 213 255
77.9035 183.041 113.859 255 250 255
97.408 72.2371 103.014 190 210 255
108.845 117.443 128.813 240 240 255
53.2572 130.968 107.11 202 218 255
4.74059 130.599 110.791 186 208 255
34.3689 188.723 111.555 179 204 255
46.4882 105.154 115.557 255 250 255
106.355 168.064 116.25 217 227 255
75.9731 74.3136 109.039 206 220 255
129.009 97.3158 106.055 231 235 255
208.621 59.343 110.516 196 214 255
97.91 204.513 111.457 189 210 255
49.5562 36.8253 111.137 192 212 255
64.8866 90.2748 112.743 219 229 255
133.139 150.182 103.541 196 214 255
76.254 117.373 124.462 197 215 255
158.151 19.7393 112.977 189 210 255
171.969 65.6039 110.526 194 213 255
107.632 156.613 104.001 193 213 255
214.627 125.807 111.872 181 205 255
84.096 52.2771 114.508 255 243 232
71.6254 162.096 108.066 210 223 255
113.197 139.466 114.655 215 226 255
184.167 69.5452 113.178 193 212 255
120.12 102.377 126.919 255 204 162
49.8721 28.1139 111.464 180 204 255
138.962 94.1214 112.439 255 250 244
101.151 158.309 115.05 196 214 255
51.5976 150.147 116.865 207 221 255
89.0343 140.259 116.699 212 224 255
99.4866 130.271 117.647 224 231 255
125.388 88.6157 124.19 255 241 229
109.034 85.6512 106.888 255 250 244
138.537 123.735 124.934 255 216 185
133.658 12.0392 111.825 196 214 255
168.255 168.975 111.075 200 217 255
137.798 141.544 102.852 216 227 255
92.1249 177.099 110.043 217 227 255
51.2377 83.4678 117.833 204 219 255
117.969 156.961 122.258 194 213 255
66.98 145.446 111.324 195 214 255
85.4792 160.496 106.518 239 240 255
96.5872 76.6251 102.065 255 238 224
60.5443 199.831 114.975 192 212 255
191.058 107.937 112.496 204 219 255
76.0058 141.537 104.652 255 225 201
87.6201 91.4728 107.156 255 246 237
89.7162 160.638 113.924 255 252 248
111.235 150.383 100.361 255 239 225
114.426 21.921 112.702 195 214 255
176.346 141.738 111.669 249 245 255
99.9752 71.2064 106.567 192 212 255
39.1809 35.8437 113.444 215 226 255
130.731 101.806 118.848 255 231 212
161.785 204.699 112.382 202 218 255
128.118 122.631 98.0154 209 222 255
93.291 90.5267 101.526 228 233 255
30.4773 135.36 111.684 191 211 255
67.4679 90.2513 107.35 214 225 255
150.107 84.6806 120.066 233 237 255
84.0879 125.609 117.667 241 241 255
113.594 132.675 125.046 235 238 255
107.555 142.1 100.69 200 217 255
142.417 119.812 105.065 255 240 227
85.9164 173.957 113.895 193 213 255
171.101 137.226 111.067 203 219 255
151.027 181.633 113.901 199 216 255
80.6248 98.9272 117.411 196 214 255
173.955 38.1073 113.966 203 218 255
151.755 196.747 113.424 188 209 255
153.235 14.0112 112.46 187 208 255
119.956 31.7609 111.677 191 211 255
121.292 61.1692 111.977 196 215 255
135.005 69.3107 109.878 195 214 255
140.982 127.292 116.153 246 244 255
120.178 85.9669 124.563 255 244 234
119.566 100.759 98.6095 247 244 255
168.901 63.079 116.857 198 216 255
46.9415 135.541 114.044 222 230 255
53.1384 85.5523 111.345 210 223 255
169.679 77.0818 109.403 216 226 255
44.5242 159.055 113.251 190 211 255
159.708 119.748 117.962 212 224 255
106.88 102.545 112.708 255 233 215
176.385 124.58 109.642 206 220 255
155.443 134.85 108.616 210 223 255
204.969 135.021 109.988 189 210 255
102.717 48.1005 116.285 243 242 255
107.051 154.601 106.91 245 243 255
85.5955 80.3798 105.72 223 231 255
113.313 99.3499 119.891 255 183 122
139.636 105.221 102.304 216 227 255
111.125 140.128 105.44 232 236 255
92.3623 176.807 110.913 207 221 255
111.946 206.08 111.054 190 211 255
65.0084 106.692 105.898 255 227 205
161.625 199.55 114.562 188 209 255
92.3447 130.481 123.692 194 213 255
26.2219 150.279 111.953 205 220 255
134.469 130.522 123.763 215 226 255
105.978 105.815 101.114 255 179 115
87.5167 132.901 103.52 255 245 236
92.3455 116.544 127.96 205 220 255
178.397 183.788 112.5 187 209 255
124.082 137.447 113.409 255 210 173
178.403 146.054 114.748 219 229 255
73.9083 85.1426 109.896 255 202 158
175.809 56.203 114.92 185 207 255
98.1748 182.952 111.717 204 219 255
109.374 90.1593 120.72 255 214 182
173.727 136.374 110.565 209 222 255
14.5424 109.017 110.616 189 210 255
200.196 46.7102 113.443 203 218 255
51.8363 138.308 117.241 202 218 255
59.8075 54.5293 116.523 187 209 255
120.267 141.792 103.838 209 222 255
58.2468 43.6989 115.757 192 212 255
68.2743 87.7266 112.318 213 225 255
123.74 57.1606 108.11 237 239 255
78.817 86.019 109.928 255 220 192
89.5321 116.939 123.289 255 237 222
212.306 81.9616 111.943 200 217 255
55.2886 200.53 113.788 199 216 255
209.013 80.0982 114.686 197 215 255
149.585 151.49 113.797 196 214 255
150.148 146.571 107.126 212 224 255
121.401 114.151 94.0702 237 238 255
180.907 148.285 116.507 187 209 255
90.6397 123.976 98.7516 255 231 212
147.565 63.0311 108.158 212 224 255
125.135 110.405 97.4766 229 234 255
111.699 108.235 128.179 255 206 166
186.776 44.7305 114.396 189 210 255
109.06 11.6565 111.212 184 207 255
133.711 126.303 97.6925 202 218 255
132.112 104.581 109.627 255 223 197
189.559 112.116 115.34 209 222 255
24.3412 83.185 112.959 192 212 255
130.131 124.988 100.823 255 231 212
169.4 182.227 112.856 191 211 255
66.2584 82.6286 117.395 210 223 255
102.224 107.538 132.51 229 234 255
17.8626 95.7521 112.441 203 219 255
130.766 127.305 107.549 255 208 170
83.2776 185.475 110.735 212 224 255
71.5388 149.588 117.158 213 225 255
191.081 161.576 112.584 190 210 255
169.136 107.825 114.299 213 225 255
76.0955 36.2576 111.463 207 221 255
184.649 136.21 114.465 224 231 255
147.085 109.835 101.016 231 235 255
148.582 80.3168 107.645 222 230 255
56.9084 143.764 114.046 188 209 255
212.258 121.761 112.78 255 230 209
129.987 146.63 107.24 205 220 255
20.1214 161.367 111.932 187 209 255
140.973 41.3694 112.349 187 209 255
59.4711 110.366 118.826 221 229 255
124.696 184.394 111.933 192 212 255
148.842 93.5609 116.791 209 222 255
118.057 142.178 118.47 213 225 255
32.6271 40.8183 112.572 190 210 255
104.455 95.2371 110.211 255 225 202
87.4123 117.18 108.995 255 250 243
88.5609 144.997 118.153 229 234 255
107.81 112.538 136.64 255 208 171
104.642 113.651 121.111 226 233 255
95.4564 135.476 126.201 255 248 240
62.4422 19.5397 112.501 183 206 255
219.605 134.239 113.853 182 206 255
102.854 130.904 120.031 216 227 255
143.768 167.307 111.757 210 223 255
124.934 118.779 119.328 248 245 255
17.4721 149.561 111.15 201 217 255
153.442 145.139 104.616 210 223 255
122.534 105.151 118.873 223 231 255
82.0244 109.559 101.29 255 185 126
110.795 37.0319 113.861 201 217 255
75.5023 63.8394 112.901 200 217 255
13.6037 94.0432 113.923 190 211 255
194.272 80.9394 115.912 185 208 255
112.767 140.168 120.937 255 239 225
67.7355 12.1076 115.088 202 218 255
129.196 107.239 112.828 255 221 194
63.9965 124.831 109.004 213 225 255
109.337 176.837 115.77 191 211 255
123.165 107.771 110.205 242 241 255
186.935 133.531 113.181 206 221 255
86.7351 170.255 110.249 242 241 255
60.9323 192.009 112.103 187 208 255
91.2232 111.579 109.852 251 246 255
118.886 154.459 113.629 215 226 255
123.673 147.719 120.964 208 222 255
129.615 55.9592 111.147 199 216 255
168.594 135.777 113.025 201 217 255
155.972 138.1 114.592 205 220 255
58.2442 64.6285 113.414 199 217 255
19.8049 150.126 114.709 184 207 255
38.238 156.946 115.347 192 212 255
89.6106 164.174 114.365 255 230 209
147.057 147.455 103.672 226 232 255
185.374 145.579 111.744 201 217 255
121.181 166.852 118.039 213 225 255
100.642 168.116 109.685 199 216 255
39.6267 129.581 111.07 211 223 255
172.578 155.458 114.683 198 216 255
126.452 69.1224 103.684 255 245 236
36.1709 190.307 111.36 199 216 255
33.434 80.5599 114.316 209 223 255
42.9195 85.5453 115.904 197 215 255
106.04 71.9348 105.995 216 226 255
175.326 90.5408 116.721 202 218 255
13.5738 77.4362 114.736 190 210 255
185.479 146.772 115.046 193 213 255
40.236 98.4622 113.081 192 212 255
56.4341 101.249 106.944 255 211 176
90.3847 198.372 114.264 214 225 255
113.703 94.7428 101.589 215 226 255
170.714 121.951 114.974 255 253 248
120.883 122.516 92.3786 255 240 227
155.336 51.67 110.029 198 215 255
93.6985 76.9971 119.757 238 239 255
101.811 127.67 99.9494 255 208 171
165.174 182.416 114.86 195 214 255
197.198 164.897 113.869 191 211 255
151.283 148.864 115.432 202 218 255
70.2411 117.764 105.826 201 217 255
139.218 136.24 103.412 226 232 255
166.685 204.373 113.661 195 214 255
122.661 88.0766 127.08 235 238 255
115.497 78.0792 103.521 212 224 255
57.5797 119.782 116.472 229 234 255
113.205 91.2571 119.567 255 242 229
59.1542 107.353 118.896 199 216 255
179.398 176.222 114.966 194 213 255
86.0391 49.7153 115.714 193 212 255
162.576 164.451 110.125 192 212 255
147.478 84.4575 109.504 255 251 246
119.701 121.541 130.523 255 123 0
124.622 173.603 116.048 195 214 255
107.25 139.362 117.187 255 245 236
128.42 126.109 101.625 237 239 255
69.2029 85.0644 104.142 197 215 255
133.17 61.9032 107.462 199 216 255
16.4504 72.1623 114.312 185 207 255
69.6662 136.896 120.922 219 228 255
157.801 108.45 106.247 223 231 255
189.159 131.1 112.713 200 217 255
92.6209 65.8708 109.932 203 219 255
97.3303 55.5501 117.773 210 223 255
73.3268 103.289 105.647 255 254 250
69.7737 27.9585 114.664 186 208 255
89.2498 106.888 107.89 255 241 229
83.477 54.3368 106.371 192 212 255
108.305 141.417 126.758 255 251 255
131.9 153.788 103.289 186 208 255
40.6703 65.1134 110.134 187 208 255
132.3 141.587 107.741 248 245 255
60.0889 111.118 116.478 218 228 255
87.3848 72.8879 118.349 216 227 255
85.8631 134.521 102.649 255 209 172
90.8478 92.843 119.18 245 243 255
120.081 118.009 116.361 255 201 158
88.8255 67.5278 113.093 255 246 237
62.2444 103.895 107.981 233 236 255
91.2942 113.063 121.263 255 251 246
111.294 96.9743 127.598 222 230 255
56.8953 46.0523 112.535 196 215 255
136.861 132.261 114.852 217 227 255
186.331 44.6456 113.987 192 212 255
163.076 104.996 120.242 252 247 255
35.1456 92.3038 112.468 198 216 255
170.513 197.853 114.559 214 225 255
127.538 175.882 114.024 224 231 255
108.771 115.106 94.1117 217 227 255
56.4883 176.919 109.963 216 226 255
61.2803 110.843 121.85 255 235 218
197.111 168.333 112.199 181 205 255
97.0446 119.224 94.2111 255 225 202
81.9332 95.0028 117.037 234 237 255
68.6416 127.621 113.104 255 199 154
85.2301 72.5864 120.942 186 208 255
16.405 87.022 111.914 195 213 255
102.398 151.85 119.387 196 214 255
54.9852 111.932 118.066 198 216 255
149.472 112.705 123.439 222 230 255
138.43 157.571 110.656 211 224 255
119.27 71.4817 116.446 227 233 255
38.2814 159.846 110.235 183 206 255
117.529 47.3653 113.712 190 210 255
15.5307 106.935 114.75 198 216 255
129.686 79.4652 113.023 255 252 247
53.0406 89.9764 118.333 203 219 255
167.81 102.612 110.77 255 242 230
185.425 122.553 108.74 200 217 255
81.3734 175.498 107.598 199 216 255
165.924 98.6726 120.973 231 236 255
84.0115 121.233 117.572 196 214 255
103.991 50.7539 110.1 191 211 255
130.052 64.6397 108.471 197 215 255
146.806 170.896 108.615 198 215 255
176.697 132.656 114.584 233 236 255
168.163 101.271 117.369 228 234 255
118.522 200.499 114.115 193 213 255
80.9032 132.17 120.747 255 250 244
119.187 54.6161 111.752 255 235 218
119.095 93.3923 112.346 255 212 179
90.0192 216.274 111.359 190 211 255
150.35 198.553 110.17 188 210 255
128.339 114.994 117.484 226 232 255
118.761 133.803 105.04 255 235 218
125.198 95.1579 125.177 255 240 227
168.451 137.067 116.706 206 220 255
118.67 144.763 121.864 249 245 255
98.4409 150.435 113.662 238 239 255
194.996 82.4948 113.171 199 216 255
208.377 91.363 113.129 195 214 255
138.106 93.4034 120.453 255 255 251
205.802 136.49 110.618 187 209 255
71.7249 87.036 111.754 214 225 255
55.1651 98.6636 112.136 250 246 255
175.04 98.6382 115.223 253 248 255
44.3487 85.089 110.093 189 210 255
175.816 196.772 111.984 191 211 255
56.378 82.3562 110.77 223 231 255
110.972 138.226 119.687 255 245 235
128.89 171.17 114.508 198 216 255
55.0379 205.456 110.619 203 219 255
99.533 110.186 123.46 255 236 219
190.067 75.7677 110.16 192 212 255
95.2616 132.369 125.308 215 226 255
10.3986 109.926 114.38 189 210 255
82.7302 155.269 116.692 255 254 250
123.607 117.021 101.058 255 246 237
76.2478 138.727 116.315 248 245 255
133.297 99.7753 123.249 255 254 251
113.177 62.4504 118.386 232 236 255
59.5742 75.1942 113.097 225 232 255
102.639 130.362 107.433 255 250 255
168.288 129.65 106.724 211 223 255
124.812 122.978 118.711 255 250 243
143.295 40.8137 112.649 203 219 255
117.152 91.807 117.136 224 231 255
62.5326 127.037 115.845 198 216 255
91.5266 126.982 121.456 214 225 255
171.003 200.667 112.941 190 211 255
147.013 33.9815 112.184 191 211 255
157.712 147.904 117.28 209 223 255
108.212 189.642 109.614 212 224 255
170.499 36.4039 110.627 184 207 255
42.682 101.696 115.875 182 205 255
167.752 120.409 115.984 255 242 229
105.246 122.932 109.047 221 229 255
138.1 180.095 110.748 190 211 255
35.4613 92.0393 109.019 192 212 255
142.308 76.1691 121.06 205 220 255
86.2203 100.38 123.256 255 255 251
101.632 117.044 98.878 199 216 255
156.455 145.827 115.976 213 224 255
108.061 169.223 109.119 234 237 255
108.925 133.711 125.396 196 214 255
115.93 157.01 113.688 250 246 255
69.0799 78.5863 116.223 221 230 255
91.5779 104.21 102.515 255 218 189
142.434 107.006 100.02 199 216 255
155.562 123.424 106.445 214 225 255
94.1313 204.61 112.257 196 214 255
54.3942 104.326 111.478 193 212 255
122.208 124.168 130.831 255 233 215
113.005 68.6635 116.833 255 252 248
208.598 106.042 114.721 189 210 255
122.054 67.7128 107.064 255 212 178
192.41 59.8826 112.703 187 208 255
128.86 106.712 107.852 255 225 202
140.165 119.11 120.991 219 228 255
81.8851 82.6427 114.095 200 217 255
11.8594 138.155 113.737 192 212 255
87.8888 74.2 106.591 255 236 221
76.7168 124.506 103.46 251 246 255
76.8902 68.2894 119.244 217 227 255
45.365 189.12 110.398 199 216 255
43.4501 78.2945 116.128 187 209 255
10.3946 135.108 113.23 187 209 255
36.9091 105.885 111.478 182 205 255
183.179 159.143 110.944 189 210 255
45.1325 124.006 109.57 247 244 255
80.4222 140.581 121.87 255 229 207
101.082 111.636 93.0229 196 214 255
108.853 127.924 100.22 224 231 255
128.896 186.36 108.304 211 223 255
178.871 27.8032 114.41 180 204 255
69.1395 135.802 108.916 191 211 255
71.5817 105.591 114.06 254 248 255
129.836 110.68 97.1123 204 220 255
90.2049 88.8062 105.882 230 234 255
135.851 48.4113 115.826 198 215 255
162.579 142.893 113.449 201 217 255
75.059 61.7687 116.285 196 214 255
130.913 92.9522 115.412 222 230 255
131.407 30.2007 115.765 181 205 255
164.436 46.0953 112.847 189 210 255
83.6712 120.781 116.141 255 227 205
134.351 72.1122 105.506 222 230 255
68.0952 75.1251 113.405 214 225 255
105.315 104.826 121.508 202 218 255
75.3741 52.9587 116.987 190 210 255
88.3556 146.782 105.15 235 238 255
169.394 198.277 114.086 204 219 255
143.528 92.6382 100.828 255 220 193
118.101 184.753 108.705 198 216 255
150.891 130.362 109.004 219 228 255
121.041 161.338 119.214 255 240 227
22.1971 97.3976 115.017 208 222 255
49.4399 89.3199 108.157 196 214 255
110.79 146.088 125.303 235 238 255
60.3986 99.7672 109.56 208 222 255
146.51 54.0846 117.438 195 214 255
115.609 152.886 116.512 254 248 255
167.796 106.126 116.427 201 217 255
97.1748 98.5567 99.052 253 247 255
123.645 122.861 99.4222 255 250 244
145.537 122.223 103.008 209 222 255
124.311 152.435 120.747 216 227 255
164.374 125.816 117.212 255 228 206
134.978 123.45 104.9 255 231 211
126.285 49.2458 110.353 194 213 255
106.551 123.312 103.835 255 200 156
184.557 122.895 113.334 199 216 255
165.576 149.919 111.192 187 208 255
105.601 112.63 129.259 255 204 164
95.0308 88.625 98.9522 235 237 255
167.353 80.3726 116.151 205 220 255
190.329 46.3002 112.119 197 215 255
152.87 139.349 113.931 255 253 249
172.782 34.1127 112.254 186 208 255
96.8364 144.475 104.029 247 244 255
76.3675 133.293 122.467 224 231 255
174.105 101.343 113.707 205 220 255
195.107 72.7245 111.107 190 211 255
33.692 93.114 110.588 193 212 255
100.022 83.6292 115.991 201 217 255
85.3956 165.248 109.225 197 215 255
146.053 112.063 101.101 241 241 255
60.1579 87.313 105.596 205 220 255
91.3816 174.862 116.571 191 211 255
168.651 96.4015 114.296 203 219 255
135.13 129.742 106.085 251 247 255
103.917 132.813 96.9766 255 202 160
81.4052 142.61 122.552 192 212 255
109.082 167.849 114.042 255 252 247
148.494 119.307 118.199 201 218 255
70.6358 87.826 106.091 200 217 255
113.788 35.4558 113.867 197 215 255
65.4909 121.541 109.704 206 220 255
134.007 22.3303 112.847 190 211 255
100.486 145.709 113.376 247 245 255
100.718 132.28 122.301 255 195 146
111.193 116.016 90.0653 210 223 255
94.6925 162.037 106.844 211 223 255
66.0937 167.757 108.434 190 211 255
119.634 72.1591 122.563 227 233 255
120.817 40.1209 115.153 182 205 255
116.262 65.5084 108.602 255 254 250
133.944 123.966 105.456 255 187 131
144.47 184.483 115.828 201 217 255
126.946 96.8915 112 205 220 255
74.6892 141.545 109.575 255 231 211
133.179 52.6658 114.961 186 208 255
145.868 132.796 114.921 255 247 239
178.123 69.4889 109.06 199 216 255
177.655 123.573 115.481 211 223 255
62.0434 124.653 118.719 210 223 255
151.22 51.5149 116.856 203 219 255
60.4016 66.7208 111.153 196 214 255
184.502 181.827 114.522 196 214 255
106.772 75.937 111.819 255 243 232
66.5157 86.7152 107.83 201 217 255
140.415 54.9346 118.105 211 224 255
174.375 100.042 114.785 209 222 255
166.646 119.147 115.389 214 225 255
165.593 83.2775 113.92 185 207 255
112.13 135.401 116.832 255 216 184
58.1748 64.9057 114.511 188 210 255
153.7 169.85 114.245 193 212 255
101.651 67.652 104.892 205 220 255
129.354 99.645 106.669 204 219 255
149.139 128.175 102.486 255 215 183
111.621 124.56 133.908 235 238 255
104.353 180.543 109.523 219 228 255
169.764 38.0383 113.002 183 206 255
85.7323 85.0212 117.151 255 253 248
137.839 109.136 113.843 255 238 224
60.9093 83.2075 112.81 255 252 247
137.939 10.4986 114.085 184 207 255
94.0199 55.5102 117.183 197 215 255
147.099 126.134 112.183 200 217 255
140.456 71.5472 115.433 216 226 255
153.165 128.584 109.573 203 219 255
88.3061 91.1635 118.707 211 224 255
173.857 59.0932 111.708 193 213 255
218.672 132.294 112.584 185 207 255
116.885 126.909 101.8 255 216 184
87.5197 96.735 107.684 236 238 255
140.606 108.275 124.883 207 221 255
155.089 83.3303 111.683 255 213 179
197.422 77.8433 114.819 192 212 255
135.419 92.3714 107.605 212 224 255
114.75 116.59 100.96 232 236 255
111.634 97.5068 101.299 255 217 186
165.319 69.5036 107.259 218 228 255
102.211 103.18 116.932 255 225 201
9.62276 90.0078 113.265 184 207 255
155.482 117.496 109.862 203 218 255
125.764 85.4765 107.139 255 245 235
88.5243 98.3957 114.295 212 224 255
127.073 124.923 122.439 196 214 255
60.0078 108.391 116.496 255 248 240
165.7 208.466 113.252 186 208 255
150.202 24.7505 110.809 183 206 255
57.8212 90.0888 109.137 201 217 255
128.57 100.12 119.203 255 249 242
122.887 151.872 122.829 237 239 255
108.92 167.399 112.392 209 222 255
138.116 87.464 103.847 210 223 255
143.611 98.3703 123.899 203 219 255
40.9709 55.7648 112.085 180 205 255
47.4984 131.115 112.7 217 227 255
149.425 124.632 101.813 239 240 255
132.428 113.103 120.833 255 239 224
127.676 116.55 111.129 255 162 78
151.534 151.541 116.369 206 220 255
96.0833 126.198 111.025 255 227 205
177.862 110.858 106.838 188 210 255
74.7261 109.882 120.685 211 223 255
143.042 177.02 109.719 217 227 255
214.913 121.54 111.031 195 214 255
24.1744 72.4757 111.582 185 208 255
137.803 99.9031 110.372 255 202 160
55.4902 105.809 105.174 206 220 255
148.872 153.75 108.894 255 249 243
104.264 106.933 110.028 228 234 255
146.182 155.729 111.143 200 217 255
83.7285 6.87322 112.11 190 211 255
112.419 83.8247 113.569 204 219 255
103.545 47.6795 108.484 203 219 255
121.437 101.676 128.845 255 251 245
129.244 204.06 111.634 189 210 255
152.081 136.458 120.908 214 225 255
128.253 97.3982 121.008 255 237 222
53.6101 91.2518 113.758 199 216 255
13.8053 149.335 112.802 194 213 255
81.0826 159.213 106.236 255 249 255
37.9773 35.0995 112.448 193 212 255
120.392 165.077 111.589 255 228 206
114.798 57.2626 109.102 199 216 255
168.324 164.893 117.097 198 215 255
114.56 131.077 123.719 255 253 249
174.427 53.3678 114.072 207 221 255
34.4862 149.098 112.715 184 207 255
126.278 98.3677 100.068 255 238 224
200.351 133.467 110.116 177 202 255
134.538 136.519 111.882 201 217 255
160.758 92.0508 118.962 242 242 255
122.513 177.811 114.079 195 214 255
191.13 187.898 114.678 183 206 255
116.511 116.436 127.674 211 224 255
149.37 163.1 115.687 216 226 255
20.8875 121.191 111.529 182 205 255
91.4695 98.6919 104.818 242 242 255
67.3735 112.042 121.405 210 223 255
118.31 129.391 95.1102 255 241 229
93.7025 107.543 101.867 255 242 231
139.657 207.572 110.467 183 206 255
83.5563 151.562 121.819 218 228 255
118.432 120.621 125.597 254 248 255
77.2254 130.927 107.495 239 240 255
85.7517 130.219 104.673 214 226 255
100.547 75.6331 102.097 219 228 255
80.2957 143.422 108.355 222 230 255
136.149 121.64 125.477 255 196 148
86.3836 60.7708 107.975 188 209 255
129.206 120.619 105.62 255 238 224
82.999 153.613 114.462 255 213 181
163.709 104.235 106.291 203 218 255
50.9417 108.237 109.141 187 209 255
97.9003 183.6 108.569 223 231 255
85.8654 136.319 116.614 224 231 255
90.2163 98.4369 123.692 215 226 255
114.916 94.544 116.687 210 223 255
85.3622 86.9763 113.784 212 224 255
186.088 192.127 111.791 177 202 255
149.092 91.7978 111.287 221 229 255
128.061 123.626 126.931 255 246 236
87.1857 92.0322 115.91 209 223 255
115.737 136.137 113.404 209 223 255
155.756 158.149 112.541 255 253 249
166.582 79.4873 110.02 205 220 255
145.97 121.537 102.501 213 225 255
132.615 121.06 123.038 255 246 237
108.754 103.216 108.165 255 223 198
196.262 52.4474 110.361 190 210 255
110.142 157.925 104.554 255 250 244
109.618 87.5884 119.598 255 244 234
178.37 66.1704 115.409 193 212 255
42.9353 39.4158 113.027 209 222 255
210.789 88.3993 114.101 187 209 255
152.727 87.5224 105.2 195 214 255
99.6985 117.712 92.1094 228 233 255
52.4117 189.376 111.877 187 209 255
79.3508 150.912 115.027 237 239 255
116.133 102.045 115.418 255 225 201
55.6887 172.309 109.575 255 251 246
161.462 142.095 107.923 201 217 255
117.75 82.0989 119.123 240 241 255
119.805 168.072 109.799 202 218 255
77.4241 52.3954 114.423 208 222 255
50.2121 141.059 114.636 252 247 255
102.801 144.789 106.586 243 242 255
41.6061 31.6169 113.619 175 201 255
203.843 133.371 114.674 204 219 255
133.024 99.7445 106.182 255 187 131
170.083 33.1642 113.966 188 210 255
30.444 84.327 112.205 225 232 255
163.726 81.1116 115.451 198 216 255
111.267 214.794 114.551 203 219 255
117.586 103.285 91.9291 231 235 255
126.496 70.414 108.575 255 227 205
187.763 132.694 109.571 201 217 255
149.57 107.297 106.125 255 196 148
141.782 18.6643 111.416 204 219 255
92.8672 21.4285 112.323 205 220 255
101.711 140.545 120.315 255 220 192
68.5362 108.238 122.383 202 218 255
30.4491 56.8952 115.066 187 209 255
187.21 87.8053 112.125 212 224 255
128.62 181.471 115.952 215 226 255
160.975 134.028 110.89 223 231 255
113.247 160.889 103.314 247 244 255
81.3648 183.496 116.471 214 225 255
190.804 93.3321 112.472 212 224 255
11.45 137.944 113.184 187 209 255
84.005 145.64 114.726 209 222 255
155.051 76.2228 109.749 211 224 255
125.075 43.1856 116.804 198 216 255
140.532 138.553 107.132 225 232 255
52.4087 112.839 118.556 189 210 255
187.409 128.154 115.339 187 209 255
112.081 161.689 111.089 194 213 255
59.0773 199.059 112.841 181 205 255
100.539 135.168 109.389 225 232 255
73.9383 146.945 116.154 255 244 234
131.496 96.2567 98.1344 246 244 255
155 82.3671 115.816 231 235 255
35.4898 97.4206 115.326 198 215 255
177.139 151.784 114.171 198 215 255
125.35 92.1388 98.9212 255 252 246
73.1318 106.365 119.493 200 217 255
203.631 75.3209 114.969 190 211 255
104.511 101.913 116.277 218 228 255
72.3283 47.8637 114.608 190 211 255
120.901 129.927 127.968 255 239 225
118.367 129.767 121.784 255 225 201
74.6356 138.537 119.161 201 217 255
128.633 48.7422 108.57 199 216 255
101.611 121.167 123.318 255 211 175
107.302 116.99 124.234 211 224 255
192.956 183.693 112.927 199 216 255
180.641 82.5993 112.498 255 249 242
109.901 147.922 124.02 248 245 255
123.654 125.174 118.916 255 243 232
45.1849 57.8254 109.059 209 222 255
160.33 192.425 112.306 187 209 255
85.0192 60.1901 106.682 255 252 246
18.9724 62.353 110.024 199 216 255
154.598 165.23 108.093 201 217 255
87.5844 117.576 119.503 212 224 255
64.1616 138.152 112.959 185 207 255
48.0971 59.1574 110.649 255 253 248
78.2071 103.203 120.263 243 242 255
97.6562 124.495 101.593 224 231 255
127.599 16.9105 110.69 186 208 255
5.51845 101.011 114.354 192 212 255
47.856 166.13 111.896 200 217 255
80.1886 84.3742 116.273 255 253 248
114.963 204.597 114.895 188 209 255
67.5127 102.905 112.762 211 223 255
192.755 174.429 114.475 185 207 255
102.175 163.749 116.415 200 217 255
8.03695 91.2251 111.865 186 208 255
73.7581 123.282 103.836 255 251 246
107.618 137.816 109.869 255 249 255
62.0954 123.629 108.778 206 221 255
104.276 121.648 130.207 255 231 212
112.594 152.885 118.684 234 237 255
112.395 150.225 108.753 255 230 210
113.49 130.324 98.5336 255 233 215
188.986 44.6699 114.396 180 204 255
76.8601 174.81 112.431 229 234 255
