ply
format ascii 1.0
element vertex 1341
property float x
property float y
property float z
property uchar red
property uchar green
property uchar blue
end_header
93.1229 173.887 111.269 195 214 255
144.331 79.5088 110.219 237 239 255
148.379 89.7672 123.691 249 245 255
95.1455 108.36 114.232 255 237 222
119.917 115.037 101.84 255 242 230
115.567 109.507 111.97 230 234 255
111.73 109.184 108.1 255 229 207
81.6215 150.486 116.824 243 242 255
135.406 72.1501 129.431 205 220 255
108.685 112.051 114.291 223 231 255
50.8773 174.016 112.946 197 215 255
121.186 94.0632 112.814 252 247 255
100.036 111.444 110.97 211 224 255
120.401 59.0052 117.635 202 218 255
116.82 139.899 107.188 227 233 255
105.134 80.3962 111.652 253 248 255
209.491 112.496 113.532 190 210 255
53.3537 31.1424 107.133 190 211 255
119.556 73.3078 115.204 255 241 228
99.2794 61.9057 109.993 198 216 255
90.3453 165.078 110.93 187 209 255
100.174 219.771 126.797 223 231 255
92.9479 173.577 111.49 197 215 255
93.1749 173.804 111.388 225 232 255
154.029 69.9641 104.658 219 228 255
83.9832 43.5808 111.027 199 216 255
73.0415 154.017 101.837 255 248 240
151.114 157.993 112.911 230 234 255
106.415 151.619 104.539 255 248 240
68.0583 74.9753 111.132 217 227 255
93.1059 173.613 111.411 199 216 255
117.719 100.923 122.706 255 180 116
158.764 88.3307 115.344 208 222 255
145.549 42.367 117.991 191 211 255
76.4562 123.699 116.785 255 250 255
107.984 65.1295 114.204 193 212 255
128.552 57.5941 114.382 205 220 255
103.653 85.2267 113.058 255 187 130
139.858 107.53 109.871 255 246 237
188.426 189.186 114.826 195 214 255
86.0029 123.702 114.993 219 228 255
118.655 79.6759 109.205 217 227 255
2.45014 137.951 115.556 204 219 255
144.898 66.693 115.538 208 222 255
109.607 156.668 105.54 220 229 255
92.9631 174.328 111.501 237 239 255
115.08 119.071 118.239 255 202 160
112.209 118.14 114.822 203 218 255
109.556 104.477 106.167 255 251 245
147.18 168.994 111.005 187 209 255
49.5466 210.266 109.068 181 205 255
93.1637 173.777 111.368 237 239 255
185.003 71.4056 107.058 192 212 255
93.6659 167.806 111.149 196 214 255
160.433 54.2836 117.57 208 222 255
26.8594 109.672 112.197 217 227 255
40.0804 81.2048 113.087 186 208 255
13.1164 180.031 112.29 198 216 255
117.143 114.304 114.994 219 228 255
114.955 136.915 109.183 232 236 255
52.8359 73.1054 113.181 199 216 255
191.035 109.995 111.141 184 207 255
96.5862 173.315 108.408 236 238 255
104.459 109.455 118.534 255 228 205
101.355 148.571 111.875 200 217 255
93.1748 173.786 111.374 205 220 255
110.115 113.075 111.959 255 191 138
142.54 80.9847 106.078 197 215 255
224.39 132.681 116.543 194 213 255
77.1512 131.513 113.057 201 217 255
82.053 95.5743 111.327 255 235 218
93.1475 173.708 111.397 210 223 255
155.646 96.0498 104.942 205 220 255
118.783 106.092 113.29 223 231 255
126.303 44.9976 116.451 214 225 255
136.066 144.942 111.216 198 216 255
111.753 105.789 104.834 255 240 227
116.539 125.758 114.272 255 246 238
141.632 48.6665 112.552 198 215 255
93.1683 173.759 111.385 199 216 255
91.5531 174.728 113.244 203 219 255
155.543 35.5069 109.308 182 206 255
32.4776 206.461 106.925 188 209 255
110.025 104.338 104.981 255 253 249
104.586 127.761 112.771 204 219 255
107.072 122.305 112.577 199 216 255
115.795 149.668 116.038 207 221 255
131.161 18.2625 113.871 194 213 255
119.416 113.409 105.291 255 207 168
79.3467 82.6833 110.623 205 220 255
116.107 48.7745 116.326 188 209 255
179.55 138.196 112.037 193 212 255
134.544 78.0145 119.938 255 254 250
154.767 56.3577 110.552 196 214 255
195.067 60.4253 111.669 206 220 255
41.2066 211.877 101.259 188 209 255
111.012 92.3748 118.869 232 236 255
124.738 78.118 112.296 255 240 227
72.9524 37.4008 95.4598 186 208 255
70.0094 54.2442 114.234 192 212 255
8.00879 78.7391 110.207 182 206 255
93.1643 173.748 111.388 233 236 255
68.8418 43.2852 113.97 192 212 255
96.3707 136.658 115.63 239 240 255
87.803 128.005 112.776 223 231 255
93.1877 173.82 111.357 195 214 255
4.16462 83.9578 116.816 191 211 255
121.052 84.8804 121.803 207 221 255
113.866 84.2987 112.644 255 253 249
117.993 119.275 103.608 255 253 248
160.098 79.1413 111.179 202 218 255
84.7475 114.298 111.988 231 236 255
155.694 120.417 112.331 255 242 230
103.04 105.029 110.413 250 246 255
94.5621 152.208 110.029 203 219 255
112.891 115.785 116.254 255 223 198
93.0901 173.574 111.398 255 249 242
173.553 123.153 107.531 216 226 255
135.086 74.3272 128.562 255 252 248
124.143 78.9546 112.154 240 241 255
201.24 161.881 110.559 190 211 255
106.502 110.207 121.504 255 157 65
61.582 86.848 98.9251 217 227 255
86.4412 126.241 114.385 221 230 255
108.972 111.01 114.367 199 216 255
77.51 199.484 113.699 212 224 255
93.1666 173.754 111.386 229 234 255
141.297 74.5435 120.876 246 244 255
130.869 103.161 109.343 255 250 243
115.146 117.97 117.79 255 207 169
94.9307 151.754 109.036 187 209 255
157.609 104.165 110.935 196 214 255
63.6832 36.8285 111.141 205 220 255
123.16 113.639 112.967 239 240 255
108.961 93.9907 112.568 255 228 206
192.703 77.0008 111.63 194 213 255
97.6782 113.268 115.148 222 230 255
90.6529 180.655 111.06 222 230 255
0.987076 160.405 111.831 189 210 255
102.331 81.6589 109.643 237 239 255
22.804 173.589 109.661 194 213 255
130.49 37.5874 115.017 203 219 255
106.706 107.406 117.778 243 242 255
113.658 116.469 109.453 222 230 255
129.051 45.117 114.304 200 217 255
107.577 116.926 111.26 231 235 255
123.18 124.514 108.669 219 228 255
118.258 132.377 106.65 185 208 255
98.019 131.74 111.735 255 217 187
93.1561 173.818 111.347 210 223 255
140.985 137.054 109.885 255 232 212
121.614 145.204 110.013 255 240 227
129.255 161.987 111.078 249 246 255
37.3984 68.3437 113.313 190 211 255
66.5585 133.456 110.105 255 249 242
156.131 95.5209 106.593 178 203 255
169.691 121.099 94.8973 215 226 255
83.4689 65.3786 114.673 192 212 255
164.023 104.772 128.07 213 225 255
191.509 110.183 116.217 189 210 255
123.189 98.4336 109.296 255 243 232
174.446 16.6498 96.2361 196 214 255
116.895 89.5021 110.48 247 244 255
158.044 111.162 115.502 199 216 255
123.398 77.3342 108.872 255 239 225
92.1477 151.051 111.76 252 247 255
161.967 141.537 103.483 184 207 255
183.328 62.462 112.723 184 207 255
110.317 86.0665 122.804 234 237 255
209.083 166.292 112.422 182 205 255
137.842 76.991 119.038 189 210 255
147.514 161.593 112.439 198 216 255
76.6239 34.0928 111.83 199 216 255
162.698 95.857 106.233 213 225 255
56.8423 63.0632 106.263 255 232 213
93.1705 173.766 111.382 208 222 255
75.6325 204.251 111.966 192 212 255
93.4068 173.552 111.301 201 217 255
107.336 156.81 107.431 209 222 255
77.7663 36.8234 111.365 196 214 255
83.678 149.695 112.701 197 215 255
80.5617 94.9831 115.878 207 221 255
89.1479 151.952 109.579 214 225 255
87.425 95.0634 111.476 211 224 255
157.621 35.9522 111.052 213 225 255
115.397 83.652 113.36 240 240 255
112.769 24.6116 114.847 219 228 255
103.747 154.824 114.354 217 227 255
88.895 105.702 111.448 211 224 255
115.18 92.2988 114.158 255 250 244
161.317 67.3892 115.045 204 219 255
93.0303 173.027 111.488 206 221 255
147.276 74.4277 127.24 218 228 255
79.1609 154.549 111.979 190 211 255
106.291 159.222 106.534 247 245 255
103.494 178.818 86.6696 184 207 255
102.043 141.327 114.549 255 242 230
155.779 118.117 104.298 211 224 255
23.6171 99.4817 113.067 189 210 255
85.2843 49.4339 114.374 213 225 255
130.133 142.637 111.622 198 216 255
142.918 55.84 113.423 210 223 255
93.1621 173.743 111.39 189 210 255
128.059 49.4348 116.669 203 219 255
146.49 160.929 110.787 198 215 255
45.9525 119.709 111.369 202 218 255
204.36 23.0982 105.875 183 206 255
89.8328 42.3551 111.047 186 208 255
180.873 16.182 110.613 203 219 255
112.694 101.437 112.523 255 229 209
111.937 174.764 110.898 206 221 255
121.008 171.515 111.104 186 208 255
117.279 143.479 117.305 231 235 255
103.546 80.6334 112.123 230 235 255
64.8567 34.1619 111.354 190 211 255
103.199 95.0342 116.106 255 250 244
60.5022 148.162 110.798 203 219 255
138.559 117.573 111.653 206 221 255
60.2263 173.699 116.554 217 227 255
140.171 58.7849 114.84 184 207 255
117.972 72.8554 114.324 210 223 255
83.8712 137.423 111.66 255 230 210
136.889 74.8859 121.541 205 220 255
146.325 137.796 102.813 187 209 255
171.29 166.515 114.411 196 214 255
190.817 174.311 109.87 197 215 255
193.228 71.2408 107.914 189 210 255
79.1025 103.147 126.567 212 224 255
111.425 106.273 113.837 255 216 185
70.4043 127.641 114.466 207 221 255
63.6521 112.603 114.473 255 237 222
117.337 128.922 113.334 238 239 255
158.962 135.232 114.499 210 223 255
97.4726 175.943 108.16 246 244 255
112.323 106.645 113.427 223 231 255
153.528 156.866 92.2217 210 223 255
147.697 122.979 110.564 242 242 255
150.944 170.586 112.159 195 214 255
156.406 92.8818 106.066 199 216 255
119.337 86.5873 113.75 203 219 255
154.899 176.656 126.221 211 223 255
152.169 106.302 111.073 255 248 241
114.555 105.442 111.694 255 220 192
133.774 185.675 113.524 195 214 255
95.0865 159.869 114.517 198 216 255
114.972 117.804 116.425 255 246 237
162.234 164.632 122.97 220 229 255
62.7437 170.869 109.784 187 209 255
69.0471 64.318 113.157 221 229 255
164.631 20.2363 111.338 191 211 255
100.567 119.122 112.48 221 230 255
72.9 60.9905 115.389 247 244 255
137.111 174.985 112.667 255 251 255
93.0109 173.209 111.279 255 41 0
114.778 103.223 112.381 208 222 255
60.4728 113.863 117.897 206 221 255
108.287 60.2142 112.514 223 230 255
140.142 68.9247 113.343 204 220 255
137.57 120.016 144.538 219 228 255
155.449 101.596 112.129 197 215 255
116.875 125.017 108.445 243 242 255
160.41 171.776 110.254 215 226 255
66.7253 117.208 110.996 188 209 255
94.0112 173.584 110.942 245 243 255
166.395 151.229 101.122 191 211 255
110.202 61.6555 115.103 210 223 255
100.743 56.7749 116.216 193 212 255
155.279 89.9477 110.987 200 217 255
59.6252 143.239 109.856 185 207 255
14.6392 186.79 96.861 192 212 255
77.9885 31.0178 106.524 253 248 255
87.9558 144.246 113.284 193 213 255
188.404 82.6445 111.968 198 215 255
150.449 91.2736 113.316 201 217 255
117.421 185.178 109.257 198 215 255
36.6532 186.058 114.903 187 208 255
107.195 122.965 105.764 255 253 248
116.916 114.271 118.998 210 223 255
19.3087 183.477 112.221 218 228 255
93.1752 173.78 111.378 206 221 255
50.6439 195.692 106.28 187 208 255
147.27 173.361 111.459 193 213 255
102.097 123.249 113.171 255 242 230
159.207 127.227 113.157 217 227 255
99.81 32.8525 110.678 248 245 255
131.483 131.117 113.49 255 210 174
92.8741 174.334 111.114 229 234 255
62.3154 211.719 110.731 184 207 255
209.913 27.6365 113.783 189 210 255
93.1508 173.768 111.366 187 209 255
113.086 100.498 112.443 201 217 255
42.6322 183.334 110.795 183 206 255
92.8293 173.486 111.551 211 224 255
93.1692 173.761 111.384 229 234 255
26.4559 145.304 113.657 193 213 255
124.483 109.555 110.977 206 220 255
17.0424 185.281 112.838 178 203 255
97.3884 134.548 114.583 231 235 255
105.831 107.122 112.954 226 232 255
186.821 176.801 113.431 206 220 255
29.2593 183.456 112.615 179 204 255
118.334 118.069 99.3012 255 240 227
106.801 161.779 105.686 255 231 211
132.562 73.958 111.548 206 220 255
110.725 122.206 101.668 255 254 250
102.817 108.292 113.441 255 239 225
73.1317 76.0794 115.247 177 203 255
210.514 23.0809 112.783 201 218 255
119.381 119.981 112.986 255 244 234
153.37 85.9353 108.449 188 210 255
159.554 168.197 107.094 209 222 255
126.795 111.642 113.599 255 244 233
100.583 169.201 115.136 214 226 255
150.737 114.944 109.277 255 214 181
144.648 110.526 113.398 255 246 238
93.1735 173.775 111.378 255 218 189
97.3948 61.5888 110.915 195 214 255
115.645 116.382 106.27 230 235 255
97.6213 89.7173 115.359 213 225 255
117.172 127.217 113.397 232 236 255
69.982 143.455 121.983 210 223 255
126.291 102.242 113.578 210 223 255
187.956 126.717 106.354 210 223 255
162.177 106.772 112.259 240 241 255
118.969 73.7508 128.09 190 211 255
106.292 140.408 112.32 217 227 255
63.3258 123.907 111.592 210 223 255
111.34 116.695 123.804 222 230 255
109.926 113.985 106.922 255 235 218
93.173 173.773 111.38 212 224 255
221.586 92.6423 111.414 195 214 255
190.045 42.8197 111.515 184 207 255
50.6261 95.4502 121.714 231 235 255
192.332 155.045 113.004 189 210 255
44.461 90.0384 108.068 218 228 255
57.6477 195.65 112.988 192 212 255
93.1441 173.678 111.382 192 212 255
64.2223 63.0058 118.752 186 208 255
105.555 106.358 112.047 255 240 227
133.256 121.645 111.62 255 251 245
92.9609 173.821 111.248 233 237 255
128.347 58.5502 112.788 197 215 255
83.8735 108.573 111.243 255 213 180
112.553 111.157 112.247 255 240 227
56.7619 104.141 111.332 218 227 255
17.7026 185.875 113.304 182 205 255
126.99 68.7221 122.064 196 215 255
8.97707 88.1482 116.858 199 216 255
198.724 121.801 113.769 192 212 255
130.215 153.25 111.39 199 216 255
93.1547 173.726 111.395 205 220 255
51.6208 163.268 109.231 196 214 255
89.9092 173.145 112.381 205 220 255
93.1674 173.756 111.386 197 215 255
110.29 117.009 105.889 220 229 255
106.531 110.511 111.748 206 220 255
52.9853 91.4177 115.111 223 231 255
118.681 124.247 114.656 200 217 255
105.011 200.395 114.245 193 213 255
187.435 138.153 91.5813 232 236 255
56.1344 151.225 111.138 206 220 255
162.318 105.049 110.862 192 212 255
109.497 121.429 107.23 213 224 255
54.4614 35.99 108.265 198 215 255
107.925 27.2646 107.496 200 217 255
119.5 138.961 115.021 255 246 238
155.735 1.2078 116.929 201 218 255
55.319 168.811 113.96 222 230 255
113.255 108.051 107.539 217 227 255
152.508 142.627 113.093 255 217 187
165.479 157.876 110.041 200 217 255
25.6318 42.794 108.981 203 219 255
97.7433 83.403 111.866 237 239 255
54.2055 70.8359 112.563 213 224 255
111.55 174.695 111.288 190 210 255
165.181 103.365 115.01 194 213 255
84.8061 172.571 112.855 192 212 255
74.008 136.794 111.301 192 212 255
96.5935 161.72 108.81 255 246 237
112.817 10.6303 116.815 188 209 255
18.1885 90.4785 114.939 198 216 255
54.7675 84.7599 120.951 213 225 255
154.767 92.9494 106.304 202 218 255
101.472 106.761 114.141 255 238 224
31.5456 47.9484 116.289 181 205 255
116.564 117.83 116.139 205 220 255
145.751 170.75 109.794 192 212 255
146.769 173.067 111.736 219 228 255
114.973 121.108 109.859 255 234 217
84.4001 56.5932 109.055 210 223 255
127.93 73.7256 121.245 229 234 255
101.229 71.1254 113.436 255 196 148
109.958 103.008 103.413 182 206 255
117.584 116.149 101.655 255 239 226
93.0673 173.578 111.423 219 228 255
99.656 56.6044 112 227 233 255
114.144 118.501 114.198 209 222 255
109.064 87.7047 112.911 255 232 214
66.4673 59.4891 106.072 189 210 255
114.28 119.701 118.753 221 229 255
78.3481 176.64 106.946 210 223 255
128.905 142.345 101.711 202 218 255
63.5735 131.435 106.632 255 207 169
123.813 107.13 111.227 255 218 189
117.826 114.53 103.806 246 244 255
118.747 177.461 111.538 194 213 255
35.6634 142.24 115.648 204 219 255
104.326 197.073 116.086 190 210 255
93.7547 173.524 110.851 229 234 255
54.4373 66.2012 111.726 193 212 255
95.6273 94.1564 115.857 255 241 229
144.19 123.143 109.509 220 229 255
77.8473 64.1319 121.712 194 213 255
199.666 97.4334 117.303 196 214 255
109.964 23.7588 119.06 186 208 255
138.938 157.989 112.688 215 226 255
20.6054 66.8175 111.101 194 213 255
92.7109 173.477 111.754 213 225 255
32.3376 138.049 114.381 198 216 255
171.281 118.064 115.309 203 219 255
116.797 119.734 110.939 255 198 153
106.048 80.0595 97.5934 255 250 243
205.996 127.643 111.383 183 206 255
93.1732 173.775 111.379 205 220 255
110.631 110.266 106.417 255 246 237
77.5218 139.908 114.931 202 218 255
26.155 59.3474 115.62 216 226 255
115.13 104.314 115.625 238 239 255
63.354 40.3103 120.609 218 228 255
61.4961 58.0735 111.783 221 230 255
121.294 145.217 112.603 212 224 255
152.283 91.4048 116.614 194 213 255
116.681 178.702 110.717 206 220 255
75.0829 24.9932 103.422 194 213 255
135.843 15.3509 108.627 194 213 255
166.082 118.489 120.388 211 223 255
45.7108 207.911 109.349 180 204 255
142.204 115.45 111.183 203 219 255
104.823 156.247 99.8144 255 252 246
84.8578 135.387 113.793 255 250 244
52.1425 99.6571 103.121 255 249 242
150.899 127.727 112.984 220 229 255
187.889 59.1754 107.525 198 215 255
63.8346 162.469 108.442 208 222 255
106.803 161.639 120.634 255 210 173
76.4592 111.623 115.295 217 227 255
93.1727 173.772 111.379 217 227 255
113.908 184.648 121.62 182 205 255
146.736 131.982 111.401 231 235 255
46.5971 35.5007 153.253 183 206 255
85.5696 58.7474 114.293 195 214 255
126.92 75.0606 120.07 202 218 255
161.148 91.5792 113.802 198 215 255
154.72 88.1235 118.296 200 217 255
79.4052 208.647 115.412 196 214 255
94.1617 31.1346 112.255 201 217 255
57.8248 171.281 113.339 204 219 255
105.93 104.26 110.644 255 112 0
93.9027 212.795 115.205 189 210 255
87.5806 130.036 114.429 197 215 255
135.297 14.4916 110.933 218 227 255
123.583 76.4348 114.944 207 221 255
107.83 117.097 122.331 255 243 232
131.416 108.779 113.762 249 245 255
179.82 110.075 100.167 255 248 241
93.162 173.743 111.39 255 239 225
170.572 18.5871 106.534 184 207 255
93.1664 173.818 111.573 255 205 165
137.745 173.404 111.908 201 217 255
166.516 105.454 114.016 255 180 116
93.1741 173.776 111.378 255 253 248
145.718 199.179 120.889 181 205 255
111.75 110.282 111.167 255 216 185
43.3204 114.712 113.418 204 219 255
66.4474 213.822 111.482 193 213 255
167.128 189.548 116.378 191 211 255
147.83 169.054 110.475 219 228 255
117.095 114.366 122.251 255 254 249
166.805 127.274 126.76 207 221 255
56.9381 63.1782 110.372 189 210 255
69.1241 82.7595 115.944 255 240 227
57.2375 62.4635 119.295 200 217 255
94.6081 174.205 111.85 239 240 255
112.812 83.8589 113.343 255 222 196
126.735 41.6922 110.862 199 216 255
86.1483 152.59 111.011 221 230 255
108.814 199.513 108.416 182 206 255
77.0874 120.643 111.428 203 218 255
50.7098 103.396 109.118 211 223 255
65.0006 110.683 109.112 255 251 244
130.028 106.693 108.708 185 208 255
116.422 112.015 100.851 255 164 82
104.035 117.616 110.316 255 236 221
192.36 147.691 115.931 197 215 255
109.721 160.835 109.129 206 221 255
103.976 113.166 115.106 255 221 195
166.527 131.751 129.141 218 228 255
93.173 173.787 111.366 247 245 255
108.126 115.902 116.82 255 202 159
157.559 94.5418 105.01 199 216 255
75.8207 87.7155 113.235 209 222 255
47.9772 100.151 106.763 203 219 255
80.0473 110.047 118.263 255 151 52
93.1232 173.833 111.406 198 216 255
131.694 65.9423 119.417 244 242 255
84.8692 144.852 136.007 245 243 255
109.723 119.272 117.791 206 221 255
111.33 118.844 107.615 221 229 255
93.1771 173.798 111.362 236 238 255
94.1022 175.799 110.587 220 229 255
64.8541 46.8661 112.476 192 212 255
106.075 151.669 98.0532 220 229 255
148.053 99.6146 111.97 202 218 255
90.9619 79.6063 63.3981 233 236 255
67.3245 69.2111 113.133 189 210 255
110.397 107.871 114.076 242 241 255
107.252 147.703 108.064 189 210 255
106.912 122.249 112.303 255 254 251
159.445 95.8439 106.318 205 220 255
104.093 104.62 110.21 239 240 255
120.703 55.6275 116.031 203 219 255
93.1846 173.807 111.385 237 239 255
81.0173 13.9559 101.263 197 215 255
114.088 121.586 106.975 255 227 205
213.334 101.46 114.514 185 207 255
111.32 107.394 111.989 255 210 175
184.947 171.379 109.199 184 207 255
165.318 112.311 106.692 195 214 255
177.576 93.4604 112.765 203 219 255
108.943 84.6342 112.572 255 252 248
93.8933 173.98 111.617 231 235 255
164.392 145.484 114.355 202 218 255
100.601 62.699 112.894 192 212 255
102.356 106.985 113.421 255 226 204
103.866 116.671 108.735 255 250 243
93.1705 173.819 111.299 204 219 255
177.513 13.3879 113.267 194 213 255
69.0749 126.647 117.376 204 219 255
85.4411 145.64 108.667 192 212 255
106.565 122.95 108.13 255 220 192
117.084 79.6123 118.246 211 224 255
81.4048 104.965 109.704 247 244 255
128.983 133.152 110.846 255 239 226
124.893 200.071 102.555 178 203 255
113.095 119.115 111.461 209 223 255
101.519 116.561 109.907 200 217 255
72.5997 145.037 115.972 184 207 255
35.5866 102.283 114.039 238 240 255
107.398 107.989 114.155 255 229 208
87.7204 24.2854 109.02 255 250 243
52.6876 88.6161 109.455 209 222 255
111.108 119.571 113.495 255 248 240
93.185 173.796 111.388 196 214 255
114.653 119.13 115.099 227 233 255
158.246 10.0311 108.316 190 210 255
94.9679 154.857 111.925 206 220 255
92.8899 173.273 111.33 196 215 255
139.672 35.2399 113.324 206 220 255
82.1103 179.568 98.5342 211 223 255
114.476 154.411 109.398 217 227 255
162.13 179.49 114.522 188 209 255
92.6577 32.9017 109.315 201 217 255
144.392 130.056 112.675 208 222 255
222.616 107.848 109.872 185 208 255
80.2016 97.6185 116.044 255 210 174
123.761 139.88 114.959 209 222 255
130.919 118.728 111.765 255 249 255
114.123 106.116 114.233 255 252 247
71.1783 201.71 111.213 187 208 255
205.859 164.043 111.014 187 209 255
174.423 79.5311 111.354 201 217 255
120.06 1.5011 94.7737 191 211 255
110.097 39.2846 113.188 205 220 255
109.634 122.707 113.184 255 253 249
137.557 8.33272 106.594 211 223 255
105.965 168.091 118.041 193 212 255
154.72 163.964 110.857 201 218 255
73.8034 168.472 111.346 189 210 255
128.726 93.7673 115.901 212 224 255
111.432 125.671 105.124 255 254 251
88.9699 105.11 112.591 226 232 255
109.962 198.244 112.491 185 207 255
34.2183 90.6837 113.544 208 222 255
51.0089 72.8638 75.5111 207 221 255
187.049 92.2107 109.251 198 215 255
50.4586 175.049 113.917 195 214 255
115.092 108.905 111.157 225 232 255
11.6856 143.15 114.406 191 212 255
158.552 96.8928 114.148 216 226 255
102.727 111.096 110.482 255 238 224
8.27846 166.796 109.91 192 212 255
59.7724 119.683 103.165 201 217 255
29.0914 161.633 112.101 207 221 255
93.1234 171.222 116.505 233 236 255
151.774 136.419 115.639 253 248 255
93.1715 173.768 111.382 209 222 255
35.623 99.3641 114.752 255 250 255
93.1344 173.746 111.29 231 235 255
166.866 133.16 103.546 213 225 255
0.668751 88.2819 117.413 190 211 255
115.007 107.766 115.452 255 200 155
116.821 119.57 104.264 255 168 91
135.561 72.1111 112.504 222 230 255
76.3198 85.8493 111.795 208 222 255
93.1706 173.765 111.382 255 252 247
119.897 99.5763 113.763 255 187 130
107.426 115.219 114.592 255 164 82
138.838 71.4022 109.671 207 221 255
108.204 120.432 114.01 221 230 255
106.579 119.272 114.648 219 228 255
103.429 48.7717 115.688 197 215 255
172.918 143.912 105.154 205 220 255
111.501 113.309 111.265 240 240 255
153.848 87.9075 106.03 211 224 255
93.1749 173.786 111.373 201 218 255
169.922 124.649 115.55 217 227 255
52.6727 81.3882 111.378 191 211 255
76.6959 137.705 106.909 193 212 255
205.885 43.1587 112.552 177 203 255
81.7279 59.9821 111.036 249 246 255
135.765 40.0053 114.437 198 216 255
86.5264 166.379 117.546 255 247 238
93.1656 173.779 111.313 198 215 255
165.67 55.3531 110.341 202 218 255
92.6384 173.421 112.01 202 218 255
73.4697 99.4136 115.869 222 230 255
117.642 112.211 112.209 213 225 255
39.4458 69.0206 110.535 200 217 255
121.236 154.481 112.079 214 225 255
86.0546 91.5279 110.468 216 227 255
51.6008 82.0867 109.175 196 214 255
121.94 196.248 111.951 193 212 255
82.0602 42.7249 97.25 192 212 255
114.727 115.194 109.771 255 231 212
87.5272 65.421 117.07 217 227 255
204.624 163.548 114.23 200 217 255
93.1669 173.755 111.386 212 224 255
110.436 125.325 112.2 222 230 255
55.2502 66.0517 106.755 217 227 255
68.686 134.151 122.127 188 209 255
111.664 121.908 113.475 255 231 212
150.689 138.359 113.86 187 209 255
48.8212 54.2702 109.137 190 211 255
92.7682 114.468 111.979 219 228 255
110.081 119.949 113.022 255 251 244
104.649 112.798 118.06 223 231 255
27.5572 184.172 112.644 236 238 255
66.6727 105.14 111.783 255 249 242
77.1603 181.13 115.877 190 210 255
76.1903 114.135 115.554 240 240 255
120.415 25.9214 113.598 196 214 255
217.749 86.8581 117.284 212 224 255
69.6961 137.272 111.544 189 210 255
117.833 94.9579 123.002 223 231 255
2.29526 139.273 107.68 185 207 255
131.692 78.8328 112.195 255 247 238
80.2888 107.571 112.117 232 236 255
32.433 82.0261 115.332 194 213 255
52.4431 73.7178 108.651 182 206 255
120.296 92.8887 113.576 255 211 177
145.41 146.262 108.591 206 221 255
95.4921 116.064 113.759 251 247 255
63.3419 164.106 113.671 191 211 255
70.9728 30.3708 113.902 192 212 255
132.671 40.0141 109.903 201 218 255
73.4517 137.019 112.1 201 217 255
101.723 69.4864 112.117 248 245 255
114.317 117.178 112.023 200 217 255
93.1506 173.721 111.398 197 215 255
122.291 75.6648 117.316 221 230 255
115.941 121.823 108.467 255 248 241
108.981 81.9083 101.604 201 217 255
93.1282 179.365 104.977 204 219 255
88.1647 45.4365 108.9 192 212 255
113.503 63.1626 117.448 187 209 255
153.68 111.631 110.3 205 220 255
67.8582 157.271 110.693 199 216 255
123.504 21.5685 108.573 208 222 255
114.18 69.5934 113.25 191 211 255
116.245 135.867 106.574 255 231 212
64.4762 153.65 111.195 199 216 255
93.0718 173.575 111.405 255 255 252
84.6419 106.568 109.598 197 215 255
114.677 154.328 113.305 235 238 255
116.055 118.595 118.764 255 191 139
145.35 80.4637 108.654 255 249 255
93.1618 173.742 111.39 213 225 255
99.6821 163.956 110.21 201 218 255
97.0208 171.957 114.246 208 222 255
51.4145 98.3502 119.482 207 221 255
63.6613 121.316 113.454 255 248 241
115.434 118.526 110.944 255 216 185
35.1567 179.279 111.161 190 211 255
148.358 89.7046 119.387 203 218 255
86.0586 72.3951 109.612 216 226 255
99.1461 151.506 112.014 255 248 240
93.1896 173.837 111.313 222 230 255
77.3046 21.7337 121.062 254 248 255
65.9545 196.059 111.915 187 209 255
24.9965 183.324 110.24 193 213 255
158.491 103.119 115.565 219 228 255
174.932 154.095 94.5297 242 242 255
93.2867 173.463 110.197 188 210 255
95.0497 135.705 111.312 222 230 255
11.3695 142.935 111.946 198 216 255
81.2175 160.892 108.834 248 245 255
218.509 131.595 109.99 179 204 255
173.696 19.687 110.588 194 213 255
93.1703 173.765 111.383 214 225 255
45.8443 104.361 95.5286 212 224 255
93.1693 173.761 111.384 187 209 255
133.763 196.183 111.623 188 209 255
136.01 82.1855 113.121 225 232 255
93.1025 174.005 111.361 255 212 177
93.1737 173.758 111.374 202 218 255
93.1378 173.692 111.404 237 238 255
155.576 80.8185 101.075 203 218 255
155.233 80.7309 113.037 194 213 255
93.1666 173.754 111.386 185 208 255
86.5977 106.352 112.567 242 242 255
93.1723 173.772 111.379 192 212 255
89.1891 136.44 109.61 255 242 230
153.426 165.407 111.07 200 217 255
108.274 110.846 112.933 237 239 255
64.5861 131.942 107.774 245 243 255
127.297 92.2542 86.8181 255 215 182
103.142 87.0211 118.665 255 252 248
157.877 110.22 108.77 189 210 255
103.922 109.477 109.857 221 229 255
75.8163 220.256 118.261 189 210 255
134.106 182.985 114.58 188 210 255
158.636 176.737 114.476 209 223 255
105.254 153.729 105.333 255 238 223
109.557 123.365 113.041 255 223 197
137.119 137.096 113.052 210 223 255
127.499 88.4155 114.045 255 217 187
104.851 171.237 108.92 192 212 255
77.0421 91.3685 108.508 214 225 255
111.624 114.365 115.489 255 231 211
66.5372 38.5922 98.2458 227 233 255
153.443 148.036 113.597 235 238 255
88.7713 117.548 114.241 213 225 255
146.877 101.045 112.243 206 220 255
178.77 75.3669 114.668 224 231 255
115.113 124.165 109.863 255 247 238
107.066 157.238 106.191 255 239 225
117.288 87.6604 125.703 216 227 255
141.943 76.5099 119.755 199 216 255
131.496 168 114.373 179 203 255
132.746 141.627 112.355 255 181 119
85.9613 170.33 113.36 190 211 255
81.9758 155.701 124.425 221 230 255
224.669 45.9079 108.448 181 205 255
53.8406 92.1326 102.638 224 231 255
104.535 123.513 109.389 255 252 247
105.989 122.283 110.732 207 221 255
52.9622 81.0834 114.046 217 227 255
93.1679 173.758 111.385 241 241 255
138.176 166.851 110.764 220 229 255
153.791 59.7093 111.483 182 206 255
122.166 76.4943 111.378 255 226 203
122.108 172.484 102.825 196 215 255
114.962 83.6909 112.439 255 248 240
205.936 132.484 110.789 192 212 255
173.327 42.3067 107.345 199 216 255
151.463 144.125 114.028 206 221 255
103.902 116.464 116.861 255 95 0
121.205 83.6053 111.376 209 222 255
120.178 119.901 111.22 241 241 255
92.5381 153.865 118.185 193 213 255
163.822 87.3336 110.774 189 210 255
102.324 110.511 112.685 219 228 255
135.43 170.175 110.744 191 211 255
157.71 73.4762 113.37 185 207 255
84.1316 156.729 123.295 199 216 255
94.9351 79.1536 112.226 255 223 198
165.571 116.182 112.242 189 210 255
163.125 155.109 106.905 198 216 255
110.251 112.18 110.654 255 226 203
118.537 168.237 108.93 218 228 255
50.268 139.356 117.596 212 224 255
124.93 79.91 113.094 225 232 255
21.2348 91.5048 109.713 191 211 255
141.128 103.262 115.239 213 225 255
75.3639 223.264 115.445 184 207 255
163.495 10.9119 110.477 188 209 255
45.9564 115.137 125.59 255 223 197
108.379 118.887 114.645 215 226 255
192.028 80.2819 108.607 204 219 255
107.577 156.084 102.886 206 221 255
164.09 121.244 118.688 195 214 255
109.425 165.456 113.802 205 220 255
97.4721 120.695 111.09 255 194 145
149.754 180.173 114.341 188 210 255
128.52 221.493 125.931 210 223 255
117.363 96.6852 112.606 228 234 255
152.554 26.4181 114.205 186 208 255
70.3535 134.266 113.777 255 230 210
105.347 165.243 112.711 239 240 255
65.7216 84.3451 112.107 213 225 255
102.136 178.702 118.527 216 227 255
93.1834 173.8 111.369 192 212 255
51.838 62.5592 110.214 203 219 255
104.645 52.622 106.696 221 230 255
50.2849 54.0648 127.863 221 229 255
87.4853 133.147 108.662 255 247 238
110.97 108.014 114.216 248 245 255
54.4933 97.6039 124.379 204 220 255
101.591 166.299 123.503 204 219 255
84.8355 118.361 111.14 227 233 255
107.544 21.1404 112.912 202 218 255
102.403 94.4636 117.808 255 235 219
109.137 104.594 102.525 236 238 255
64.7491 36.589 135.8 189 210 255
130.106 74.0957 114.136 229 234 255
105.143 116.842 113.256 209 222 255
163.415 143.075 113.051 207 221 255
217.923 146.367 115.541 193 213 255
195.063 74.0044 108.385 205 220 255
197.371 76.8819 112.1 200 217 255
90.5768 38.729 113.778 192 212 255
42.5484 108.407 109.813 222 230 255
79.0702 141.265 118.255 204 219 255
111.313 139.085 113.499 255 249 242
93.1396 173.697 111.4 203 219 255
131.515 88.9492 112.226 231 235 255
77.4063 198.582 111.836 205 220 255
112.178 93.5656 111.009 217 227 255
93.1242 174.162 111.526 227 233 255
58.7759 71.0171 110.579 188 209 255
109.582 55.014 112.713 201 217 255
14.994 132.578 106.475 201 217 255
88.2143 153.453 111.776 255 224 199
1.34505 118.5 112.999 184 207 255
166.382 149.573 125.3 191 212 255
66.9873 90.988 117.48 191 211 255
93.1525 173.66 111.432 187 209 255
140.77 18.3977 111.764 191 212 255
89.9017 93.3256 112.026 244 243 255
137.507 69.6231 116.614 198 216 255
105.44 115.24 115.821 255 238 223
78.8946 75.942 168.029 255 170 94
77.9668 117.318 117.194 255 255 252
115.263 110.471 113.415 208 222 255
174.862 95.961 107.035 201 217 255
160.851 117.22 111.638 204 219 255
147.607 106.507 113.429 255 233 215
86.7995 7.94537 146.789 180 204 255
124.253 78.4985 117.418 255 250 243
119.721 85.5992 104.05 253 248 255
138.582 39.0961 114.683 194 213 255
115.913 114.25 110.665 255 137 14
112.137 153.663 113.745 230 235 255
131.833 162.927 117.321 193 212 255
122.162 197.346 88.7866 200 217 255
118.966 17.4453 98.9147 195 213 255
59.7727 107.359 121.078 213 225 255
115.412 116.621 111.829 255 194 145
142.366 191.356 110.787 177 202 255
114.761 173.593 110.383 191 211 255
113.811 119.384 106.731 200 217 255
164.066 121.401 111.51 237 239 255
92.2506 106.451 108.695 243 242 255
62.6625 156.954 110.039 192 212 255
118.415 86.6576 116.83 216 227 255
115.383 117.89 111.322 255 247 239
159.293 169.238 115.291 183 206 255
63.3609 110.788 114.372 204 220 255
139.501 181.819 112.034 188 209 255
118.577 131.415 107.659 255 215 184
104.214 156.683 111.271 245 244 255
106.261 104.699 113.156 226 233 255
5.82484 197.477 111.069 206 220 255
144.436 36.0944 115.407 197 215 255
107.005 166.261 114.001 255 252 247
117.348 130.348 114.738 255 232 214
91.1187 134.22 113.452 255 224 199
63.1868 137.251 122.919 192 212 255
115.165 66.4198 115.29 196 215 255
67.6303 138.752 121.17 197 215 255
137.589 109.682 113.89 189 210 255
79.9334 208.945 121.888 200 217 255
115.411 116.307 111.483 255 249 243
123.826 26.0113 113.306 197 215 255
108.692 178.702 76.2055 193 213 255
165.613 43.8791 111.792 196 214 255
85.1484 27.1594 110.244 184 207 255
96.6168 88.5548 110.813 225 232 255
67.2132 206.421 112.305 189 210 255
147.376 143.749 113.103 221 229 255
112.121 125.469 104.238 246 244 255
114.611 91.6674 114.529 238 239 255
145.64 102.142 113.593 221 229 255
165.978 167.567 110.792 190 210 255
112.615 121.2 107.609 255 251 245
93.163 173.745 111.389 221 230 255
123.713 63.5617 118.445 208 222 255
106.215 114.631 120.653 229 234 255
93.1668 173.755 111.386 204 219 255
178.359 130.292 125.977 205 220 255
117.508 119.328 105.069 255 212 178
93.7224 174.758 110.958 192 212 255
109.256 100.876 104.408 255 234 217
105.215 122.103 110.86 211 224 255
43.0629 115.686 118.284 251 247 255
100.743 65.6938 112.175 205 220 255
189.416 173.397 112.061 183 206 255
69.2868 97.4231 110.859 224 231 255
94.6482 134.986 113.166 209 222 255
65.2839 157.276 113.473 216 227 255
68.6353 129.647 111.428 232 236 255
78.4541 140.075 118.772 191 211 255
164.522 7.50886 111.858 197 215 255
111.897 63.5281 115.095 206 220 255
93.0698 173.62 111.44 196 214 255
113.95 119.907 107.854 218 228 255
92.9312 141.963 113.292 222 230 255
20.153 77.822 113.154 197 215 255
122.469 78.7107 110.729 200 217 255
146.753 107.188 114.075 250 246 255
107.997 110.399 119.085 255 220 192
107.671 31.44 112.271 185 208 255
105.923 14.2111 115.042 188 209 255
93.2192 173.897 111.429 192 212 255
141.178 88.0537 113.445 191 212 255
79.1488 96.4629 110.466 255 232 213
105.871 167.109 118.053 250 246 255
105.856 103.304 114.487 255 235 218
120.526 169.406 111.51 192 212 255
98.2675 153.134 137.866 211 224 255
93.8088 175.906 111.623 211 224 255
102.69 109.607 112.28 255 252 246
110.504 122.046 108.692 255 247 239
133.342 84.0179 113.221 219 229 255
88.11 125.149 114.395 202 218 255
116.621 117.6 117.454 255 251 245
194.325 32.0285 112.367 179 204 255
93.176 173.789 111.373 208 221 255
174.855 128.366 97.5046 191 211 255
93.8616 174.549 112.805 192 212 255
169.542 179.982 114.574 185 207 255
93.1018 173.611 111.527 204 219 255
132.732 79.1121 113.606 213 225 255
155.457 89.0445 104.823 237 239 255
142.667 75.5022 126.195 235 238 255
92.8287 173.157 111.999 255 228 206
91.267 185.794 108.836 255 228 206
93.5057 174.557 111.17 212 224 255
130.061 108.46 115.619 255 252 246
111.033 114.438 112.607 255 249 242
96.653 161.42 123.868 211 224 255
55.4765 198.215 109.358 200 217 255
105.873 106.314 113.207 255 159 71
85.3306 154.708 111.98 209 222 255
109.911 130.135 111.798 224 231 255
93.1518 173.719 111.396 215 226 255
102.379 1.0922 110.827 191 211 255
82.4767 197.876 110.853 190 211 255
118.974 136.545 117.709 255 246 236
147.706 33.9994 114.384 200 217 255
93.1721 173.839 111.31 193 213 255
126.446 76.484 121.762 221 229 255
138.224 60.9939 112.106 221 229 255
168.386 131.486 104.102 209 222 255
167.67 123.116 104.983 255 244 233
116.103 115.808 110.342 217 227 255
53.2794 91.3957 122.278 189 210 255
119.105 115.851 116.952 255 206 168
106.389 118.789 119.059 255 252 247
110.222 124.832 116.023 255 229 208
57.1264 117.28 123.467 206 220 255
140.587 114.026 115.451 208 222 255
68.8283 155.653 110.877 213 225 255
74.1057 82.9702 110.145 255 233 215
118.39 132.565 108.859 235 237 255
93.5406 174.139 111.251 255 245 236
96.3601 144.072 112.794 206 220 255
84.1864 99.3777 109.218 255 246 237
112.312 115.873 115.199 215 226 255
165.156 134.709 105.212 205 220 255
108.4 126.207 117.534 218 227 255
64.335 161.918 114.213 197 215 255
114.272 83.3703 108.491 217 227 255
147.604 149.51 112.072 211 223 255
130.571 92.4904 119.902 255 252 248
128.789 1.50671 108.954 223 231 255
111.17 108.028 111.4 255 228 205
66.1921 35.6558 112.299 191 212 255
66.1778 133.347 108.328 209 223 255
112.889 115.779 113.495 255 250 243
97.7169 57.5597 110.099 222 230 255
55.6443 59.2515 117.137 217 227 255
49.5543 69.1359 102.096 211 223 255
93.1543 173.724 111.394 194 213 255
92.9178 74.6684 112.05 218 227 255
93.2286 173.776 111.466 217 227 255
114.36 118.079 115.581 255 230 210
145.993 69.2071 127.417 233 236 255
93.3308 175.096 110.81 255 246 236
147.546 106.726 115 229 234 255
126.08 8.562 98.6128 179 203 255
132.204 129.316 113.227 244 243 255
104.996 64.1612 115.803 201 217 255
24.6661 132 115.038 190 211 255
38.4821 35.3548 109.06 194 213 255
114.031 118.986 121.071 255 164 82
95.2159 178.93 110.854 213 224 255
82.9791 188.617 111.001 184 207 255
190.699 26.8638 108.705 188 209 255
118.269 201.871 107.929 184 207 255
109.299 134.684 99.4297 255 132 2
67.146 46.76 110.044 182 205 255
110.671 113.618 110.515 255 167 89
110.197 112.293 110.506 255 220 193
133.38 183.733 111.376 183 207 255
58.0803 49.3683 110.474 219 229 255
108.447 157.54 120.449 193 212 255
155.418 83.3042 110.697 234 237 255
125.464 122.602 114.714 233 236 255
93.1678 173.737 111.409 210 223 255
109.646 116.627 113.893 255 184 124
66.963 142.515 104.459 197 215 255
30.4801 65.926 108.534 195 214 255
109.823 124.815 111.799 255 243 232
141.396 79.7777 106.528 235 238 255
93.6007 125.715 112.739 255 237 221
67.4103 41.2132 115.345 192 212 255
66.1902 104.958 127.277 230 235 255
170.908 125.738 112.792 255 234 216
123.64 179.642 111.466 202 218 255
65.0416 131.995 116.786 229 234 255
108.962 90.5286 108.648 255 252 247
88.5293 188.027 113.374 199 216 255
164.554 97.5741 115.741 199 216 255
169.376 38.5149 109.57 195 214 255
203.517 73.0507 111.609 187 209 255
74.0811 65.7717 111.035 227 233 255
152.586 95.116 106.058 199 216 255
69.8993 66.5496 112.783 190 211 255
93.112 173.673 111.414 197 215 255
73.8262 42.2688 112.709 197 215 255
212.504 133.093 110.744 206 221 255
102.686 105.757 110.251 203 219 255
115.214 120.853 106.797 255 245 235
50.9308 95.1926 112.612 207 221 255
166.583 156.141 127.21 197 215 255
167.532 68.6354 115.977 226 232 255
173.938 187.889 124.367 183 206 255
61.5858 119.105 110.61 233 236 255
126.689 69.0278 112.518 210 223 255
130.515 4.38047 109.478 189 210 255
85.5735 162.527 111.244 234 237 255
93.3554 173.597 111.312 190 210 255
93.1542 173.856 111.029 232 236 255
64.5991 141.012 91.2496 255 250 243
113.373 151.698 116.138 199 216 255
160.188 158.799 109.522 200 217 255
93.1702 173.765 111.383 211 223 255
147.081 148.613 111.96 194 213 255
84.2607 55.0708 113.422 176 201 255
163.229 182.573 124.141 187 209 255
60.7429 62.7579 110.605 184 207 255
67.1501 136.611 106.22 197 215 255
94.7675 80.412 114.365 216 226 255
66.0142 135.255 116.85 249 246 255
64.4827 157.687 113.762 202 218 255
77.3411 107.677 106.254 220 229 255
155.726 72.6192 114.028 234 237 255
79.4249 101.882 109.493 229 234 255
62.1409 71.4743 116.999 193 212 255
150.038 67.2454 84.8896 255 250 255
170.038 23.4048 111.676 185 207 255
93.2062 173.76 111.379 201 217 255
125.712 57.1434 117.696 207 221 255
162.955 125.089 112.875 244 243 255
72.6128 131.591 112.597 234 237 255
102.699 154.366 111.175 255 149 47
57.4552 100.395 111.664 201 217 255
93.1887 173.783 111.354 207 221 255
140.55 98.8144 109.792 203 219 255
158.923 95.1841 98.9217 209 222 255
164.793 130.9 111.506 212 224 255
93.1712 173.775 111.376 208 221 255
159.397 172.745 124.863 222 230 255
128.359 6.15272 100.546 197 215 255
126.912 149.321 110.175 221 230 255
93.1383 173.661 111.406 192 212 255
105.93 121.845 111.9 255 251 245
94.2009 158.656 133.219 207 221 255
133.327 75.7907 110.032 190 210 255
144.685 83.2855 118.991 197 215 255
5.70091 183.981 113.82 184 207 255
100.769 61.6415 114.903 188 210 255
57.4155 175.913 112.83 191 211 255
130.274 75.9046 122.862 204 219 255
117.065 135.472 107.585 191 211 255
177.006 65.2213 109.65 220 229 255
93.1782 173.793 111.37 188 210 255
138.28 68.2582 117.916 199 217 255
64.6106 38.7403 87.1762 223 231 255
155.024 167.273 113.167 197 215 255
110.277 108.946 111.802 255 239 226
140.587 117.163 116.128 255 251 246
27.9276 157.014 111.365 181 205 255
43.982 41.4649 110.484 204 220 255
96.968 164.154 109.533 205 220 255
51.2266 158.193 111.107 194 213 255
72.2428 63.1647 115.692 233 237 255
61.4144 126.864 99.2706 255 250 255
56.3589 37.7478 112.63 217 227 255
100.639 103.312 109.854 213 225 255
123.883 112.582 112.11 229 234 255
19.0234 81.9897 113.789 187 209 255
93.0885 173.739 111.446 255 230 210
74.7004 133.204 115.752 230 235 255
84.3966 150.269 116.171 252 247 255
115.477 119.86 108.6 231 235 255
110.815 150.284 107.286 233 236 255
99.5054 146.294 112.399 255 222 196
152.397 86.9023 110.802 193 213 255
128.674 93.4408 130.254 243 242 255
76.7206 62.7019 111.695 226 233 255
112.623 121.784 107.228 216 227 255
213.301 104.982 117.341 189 210 255
110.763 144.124 110.112 255 253 249
189.033 179.597 110.454 192 212 255
100.561 106.425 113.635 255 251 245
148.089 132.828 110.715 196 214 255
101.564 111.335 111.502 234 237 255
101.728 86.3023 101.11 255 136 13
152.108 124.278 112.078 203 219 255
145.891 142.522 110.978 255 242 230
115.921 119.568 106.365 224 232 255
198.631 98.7991 114.871 201 217 255
101.702 169.747 117.734 207 221 255
85.0621 49.6012 113.276 214 225 255
110.835 119.178 115.358 221 229 255
118.052 173.239 114.251 211 224 255
176.142 98.543 115.054 197 215 255
56.0994 137.422 113.578 255 228 207
76.1724 8.48581 83.0289 181 205 255
189.186 28.9972 115.552 195 214 255
108.636 113.241 110.265 227 233 255
93.1667 173.755 111.386 213 225 255
74.9351 29.881 111.813 189 210 255
106.907 4.88185 107.561 190 211 255
36.9352 41.6977 112.536 189 210 255
90.9834 61.49 111.438 218 228 255
117.504 127.085 116.425 255 250 243
80.7193 133.852 111.977 255 233 215
121.392 172.356 111.01 197 215 255
76.4559 144.585 109.987 222 230 255
93.1758 173.781 111.375 192 212 255
111.636 136.783 109.767 208 222 255
93.2407 173.531 111.067 255 238 224
115.639 137.412 109.827 203 219 255
150.679 179.093 99.3414 191 211 255
4.45987 108.236 112.32 187 209 255
215.385 84.2244 111.938 185 208 255
130.228 24.0219 113.242 196 214 255
102.832 112.594 111.789 205 220 255
139.309 83.6802 113.118 214 225 255
114.034 65.7259 112.371 211 223 255
164.569 90.1872 111.372 210 223 255
109.468 117.545 114.428 255 248 240
170.701 119.336 111.527 255 244 234
26.3815 123.362 113.256 199 216 255
16.3828 76.5527 108.134 182 206 255
145.13 119.7 111.275 232 236 255
111.359 142.541 117.698 204 219 255
97.0603 106.677 117.629 226 232 255
71.894 162.344 111.803 192 212 255
91.5787 68.0435 85.6008 191 211 255
130.759 97.8646 114.768 219 228 255
103.002 101.208 114.883 215 226 255
46.3455 174.454 108.844 227 233 255
171.812 21.1062 111.341 185 208 255
116.048 85.4356 111.975 255 229 208
93.5942 32.1165 114.721 191 211 255
64.1033 50.073 108.713 202 218 255
220.606 75.389 106.963 182 206 255
114.741 128.334 121.648 202 218 255
161.41 106.264 112.375 208 221 255
205.664 57.1228 111.569 186 208 255
152.427 104.463 114.966 217 227 255
109.942 104.77 106.426 224 231 255
165.891 89.843 108.94 243 242 255
59.879 136.052 113.863 254 248 255
99.073 38.3382 110.834 207 221 255
133.721 128.364 113.495 218 228 255
135.922 151.24 114.157 238 239 255
83.7958 70.3198 115.291 213 225 255
93.1605 173.739 111.391 208 222 255
49.9787 88.8781 107.06 201 217 255
126.823 80.7026 113.52 225 232 255
124.576 148.577 111.866 211 223 255
99.2062 87.5563 111.013 255 239 226
86.883 125.829 110.908 220 229 255
96.367 173.488 115.411 255 251 245
112.233 114.613 121.966 255 241 228
116.952 79.3661 109.878 206 220 255
73.6182 183.403 115.008 199 217 255
112.384 118.346 114.229 217 227 255
99.0444 140.175 113.059 255 206 166
153.843 100.989 107.917 196 215 255
93.3161 173.534 111.517 255 212 178
85.6273 30.811 113.944 192 212 255
109.287 101.048 112.586 208 222 255
175.924 145.146 117.265 196 214 255
109.253 107.455 113.655 255 70 0
78.3695 39.0437 111.133 192 212 255
124.993 98.5829 114.517 246 244 255
121.769 76.9398 109.927 255 229 208
115.89 153.332 109.569 237 239 255
114.054 121.905 108.586 216 226 255
103.149 116.705 114.859 255 178 113
133.712 77.2465 120.388 223 231 255
110.124 112.076 112.105 255 234 217
49.4982 53.1214 100.043 214 225 255
118.159 184.777 112.303 181 205 255
129.65 114.804 112.752 255 231 212
102.819 98.8917 113.553 255 255 251
112.364 119.453 108.658 214 225 255
76.292 94.4722 111.996 203 219 255
114.05 121.414 107.919 255 199 154
160.05 72.2664 111.938 209 222 255
123.632 126.067 113.467 210 223 255
112.476 122.923 105.792 248 245 255
118.236 135.529 108.116 218 228 255
102.479 214.43 109.141 182 206 255
93.1672 173.809 111.369 255 243 232
102.461 95.7869 96.8978 200 217 255
111.29 28.1052 123.492 199 216 255
82.9672 87.3564 112.22 246 244 255
93.1986 173.751 111.419 220 229 255
115.621 21.3296 112.585 208 222 255
62.0636 104.646 112.405 214 225 255
148.008 72.3046 116.031 190 211 255
144.687 92.3944 98.8683 241 241 255
101.682 169.104 106.757 204 219 255
115.145 116.773 105.796 255 245 235
131.309 119.052 112.754 204 219 255
125.041 203.69 141.836 199 216 255
75.5075 143.823 108.14 214 225 255
130.399 180.898 112.551 197 215 255
59.012 125.733 120.008 199 216 255
139.376 150.177 110.509 200 217 255
84.137 150.889 120.818 204 219 255
112.997 121.582 107.113 255 246 237
35.5069 70.3879 113.311 218 228 255
140.752 48.6437 112.254 192 212 255
120.659 186.311 113.889 241 241 255
95.6251 173.177 109.536 242 241 255
79.1539 98.8773 113.692 213 225 255
93.2264 173.881 111.292 202 218 255
122.319 81.1733 117.726 192 212 255
31.776 113.33 97.0572 197 215 255
107.134 110.571 118.157 210 223 255
53.7776 61.9145 106.187 185 208 255
96.1672 174.004 108.402 219 229 255
178.441 124.331 106.659 203 218 255
102.408 9.74677 117.757 197 215 255
205.101 48.3346 107.739 202 218 255
96.9763 110.865 110.62 228 233 255
156.608 106.68 108.182 255 232 213
146.344 65.4632 115.903 219 228 255
156.389 8.08338 108.185 178 203 255
39.5807 50.2627 109.505 192 212 255
118.33 113.192 117.714 255 236 220
106.691 86.9635 103.019 196 214 255
66.9468 51.3015 109.464 196 215 255
128.346 79.6969 113.177 214 225 255
115.211 127.247 106.083 255 231 211
126.853 129.998 110.286 224 231 255
107.552 106.153 110.13 255 220 191
107.836 124.695 111.002 255 227 205
106.198 118.901 113.965 192 212 255
138.771 75.9434 112.638 249 245 255
143.594 171.29 112.137 201 218 255
111.984 186.498 111.241 185 208 255
66.6772 96.6404 114.398 229 234 255
77.4322 157.819 111.869 200 217 255
117.262 115.665 115.965 211 224 255
150.427 9.95924 96.5773 180 204 255
188.129 35.1673 115.985 225 232 255
102.771 79.8495 123.976 255 248 240
93.1384 173.686 111.406 198 215 255
52.5448 72.0638 107.383 213 225 255
163.058 115.986 123.537 255 227 204
165.693 53.1032 116.418 219 229 255
109.332 104.054 113.884 206 221 255
155.05 54.1474 115.866 201 217 255
52.0899 86.3642 119.213 244 243 255
195.135 29.0277 124.652 196 214 255
117.478 180.046 110.274 185 207 255
93.1677 173.757 111.385 236 238 255
102.006 82.3408 107.953 255 235 218
109.178 170.509 111.835 194 213 255
145.783 88.4689 114.999 234 237 255
33.4475 109.322 114.577 196 214 255
87.1592 76.0216 112.264 255 229 208
145.699 159.653 109.785 203 218 255
155.081 83.4653 105.435 204 219 255
73.2776 177.771 112.35 187 209 255
177.45 106.921 112.054 207 221 255
66.2211 133.497 104.031 255 254 250
34.1271 180.349 108.946 195 213 255
109.742 117.291 104.895 216 227 255
66.1748 118.71 82.626 218 228 255
74.9101 73.0667 111.562 215 226 255
139.032 86.3594 112.968 255 252 247
60.2336 70.6591 112.928 255 253 249
93.1983 173.752 111.422 187 209 255
103.97 85.6463 112.535 206 221 255
93.1716 173.768 111.381 202 218 255
105.042 90.0346 113.436 245 243 255
93.1696 173.762 111.384 204 220 255
84.4595 78.2134 109.269 255 223 198
93.1566 173.73 111.395 205 220 255
116.023 13.2321 108.05 189 210 255
68.3524 36.4453 112.793 184 207 255
108.722 107.848 105.699 255 185 126
74.9597 86.1156 111.826 229 234 255
110.97 111.579 110.593 255 247 238
111.054 136.056 112.974 255 252 246
121.621 114.699 112.495 238 239 255
103.806 101.483 112.304 255 229 208
69.8144 36.2232 115.072 211 224 255
101.631 103.534 114.956 235 237 255
116.654 146.558 116.089 211 224 255
145.109 76.3721 103.823 211 224 255
134.564 98.8 89.1669 204 219 255
208.536 43.947 114.166 203 219 255
109.926 102.746 114.111 218 227 255
188.14 172.19 113.514 185 208 255
5.75787 139.026 110.185 188 209 255
113.082 50.4421 111.285 207 221 255
64.194 208.626 111.883 201 218 255
115.201 121.505 107.765 232 236 255
52.2723 86.7649 105.118 190 211 255
2.03937 152.279 112.981 192 212 255
