ply
format ascii 1.0
element vertex 1342
property float x
property float y
property float z
property uchar red
property uchar green
property uchar blue
end_header
110.994 182.729 110.855 178 203 255
65.2539 119.754 110.273 213 225 255
167.541 94.3825 109.408 255 246 238
144.398 77.3969 108.827 199 216 255
90.4582 92.4688 111.712 205 220 255
94.3108 174.332 111.458 255 247 238
104.03 127.362 116.667 255 239 226
66.3618 136.487 111.462 255 183 123
116.632 74.4081 112.658 205 220 255
83.4288 156.715 113.68 233 236 255
41.3889 82.2247 98.1598 191 211 255
169.504 91.0553 138.193 193 212 255
92.5617 161.869 103.313 254 249 255
118.251 99.0991 112.967 255 238 224
112.222 180.2 109.59 212 224 255
111.202 111.061 111.109 232 236 255
111.989 112.021 113.738 233 237 255
164.735 44.5849 114.571 195 213 255
94.3478 174.32 111.482 207 221 255
90.8917 54.4131 110.453 202 218 255
93.3242 173.521 110.384 255 245 235
169.485 163.382 113.202 223 230 255
49.5843 93.8114 109.762 193 213 255
114.329 99.0031 116.795 249 246 255
148.354 170.486 113.617 216 227 255
139.361 172.31 112.178 200 217 255
131.279 122.239 110.748 228 234 255
111.635 116.742 108.49 255 229 209
10.6977 120.012 111.94 198 216 255
129.95 168.109 111.203 237 239 255
135.785 111.159 112.459 255 201 158
93.3271 26.5193 106.349 233 236 255
132.822 74.483 116.142 203 219 255
136.047 164.179 111.221 191 211 255
110.577 113.409 111.682 255 170 96
114.462 110.531 109.579 255 233 216
166.363 129.676 105.536 255 254 250
94.2537 174.415 111.032 197 215 255
71.5125 124.312 112.245 215 226 255
111.515 107.433 112.473 239 240 255
136.44 94.5049 109.309 236 238 255
13.6273 94.9286 111.183 186 208 255
122.91 145.74 112.786 217 227 255
110.14 90.5218 108.149 255 220 192
94.1447 174.259 111.701 214 226 255
151.448 7.29877 108.004 190 210 255
106.072 90.1252 110.089 224 231 255
133.757 74.1779 117.609 255 202 159
120.245 6.97501 116.771 183 206 255
94.373 174.283 111.616 201 218 255
122.585 40.7639 114.352 190 210 255
80.8386 170.649 110.813 251 247 255
159.793 93.1051 112.323 220 229 255
117.361 118.272 112.324 255 218 189
101.496 10.4962 109.523 209 223 255
217.849 143.469 111.706 181 205 255
127.76 65.5222 113.71 199 216 255
102.158 114.145 108.572 255 176 109
113.269 111.51 111.455 236 238 255
23.94 127.597 111.444 206 220 255
147.136 181.165 111.421 221 229 255
65.669 215.393 108.067 193 213 255
172.57 125.952 106.252 191 211 255
91.8519 105.853 107.264 217 227 255
112.027 117.283 115.159 255 198 152
214.916 156.246 113.225 191 211 255
133.32 97.2128 114.152 209 222 255
114.648 118.66 109.71 255 177 110
101.299 26.2472 121.066 199 216 255
87.3717 105.022 111.864 205 220 255
113.429 102.106 110.367 209 222 255
94.0192 174.613 110.809 225 232 255
108.263 63.9836 68.2281 192 212 255
108.997 156.703 112.816 208 222 255
133.997 74.3685 117.373 226 233 255
94.4658 174.314 111.659 255 235 219
54.1976 105.202 106.093 209 222 255
99.9567 19.4052 110.882 197 215 255
64.1027 90.3736 112.419 189 210 255
204.945 70.9759 115.329 177 203 255
118.963 115.163 112.489 255 249 255
203.043 164.109 114.925 188 209 255
172.531 165.776 114.38 201 218 255
111.49 129.576 110.274 255 244 234
93.5515 174.721 111.28 255 250 244
169.569 104.376 109.725 200 217 255
56.5034 116.961 111.636 202 218 255
150.883 74.5407 112.675 203 219 255
94.3401 174.311 111.516 184 207 255
120.38 126.975 109.688 236 238 255
98.411 172.112 107.691 201 218 255
200.754 158.201 111.714 203 219 255
104.603 101.865 96.5176 255 221 195
165.52 40.3001 112.963 199 216 255
112.109 135.897 109.833 226 232 255
94.3471 174.317 111.495 255 213 180
89.3255 177.184 112.825 237 239 255
209.157 124.827 116.693 195 214 255
186.636 65.0783 113.511 199 216 255
71.2875 98.3963 114.871 195 213 255
39.8697 212.584 106.036 180 204 255
100.762 176.918 116.548 238 239 255
109.887 141.003 111.19 222 230 255
94.3363 174.311 111.509 206 220 255
116.649 169.995 111.779 201 217 255
64.5778 72.357 114.448 216 227 255
165.637 141.247 112.037 197 215 255
167.852 106.821 108.691 194 213 255
33.756 104.712 111.982 190 211 255
166.469 121.068 111.754 206 221 255
109.54 111.847 110.955 207 221 255
66.0874 101.834 110.57 218 228 255
151.949 89.5836 117.07 239 240 255
143.335 40.8634 108.656 226 233 255
128.579 74.2951 114.438 191 212 255
22.6271 138.337 111.247 198 215 255
94.0959 172.627 113.543 200 217 255
68.7442 136.196 106.852 241 241 255
108.581 64.1957 113.287 187 209 255
92.8723 156.109 110.969 214 225 255
94.4146 174.301 111.741 204 219 255
185.1 92.306 112.939 182 205 255
69.2545 145.929 103.756 189 210 255
139.493 123.002 117.894 255 249 241
82.9388 175.733 113.225 191 211 255
137.784 144.375 110.992 207 221 255
80.7543 52.758 107.406 209 222 255
126.837 127.486 115.917 255 224 199
108.385 106.189 110.481 241 241 255
98.5628 26.6622 117.019 198 216 255
94.6907 94.9939 116.787 255 246 237
107.983 108.3 115.227 206 220 255
95.7199 116.752 114.295 255 232 213
98.3049 117.337 109.349 255 152 54
100.258 173.986 108.615 255 249 255
160.966 53.7414 113.468 200 217 255
82.1743 103.013 118.89 228 233 255
79.2513 67.4171 113.154 216 227 255
31.5987 140.344 110.276 190 211 255
167.379 145.496 103.7 229 234 255
161.718 169.714 136.444 199 216 255
115.842 80.6874 126.587 217 227 255
74.7454 146.213 109.889 255 247 238
106.427 175.096 109.947 199 216 255
94.3662 174.29 111.578 255 243 232
199.861 133.097 112.558 202 218 255
115.062 107.798 110.773 255 254 251
76.3022 94.1952 116.804 222 230 255
90.4732 161.146 124.681 200 217 255
165.016 143.751 114.337 183 206 255
70.7826 69.8525 112.702 209 223 255
125.829 214.14 119.843 190 211 255
68.8728 35.7423 116.691 186 208 255
142.311 178.428 111.141 199 216 255
55.606 153.281 110.997 204 219 255
86.0663 86.2501 114.772 193 212 255
118.66 140.161 108.946 255 187 131
50.0874 151.425 115.739 182 206 255
220.063 74.005 113.997 182 205 255
94.3593 174.325 111.506 198 216 255
110.887 118.348 109.3 220 229 255
125.746 135.63 108.577 202 218 255
109.573 20.667 109.31 206 221 255
94.4758 174.213 111.712 198 216 255
94.3448 174.302 111.537 199 216 255
73.3035 53.0095 112.422 194 213 255
78.1576 133.945 113.576 255 255 252
167.421 125.153 105.927 193 212 255
37.2336 156.446 145.782 223 230 255
83.4494 104.083 117.401 255 255 251
58.2661 71.4816 109.966 207 221 255
123.086 69.0818 119.23 255 186 128
154.43 118.986 115.625 242 241 255
94.3373 174.31 111.517 227 233 255
111.684 111.363 112.08 255 211 175
189.065 8.30492 118.727 224 231 255
69.6887 140.411 113.717 207 221 255
85.5269 107.518 109.223 255 247 239
54.7132 133.064 112.315 198 215 255
168.74 64.4879 108.657 192 212 255
108.724 127.988 110.623 255 174 104
26.4874 104.07 114.703 207 221 255
38.5015 80.1432 112.846 183 206 255
219.436 111.868 112.908 179 204 255
163.955 119.177 115.892 190 211 255
167.758 104.297 112.032 200 217 255
94.0614 173.893 111.941 255 255 251
124.473 0.833101 107.85 198 216 255
146.16 79.353 114.891 198 216 255
71.231 209.736 112.424 202 218 255
34.4249 98.5211 113.018 193 213 255
165.817 56.911 115.394 219 228 255
114.205 120.196 112.534 255 222 196
46.5935 75.9003 118.358 211 223 255
66.9916 103.636 118.634 197 215 255
69.4794 94.3456 106.899 193 212 255
94.4676 174.297 111.7 209 222 255
81.622 82.199 116.2 215 226 255
106.748 149.846 111.487 255 254 251
66.433 135.874 108.929 234 237 255
94.3725 174.27 111.627 204 219 255
50.5177 126.535 110.533 205 220 255
125.07 81.8675 118.901 206 220 255
50.9602 94.0942 112.419 216 227 255
214.502 89.9636 115.109 194 213 255
81.7022 182.686 114.627 235 238 255
106.902 108.871 111.338 224 231 255
58.973 124.576 106.741 184 207 255
138.998 46.114 115.462 207 221 255
93.3383 103.159 111.503 216 227 255
112.002 108.338 111.126 255 230 209
101.839 11.6557 102.583 187 209 255
97.8354 74.2412 117.106 194 213 255
144.638 79.861 118.284 204 219 255
177.421 51.6921 112.596 238 239 255
80.4037 36.9096 111.916 207 221 255
113.709 112.074 114.245 255 218 188
97.7781 132.679 118.233 229 234 255
50.2272 100.034 111.868 185 207 255
186.302 66.7251 112.271 190 211 255
95.3563 173.925 112.389 217 227 255
111.895 110.378 112.734 255 248 240
58.4174 69.3171 126.305 216 226 255
106.771 54.3731 116.876 204 219 255
94.2563 174.357 111.415 192 212 255
111.277 111.439 111.426 255 208 170
94.3443 174.302 111.534 209 223 255
152.034 39.2617 108.719 255 252 246
54.9566 137.683 112.674 211 224 255
110.978 112.824 111.058 255 244 233
112.245 218.206 104.67 180 204 255
172.684 95.1812 112.774 202 218 255
112.412 110.387 111.604 217 227 255
128.982 126.426 112.812 255 237 222
128.537 77.8933 119.521 232 236 255
66.9045 48.7184 111.491 182 206 255
114.797 107.069 113.04 255 210 174
93.4493 116.989 105.348 255 218 189
51.2915 108.937 103.731 203 219 255
87.4258 130.343 107.561 222 230 255
137.055 143.354 114.447 212 224 255
136.639 119.428 106.697 255 251 246
131.08 128.763 111.684 228 233 255
155.975 89.0896 105.59 210 223 255
76.4613 193.823 110.349 189 210 255
105.793 131.887 112.768 255 248 241
161.713 94.2925 115.885 204 219 255
83.5833 143.926 116.724 191 212 255
72.7087 188.391 112.043 226 232 255
113.833 178.733 110.255 186 208 255
117.936 95.598 114.337 255 250 243
99.5439 91.5388 111.954 255 249 242
171.409 107.023 120.984 195 214 255
108.749 34.2801 110.485 191 211 255
138.923 184.405 111.518 204 220 255
151.068 167.171 113.824 197 215 255
142.066 167.992 112.687 190 211 255
95.7594 174.288 110.109 193 212 255
40.6403 165.809 113.206 194 213 255
83.0781 167.986 125.308 204 219 255
27.8793 90.1417 113.581 205 220 255
146.8 76.6646 112.854 212 224 255
34.2844 156.536 111.892 208 222 255
60.3816 109.706 110.31 255 250 244
133.975 79.8077 111.14 202 218 255
89.4183 109.64 109.15 246 244 255
44.9147 146.844 113.752 187 209 255
116.545 108.381 107.642 255 223 198
167.591 92.8938 112.062 255 246 237
10.4454 60.154 128.055 222 230 255
111.897 113.746 112.476 207 221 255
175.395 80.2609 114.344 201 217 255
69.9764 141.15 110.288 210 223 255
125.314 44.3234 110.631 203 219 255
167.021 78.2958 114.849 209 222 255
174.72 70.2603 117.185 218 227 255
125.459 133.29 109.898 255 252 247
114.335 116.418 110.237 223 230 255
135.958 73.4223 116.033 214 225 255
115.365 105.27 108.501 255 249 241
88.4542 19.5029 114.05 183 206 255
99.6555 81.3471 115.673 255 238 223
113.803 137.504 112.111 219 228 255
132.28 65.4374 121.84 199 216 255
89.0847 130.75 119.086 209 222 255
130.818 77.312 114 255 247 238
90.0926 93.9269 108.872 255 244 233
86.9353 123.39 111.745 203 219 255
94.3619 174.534 111.406 215 226 255
115.852 139.002 112.531 255 250 255
112.09 73.9501 113.736 226 232 255
135.884 67.8199 113.734 197 215 255
172.413 123.04 117.458 205 220 255
193.222 102.933 117.267 211 223 255
120.754 21.3033 117.677 195 214 255
85.0487 79.2818 109.111 209 222 255
114.383 112.626 111.068 209 222 255
109.703 93.8335 116.345 212 224 255
146.065 167.164 127.834 207 221 255
110.533 105.191 113.299 230 235 255
160.305 176.857 105.75 185 207 255
155.657 116.347 109.651 210 223 255
62.1981 153.186 111.14 195 214 255
103.689 24.4241 113.517 183 206 255
111.941 111.359 114.431 255 250 243
113.489 120.398 108.407 255 245 236
82.5137 130.422 117.345 255 246 236
141.062 193.577 114.078 201 218 255
45.7182 97.0504 113.579 204 219 255
29.3692 64.3769 108.124 188 209 255
109.475 62.2171 114.427 215 226 255
107.903 144.577 114.263 231 235 255
113.151 118.794 111.309 255 240 226
204.617 99.6632 110.779 192 212 255
55.7304 113.857 112.433 232 236 255
181.887 55.4425 111.589 210 223 255
14.8237 181.419 113.602 180 204 255
93.7414 175.022 109.824 214 225 255
99.1542 205.264 109.952 189 210 255
66.0401 113.275 109.98 201 217 255
94.0377 176.135 111.132 205 220 255
128.761 189.342 110.806 206 220 255
93.5325 175.095 109.144 207 221 255
96.7862 156.448 111.132 228 234 255
47.2984 67.4891 136.591 201 218 255
73.1481 116.875 113.22 255 244 233
109.048 164.845 110.514 255 236 220
94.346 174.3 111.541 217 227 255
94.1695 174.41 111.539 189 210 255
131.245 91.4633 126.457 200 217 255
103.04 83.2444 111.841 210 223 255
91.271 139.569 108.292 255 235 219
180.955 68.7305 111.83 190 211 255
111.031 118.183 115.712 223 231 255
95.2377 177.849 113.656 236 238 255
149.595 194.979 111.9 187 209 255
154.382 86.2481 114.832 223 230 255
114.729 120.25 114.814 255 226 202
135.29 76.2583 118.032 202 218 255
94.3365 174.316 111.498 215 226 255
146.714 189.418 110.877 242 241 255
86.5279 82.0588 116.078 208 222 255
50.417 116.477 110.983 215 226 255
94.3294 174.337 111.48 216 227 255
175.949 148.69 108.563 194 213 255
116.589 185.652 109.053 196 215 255
114.828 114.941 112.228 250 246 255
43.1155 110.768 98.5016 235 238 255
167.862 83.2687 110.359 206 221 255
95.6019 94.0833 114.383 255 240 226
154.383 103.816 116.367 236 238 255
106.714 64.1153 117.059 255 212 178
117.738 182.628 109.039 184 207 255
14.2982 119.052 112.187 181 205 255
121.217 51.4871 118.879 255 223 197
32.4279 162.891 109.842 223 231 255
163.47 65.6242 110.89 193 213 255
94.1857 174.244 111.46 255 242 231
110.439 163.985 111.975 189 210 255
90.5918 173.906 107.187 255 225 202
100.745 85.7141 114.018 216 226 255
110.366 112.342 113.622 255 213 179
104.211 101.338 113.958 236 238 255
134.221 150.257 117.897 210 223 255
116.372 108.42 112.865 255 250 255
106.97 62.742 116.278 197 215 255
132.579 176.066 112.498 184 207 255
96.2103 139.051 109.752 199 216 255
114.619 119.282 109.346 248 245 255
106.057 107.816 114.175 255 225 200
223.364 96.8484 112.375 194 213 255
96.2048 123.428 112.7 252 247 255
118.17 152.298 111.777 251 246 255
116.379 201.599 122.977 188 209 255
111.869 114.986 112.038 255 235 219
104.417 143.941 110.621 255 211 177
74.9525 105.422 119.998 230 235 255
140.624 173.359 134.465 207 221 255
101.209 72.0016 112.608 210 223 255
163.035 106.035 122.47 194 213 255
57.2238 46.2518 104.575 249 246 255
75.8594 11.1322 115.867 202 218 255
50.9933 11.5089 135.176 187 209 255
142.236 28.4404 112.052 198 215 255
116.112 82.6922 104.785 255 96 0
126.093 118.102 110.024 198 215 255
56.9041 69.937 112.231 198 216 255
112.132 112.95 111.967 255 254 250
161.552 165.736 123.882 186 208 255
131.97 116.692 119.857 208 222 255
133.472 89.0474 113.899 196 214 255
50.4266 84.8115 109.345 255 252 247
108.531 90.2564 129.151 207 221 255
94.348 174.298 111.547 187 209 255
83.5542 81.056 109.09 192 212 255
58.69 51.5119 110.544 200 217 255
120.652 86.7192 112.189 200 217 255
131.438 104.216 114.649 197 215 255
94.342 174.303 111.531 200 217 255
55.9708 115.197 110.971 255 246 238
160.885 104.108 111.392 255 239 226
141.808 196.503 123.53 196 215 255
170.038 51.4001 112.209 255 235 218
113.752 127.353 110.47 225 232 255
94.6845 174.339 111.78 255 206 168
52.3758 110.038 113.2 247 244 255
152.265 82.9037 114.507 202 218 255
146.405 126.677 110.006 216 226 255
94.3225 174.139 111.294 250 246 255
94.3812 174.257 111.644 206 220 255
118.207 107.643 111.737 211 224 255
49.8941 75.7881 121.651 200 217 255
83.4567 40.1292 114.07 199 216 255
56.6777 138.571 111.071 200 217 255
112.54 115.45 114.471 213 225 255
79.3162 68.5329 110.275 211 224 255
122.68 75.0418 113.624 205 220 255
77.599 95.3594 114.844 201 218 255
61.9991 47.8395 114.147 219 228 255
114.058 113.249 111.63 242 241 255
111.384 117.541 110.937 255 252 246
181.135 44.741 109.333 182 206 255
62.6044 124.737 117.272 218 228 255
120.358 138.954 110.451 210 223 255
190.828 87.2778 116.294 184 207 255
163.461 108.411 113.463 255 247 238
103.623 94.1054 106.405 255 229 208
113.471 117.233 102.135 255 0 0
94.3508 174.296 111.555 197 215 255
19.7511 59.2784 113.076 183 206 255
73.5216 140.047 115.635 212 224 255
71.5945 144.321 110.593 247 245 255
94.3343 174.316 111.504 213 225 255
94.0572 75.1689 113.434 241 241 255
73.1498 139.142 110.527 215 226 255
69.4656 132.878 121.638 225 232 255
66.5066 54.1378 111.734 221 229 255
119.954 152.485 111.746 255 245 235
16.0547 98.0725 110.122 192 212 255
126.965 162.967 108.29 218 228 255
125.545 103.996 115.061 211 223 255
135.321 64.8727 114.074 206 220 255
116.001 81.1445 112.398 255 146 39
152.725 95.6899 111.302 245 243 255
112.763 111.114 113.038 255 236 220
52.9259 117.141 124.004 217 227 255
94.322 174.292 111.502 255 255 251
181.078 103.845 110.485 209 222 255
194.729 104.603 110.7 193 212 255
96.6401 109.086 111.032 255 255 252
82.0956 38.8815 117.722 255 251 245
152.969 48.0841 112.314 201 217 255
121.317 150.785 111.529 214 225 255
200.49 167.854 109.129 180 204 255
142.885 47.1822 116.642 190 211 255
35.9923 155.274 113.798 187 209 255
111.999 105.956 116.049 241 241 255
96.4073 157.2 109.089 255 250 244
122.038 140.621 111.052 242 242 255
100.536 158.597 115.677 255 240 227
153.788 35.4876 109.997 183 206 255
108.748 112.33 115.6 255 207 168
119.015 142.296 114.477 227 233 255
163.6 143.844 114.08 194 213 255
151.549 160.15 108.789 205 220 255
101.198 48.6189 108.465 188 209 255
101.04 58.091 117.085 225 232 255
125.328 45.6827 113.598 235 237 255
63.5301 24.3696 116.473 178 203 255
57.5454 58.6389 103.833 179 204 255
113.187 118.815 110.272 255 239 225
78.2354 179.766 111.827 207 221 255
97.2699 112.148 111.112 211 223 255
93.0198 175.253 111.508 243 242 255
110.124 83.5755 109.761 230 235 255
99.4934 99.7525 106.18 245 243 255
176.91 128.563 113.235 196 214 255
139.594 129.953 117.693 227 233 255
92.8741 174.18 111.293 219 228 255
99.4439 90.9842 112.829 255 250 255
116.917 143.411 110.448 255 225 201
93.7508 174.35 111.62 215 226 255
90.2012 61.8864 118.202 229 234 255
166.918 143.75 106.947 214 225 255
113.369 131.659 112.001 204 219 255
94.4249 174.332 111.555 195 214 255
94.3571 174.29 111.573 200 217 255
74.2299 116.498 108.373 255 234 217
131.399 125.231 116.695 195 214 255
29.5675 190.441 112.6 209 223 255
97.9842 152.261 112.601 210 223 255
110.244 60.5923 114.555 195 214 255
102.703 156.338 113.697 215 226 255
166.114 100.714 117.047 255 237 221
148.36 146.805 111.563 196 214 255
135.899 121.498 110.156 255 218 189
159.235 143.006 107.838 203 219 255
156.313 158.203 113.427 192 212 255
110.732 111.002 112.798 238 239 255
101.344 112.025 115.583 255 215 182
137.824 76.1788 117.619 255 234 216
96.4836 50.8349 106.932 199 216 255
118.448 124.901 111.094 255 212 178
107.775 124.732 109.531 219 229 255
49.1029 81.8867 107.296 198 216 255
94.108 174.703 111.148 203 219 255
166.894 148.753 110.673 195 214 255
45.1175 197.257 110.123 191 211 255
106.244 81.7371 116.54 209 222 255
174.369 22.5732 110.347 255 249 255
69.4711 150.523 112.136 190 210 255
184.529 58.4867 111.435 187 209 255
84.9986 153.08 120.161 219 228 255
162.012 51.1964 111.549 191 211 255
62.7342 126.129 115.272 215 226 255
88.8955 105.122 110.223 255 202 160
71.4493 37.6636 115.022 197 215 255
115.109 117.032 112.226 255 126 0
106.509 174.994 111.395 215 226 255
98.4092 93.0667 110.746 255 250 243
94.3323 174.312 111.524 198 215 255
96.0112 137.927 107.75 255 248 239
70.0751 100.79 109.411 255 247 238
110.622 102.405 108.572 193 212 255
81.688 151.346 117.644 206 220 255
139.532 87.2391 112.066 233 236 255
157.2 164.389 113.262 200 217 255
94.371 174.284 111.611 255 202 159
189.844 70.0268 110.829 200 217 255
90.2333 154.514 112.029 248 245 255
93.1233 29.9225 113.326 191 212 255
72.4733 112.92 113.773 255 252 246
9.63442 69.9662 116.745 197 215 255
20.0393 177.158 114.731 191 211 255
87.3219 127.66 115.78 255 241 229
121.25 53.4965 112.412 192 212 255
94.3932 174.588 111.574 201 217 255
119.928 84.6528 115.438 255 254 250
163.634 97.9225 123.948 224 231 255
95.1246 120.652 113.974 255 239 225
3.02413 124.42 114.233 205 220 255
113.93 93.9278 112.027 218 227 255
182.373 111.576 109.49 211 224 255
66.8516 110.039 115.197 200 217 255
130.042 158.364 111.457 219 228 255
94.0608 92.3743 111.374 199 216 255
166.492 57.8295 113.341 189 210 255
174.989 93.1329 108.297 185 207 255
184.409 126.985 108.457 222 230 255
105.366 113.419 110.515 252 247 255
167.021 160.935 117.946 197 215 255
99.8139 115.903 107.129 217 227 255
89.437 79.9293 112.305 193 213 255
134.309 114.104 114.855 255 206 167
74.6578 72.2638 113.56 255 202 159
123.552 104.679 112.887 219 228 255
66.5982 48.5907 110.3 189 210 255
107.741 113.143 109.75 222 230 255
90.5232 49.6697 110.505 192 212 255
92.0872 100.645 112.464 255 244 234
97.2637 137.114 106.954 208 222 255
45.6187 107.196 94.5439 212 224 255
133.345 146.215 115.426 233 236 255
94.344 174.302 111.534 186 208 255
129.851 130.178 109.267 255 250 243
38.375 121.154 111.858 190 211 255
110.562 18.0325 89.1365 207 221 255
66.0011 134.51 110.995 202 218 255
162.797 140.647 109.748 212 224 255
102.766 113.499 118.198 212 224 255
142.882 177.325 109.17 183 206 255
123.313 104.726 112.458 255 245 236
115.215 64.9315 112.69 215 226 255
94.3419 174.304 111.528 234 237 255
94.2766 174.591 111.198 214 225 255
110.368 40.8443 111.234 242 241 255
184.367 169.39 118.479 193 213 255
44.6954 45.5975 110.782 194 213 255
121.266 132.06 118.655 255 233 215
81.1519 108.594 106.117 255 254 250
93.2781 46.3296 108.486 233 236 255
76.441 131.151 118.384 203 218 255
46.7612 81.3747 122.275 179 204 255
151.033 124.789 118.971 188 209 255
178.349 80.4251 112.883 191 211 255
149.854 114.545 111.961 203 219 255
98.279 169.79 108.64 215 226 255
130.071 136.367 112.058 234 237 255
83.512 116.899 107.016 255 245 235
104.249 159.179 114.257 231 235 255
87.6986 0.868033 110.449 205 220 255
44.4219 112.816 121.416 190 210 255
87.6733 143.072 118.292 185 207 255
108.131 111.489 115.384 255 239 226
92.938 104.93 110.858 242 241 255
209.624 145.396 112.229 189 210 255
64.1733 169.788 112.381 193 213 255
101.909 47.6173 111.551 205 220 255
77.2962 38.2385 113.627 186 208 255
184.684 87.4453 118.014 203 219 255
160.584 144.526 113.35 201 218 255
105.932 107.331 110.007 255 193 142
99.1743 188.001 111.015 204 219 255
143.514 80.4387 116.454 235 237 255
62.1932 76.7351 114.251 239 240 255
114.28 114.128 112.66 227 233 255
55.54 24.0053 114.648 180 204 255
127.193 110.39 113.065 224 231 255
62.4649 95.3011 109.24 253 248 255
51.1116 106.861 113.276 203 219 255
140.119 141.739 118.549 255 249 243
98.2869 104.677 111.781 255 250 255
172.127 149.312 110.65 211 223 255
136.065 88.3046 113.426 207 221 255
120.286 112.794 111.283 255 220 192
105.859 112.064 117.482 251 246 255
41.0047 165.024 111.664 200 217 255
90.4177 176.456 111.02 186 208 255
94.3305 174.363 111.477 200 217 255
113.041 105.447 111.754 210 223 255
162.323 100.228 113.009 218 227 255
197.99 147.049 114.842 181 205 255
95.1833 174.667 110.657 220 229 255
113.118 111.051 113.621 255 236 219
183.168 124.082 107.765 201 218 255
115.76 104.592 110.927 255 246 236
94.3481 174.299 111.547 197 215 255
76.435 75.7017 112.547 212 224 255
115.74 121.355 114.806 234 237 255
94.341 174.306 111.525 187 208 255
106.814 173.284 110.341 186 208 255
96.158 158.115 113.66 255 245 235
94.3195 174.365 111.477 217 227 255
102.504 186.301 110.728 193 213 255
184.254 93.1641 111.864 215 226 255
166.457 18.767 109.986 215 226 255
150.002 93.459 114.728 196 214 255
98.9509 138.094 107.559 218 228 255
108.139 113.242 115.271 221 230 255
135.589 112.477 125.646 255 233 215
53.3157 80.3019 112.522 206 221 255
162.925 97.7692 109.621 198 215 255
105.789 112.26 111.222 220 229 255
95.5398 104.925 112.325 255 220 192
80.2084 45.3858 109.816 195 214 255
115.584 113.433 112.139 229 234 255
82.4832 94.9792 110.516 206 221 255
99.9744 25.8436 111.573 222 230 255
79.4922 23.3964 106.101 189 210 255
116.835 122.803 111.443 255 200 155
113.58 113.472 113.037 255 207 168
94.3113 174.298 111.507 205 220 255
84.8228 89.4357 111.589 205 220 255
64.2321 135.437 117.548 251 247 255
94.397 174.269 111.548 197 215 255
177.726 110.182 113.065 228 233 255
142.214 80.4981 120.035 218 228 255
71.0788 18.5953 111.407 204 220 255
179.797 70.0007 112.958 196 215 255
147.057 97.2853 116.628 203 218 255
135.562 46.1591 111.06 214 225 255
177.333 187.542 116.607 187 209 255
128.805 75.0774 110.796 213 225 255
152.183 90.8376 115.016 186 208 255
111.243 77.5164 113.797 255 245 235
65.9058 127.156 111.046 225 232 255
32.9188 122.448 105.642 213 225 255
155.946 121.755 114.581 203 219 255
94.3496 174.297 111.55 200 217 255
57.2646 109.911 116.824 213 225 255
173.955 117.084 115.283 188 209 255
163.828 143.222 115.96 204 219 255
50.6758 52.1723 111.075 190 210 255
98.9504 173.73 107.844 217 227 255
196.06 139.21 117.025 204 219 255
127.528 123.841 109.331 255 158 69
110.415 118.694 117.892 255 253 249
94.3413 174.305 111.525 209 222 255
116.735 101.656 110.673 211 224 255
94.6097 145.125 109.965 224 231 255
105.487 112.401 107.359 255 224 199
107.572 132.845 114.429 199 216 255
98.4112 146.754 111.952 255 229 208
156.67 81.4574 110.721 208 222 255
143.793 200.105 112.458 208 221 255
115.045 104.543 114.268 255 224 199
93.9448 174.737 110.696 219 228 255
175.51 122.856 121.395 197 215 255
55.4775 112.628 110.892 205 220 255
157.962 155.855 109.118 207 221 255
89.4544 124.746 112.92 213 225 255
104.622 115.783 117.701 246 244 255
94.3339 174.318 111.499 233 236 255
144.71 185.297 108.615 188 210 255
52.8665 92.2791 112.542 232 236 255
77.0432 44.4611 112.099 203 218 255
171.355 122.492 108.299 255 223 198
111.213 110.501 113.034 209 222 255
136.306 107.396 110.55 255 124 0
122.674 125.33 109.289 255 212 178
91.3635 32.3086 114.042 183 206 255
194.535 132.002 112.561 197 215 255
120.097 79.7953 117.717 239 240 255
134.3 85.2976 122.338 214 225 255
142.426 174.368 111.078 220 229 255
115.018 130.994 111.41 224 231 255
46.9696 209.417 110.631 186 208 255
94.793 155.152 115.656 213 225 255
108.465 94.2959 115.294 255 251 255
110.459 108.154 112.762 254 248 255
94.348 174.299 111.547 225 232 255
163.192 129.96 113.522 203 219 255
95.5784 166.229 108.487 201 217 255
106.857 119.201 118.685 208 222 255
111.863 111.594 114.091 253 248 255
69.8569 84.6167 110.187 206 220 255
137.655 88.5556 108.011 248 245 255
108.572 116.112 111.941 248 245 255
171.324 42.0164 112.972 196 214 255
124.464 31.4273 111.596 182 206 255
32.691 100.341 113.133 208 222 255
167.771 117.332 105.948 201 218 255
137.28 75.1045 108.125 189 210 255
106.52 151.993 120.772 255 0 0
90.8835 94.5575 109.842 255 250 243
47.0168 95.8824 121.548 219 228 255
107.502 132.702 115.33 255 238 223
182.203 84.3959 112.402 211 224 255
166.464 114.178 112.125 229 234 255
104.035 109.309 116.022 190 211 255
108.608 115.75 115.077 255 145 36
106.459 10.8387 108.576 209 223 255
107.475 117.184 109.29 255 250 244
74.3071 12.1815 100.666 203 218 255
129.397 135.884 112.243 255 200 156
94.3616 174.288 111.586 193 213 255
101.758 71.1327 116.72 255 241 228
54.3285 69.039 106.844 211 224 255
101.322 114.423 118.382 255 255 252
109.501 116.402 108.972 251 247 255
167.608 104.085 133.692 200 217 255
93.6738 174.423 111.661 198 215 255
94.358 174.29 111.574 193 212 255
128.873 75.8048 112.874 229 234 255
36.7923 175.721 111.118 199 216 255
142.543 47.3923 116.37 220 229 255
112.205 113.516 110.908 255 200 155
26.1192 169.057 110.324 204 219 255
106.978 52.9975 122.372 187 209 255
152.38 85.3585 116.843 226 233 255
117.699 116.251 111.958 255 220 192
163.888 160.925 109.159 199 216 255
53.3112 101.973 109.91 212 224 255
114.018 118.012 109.258 255 247 238
47.4317 160.476 117.029 214 225 255
109.909 104.939 115.112 237 239 255
187.411 120.593 111.975 196 214 255
94.3304 174.35 111.454 255 253 249
67.3662 136.974 106.949 207 221 255
73.4687 146.759 110.62 206 221 255
99.9957 195.273 112.062 223 231 255
102.487 69.4545 114.271 231 235 255
76.8314 66.4005 110.342 229 234 255
110.758 111.903 112.856 255 239 225
191.097 102.073 114.752 196 214 255
93.2229 152.103 115.718 255 251 255
218.201 74.7335 111.316 185 208 255
49.1749 93.8706 104.472 205 220 255
47.98 95.149 110.606 194 213 255
149.693 82.1934 109.938 255 74 0
147.535 82.3348 104.498 213 225 255
90.9048 73.611 114.991 207 221 255
100.11 95.2398 112.352 255 254 251
51.8237 131.061 110.303 198 216 255
94.3334 174.312 111.502 186 208 255
112.339 111.938 113.154 234 237 255
18.6541 180.849 114.413 182 205 255
64.2761 73.7311 109.983 227 233 255
66.508 129.28 105.996 212 224 255
92.0677 153.718 116.166 221 229 255
122.328 138.941 110.015 194 213 255
165.686 128.445 106.996 194 213 255
111.276 112.296 107.659 255 250 255
108.84 51.8786 106.594 214 225 255
91.1006 79.4106 111.253 224 231 255
89.1719 144.008 117.578 197 215 255
55.1467 57.9498 115.389 222 230 255
81.8224 59.6158 115.198 204 219 255
13.656 168.617 111.537 188 209 255
48.5842 113.991 120.442 196 214 255
90.4652 170.973 114.283 203 219 255
94.3292 174.303 111.518 202 218 255
39.5056 127.79 111.592 210 223 255
103.175 138.772 109.068 246 244 255
63.5335 78.1365 112.738 212 224 255
100.655 160.624 111.397 189 210 255
163.064 94.249 113.635 215 226 255
56.4272 167.349 113.906 196 214 255
103.28 61.0069 115.686 191 211 255
204.778 84.2267 114.503 198 215 255
102.945 78.0563 110.353 205 220 255
25.6161 152.445 116.781 203 219 255
94.2544 174.245 110.696 204 219 255
23.66 178.706 113.698 199 217 255
154.29 134.712 113.058 213 224 255
172.655 119.764 114.943 183 206 255
135.248 131.835 113.854 255 217 187
48.7407 92.241 107.196 198 216 255
36.1188 94.0686 111.709 193 212 255
108.867 115.123 118.497 255 240 227
162.86 94.4559 110.266 197 215 255
60.5606 82.5447 111.704 201 217 255
131.733 44.8824 114.659 194 213 255
76.6219 53.7557 115.511 197 215 255
111.275 115.002 116.154 255 221 194
9.73004 138.604 117.335 210 223 255
108.866 150.888 112.381 203 219 255
107.365 126.239 112.912 255 239 225
150.317 94.0936 113.006 193 213 255
61.8289 53.0134 110.03 211 224 255
113.353 150.543 107.364 207 221 255
79.2441 205.262 111.551 185 208 255
119.267 71.0541 113.878 193 212 255
110.013 107.656 113.139 202 218 255
58.7909 107.272 115.003 255 241 229
93.2858 24.8265 111.295 202 218 255
102.953 81.2043 107.395 208 222 255
70.3696 54.6124 111.631 233 236 255
88.1655 95.4102 107.857 255 248 241
41.1231 200.332 113.641 188 209 255
95.1291 91.8767 113.37 255 232 213
94.3061 174.316 111.345 232 236 255
63.7722 26.3663 108.045 226 233 255
133.988 185.459 109.45 203 219 255
122.081 84.5754 118.278 213 225 255
94.659 174.534 111.919 205 220 255
116.397 148.074 116.638 255 255 251
119.75 30.4692 112.932 197 215 255
103.46 119.188 107.692 255 255 252
112.815 150.095 110.586 201 217 255
94.3377 174.35 111.501 208 221 255
61.476 124.229 112.602 224 231 255
133.038 129.026 113.993 255 201 158
169.349 68.494 111.55 195 214 255
213.477 74.8083 113.705 190 211 255
168.723 141.455 115.922 197 215 255
97.0702 171.522 109.09 211 223 255
99.9474 87.4017 116.56 201 217 255
172.369 111.047 111.935 201 217 255
90.7874 103.724 110.356 255 212 178
16.1368 177.179 110.343 192 212 255
169.696 147.81 112.979 189 210 255
56.1116 165.691 114.296 207 221 255
108.667 112.257 113.264 255 242 230
113.76 110.973 113.975 255 242 229
149.098 125.868 114.754 216 226 255
76.0745 146.738 114.639 255 220 192
51.8773 115.091 129.198 203 219 255
59.2955 102.335 113.26 192 212 255
114.131 112.909 110.594 255 237 222
135.844 19.5552 111.488 188 210 255
192.423 79.7505 117.562 192 212 255
106.66 143.942 111.411 191 211 255
11.8272 75.6945 108.269 187 209 255
72.0535 96.3868 115.239 219 228 255
94.3619 174.284 111.599 197 215 255
75.0827 145.132 107.581 196 214 255
73.7039 132.234 111.215 255 249 241
53.5069 50.8928 111.167 231 235 255
93.5097 175.112 109.967 198 216 255
64.8022 71.8715 112.394 191 212 255
130.913 140.371 109.652 255 252 247
105.292 81.1696 115.081 255 250 243
9.30805 158.709 115.073 197 215 255
118.872 86.0453 108.926 226 232 255
123.972 165.695 113.136 193 212 255
54.0558 194.028 113.457 190 211 255
131.655 105.867 109.909 255 217 186
20.8152 136.189 111.891 191 211 255
132.28 138.265 112.497 216 226 255
120.615 39.2655 110.803 255 248 240
132.709 187.38 106.599 209 223 255
128.494 115.313 114.588 218 228 255
89.9368 67.1581 111.565 222 230 255
18.4183 164.386 111.696 210 223 255
118.262 73.279 104.948 204 219 255
65.4603 99.8749 123.974 203 219 255
183.172 93.8996 113.357 199 216 255
129.946 64.6824 112.919 230 235 255
94.3027 174.323 111.411 219 228 255
94.3431 174.318 111.507 255 253 249
192.352 161.366 115.467 196 214 255
111.252 201.267 113.403 184 207 255
40.8715 103.22 125.533 202 218 255
48.7873 116.057 111.21 204 219 255
141.456 83.805 118.28 211 223 255
94.3395 174.307 111.521 223 231 255
94.2775 173.992 111.373 197 215 255
111.452 112.025 113.207 255 230 209
129.373 73.1779 116.295 255 240 227
162.03 167.198 125.634 206 221 255
72.8271 45.6525 110.952 195 214 255
144.476 84.8014 115.779 229 234 255
221.026 128.98 115.992 177 202 255
29.4731 122.978 113.688 187 209 255
56.4939 107.568 111.923 255 253 249
37.0301 147.527 110.343 228 233 255
104.992 111.095 112.467 228 234 255
163.097 95.0401 109.347 230 235 255
116.904 140.092 110.483 233 237 255
155.134 53.5399 115.842 186 208 255
47.2219 104.232 108.631 255 249 255
54.603 132.561 116.836 218 228 255
118.689 141.899 110.983 206 221 255
169.85 167.423 113.912 197 215 255
53.6706 109.448 111.438 196 214 255
59.4086 67.7578 116.742 188 209 255
92.5541 176.035 109.169 188 209 255
73.0671 66.731 110.849 255 250 255
95.1081 92.0381 113.842 218 228 255
42.5307 137.919 107.735 216 227 255
164.515 95.3098 108.965 255 221 194
81.5779 178.429 112.236 202 218 255
134.854 75.2071 117.525 255 249 241
130.36 108.031 116.715 225 232 255
112.982 121.573 109.519 206 221 255
213.956 100.419 117.778 196 215 255
101.948 99.7405 110.321 255 224 199
100.546 104.922 111.718 247 245 255
56.8023 26.0568 109.847 173 200 255
175.721 123.924 108.53 244 242 255
92.8512 40.7808 112.758 206 220 255
165.295 87.104 122.164 254 248 255
106.851 80.3457 112.38 202 218 255
94.3401 174.307 111.523 207 221 255
113.005 111.622 112.712 215 226 255
144.476 177.291 117.466 193 213 255
106.545 91.2371 112.467 255 202 159
114.739 118.283 108.935 254 248 255
82.9102 57.8142 109.806 207 221 255
88.8732 134.83 111.646 213 225 255
151.299 135.265 112.374 206 220 255
110.955 115.784 117.357 255 236 219
200.079 130.864 116.386 205 220 255
46.1911 221.033 109.583 184 207 255
170.281 126.267 86.192 229 234 255
102.56 162.7 114.993 212 224 255
164.562 169.49 113.761 218 228 255
80.6591 135.449 110.184 213 224 255
71.9284 112.324 113.459 225 232 255
124.288 153.679 114.434 242 241 255
87.7547 141.927 109.876 255 227 204
113.683 115.783 110.135 255 237 222
132.23 114.964 108.025 255 246 236
99.8568 73.192 107.062 255 228 206
70.8923 12.2348 118.697 187 209 255
81.0093 133.063 112.406 228 234 255
220.685 135.918 117.683 188 209 255
163.625 87.4335 111.188 195 214 255
54.4382 122.873 110.454 197 215 255
98.1857 39.0102 115.478 223 231 255
152.847 153.388 114.058 208 222 255
55.0355 99.6714 112.593 237 239 255
144.001 55.6284 112.696 207 221 255
116.8 210.705 113.348 217 227 255
157.396 86.4469 102.265 203 219 255
157.492 54.3735 113.354 237 239 255
150.342 95.5846 113.028 201 218 255
100.099 149.342 112.917 217 227 255
112.237 17.9487 111.502 197 215 255
103.115 98.7635 117.656 224 231 255
116.004 103.735 110.882 255 252 247
16.1401 82.9144 112.803 224 231 255
215.358 132.377 110.495 180 204 255
102.844 204.51 111.122 204 220 255
76.9425 25.0096 130.872 185 207 255
104.675 51.918 115.828 228 234 255
93.8822 165.97 111.255 199 216 255
108.883 111.177 110.23 239 240 255
192.703 64.0137 108.79 190 211 255
123.545 135.857 108.286 255 209 172
171.284 143.17 106.727 201 217 255
18.7663 79.923 108.296 179 204 255
114.998 114.029 111.153 196 215 255
145.003 167.352 113.141 255 234 217
128.476 42.2301 118.795 199 216 255
37.8004 39.0094 112.466 198 216 255
62.6944 113.341 109.147 255 251 245
94.7856 28.2177 115.678 186 208 255
174.329 185.115 113.505 194 213 255
152.38 110.301 107.33 196 215 255
91.3809 142.91 110.286 228 234 255
124.352 134.017 105.046 255 248 240
103.084 86.3958 112.145 211 223 255
120.176 103.97 112.904 255 242 231
79.704 61.2372 107.727 204 219 255
79.2977 36.0636 112.381 195 214 255
114.82 115.643 110.12 244 243 255
92.847 159.869 111.619 200 217 255
109.501 122.113 114.133 208 222 255
97.5162 87.71 113.392 200 217 255
78.8937 108.526 106.28 211 223 255
94.3501 174.318 111.512 222 230 255
111.723 112.694 113.016 236 238 255
169.764 111.104 110.843 188 210 255
105.94 123.944 108.359 255 242 230
108.873 21.0873 120.372 198 216 255
146.906 170.5 110.36 184 207 255
165.481 165.542 122.528 197 215 255
110.758 140.769 118.85 219 228 255
91.7796 29.4044 112.021 191 211 255
56.8352 116.188 107.87 233 236 255
24.7458 74.4417 111.085 185 208 255
136.044 53.8522 115.441 199 216 255
189.45 135.014 115.966 187 209 255
130.211 99.5679 116.558 255 246 236
66.5502 123.963 122.258 247 244 255
72.5124 79.2411 113.994 197 215 255
106.846 162.816 108.056 255 226 203
42.5935 202.265 113.826 184 207 255
43.8637 111.181 112.476 200 217 255
64.4986 102.588 114.409 253 248 255
130.753 80.4766 112.741 255 222 196
94.3673 174.285 111.599 203 219 255
131.699 66.4512 113.528 196 215 255
161.498 60.3647 113.856 203 219 255
94.8502 175.088 112.252 217 227 255
101.126 99.7203 118.113 255 163 79
142.573 119.416 106.568 255 236 219
145.235 72.1895 120.221 211 223 255
94.8421 97.255 112.183 255 208 171
70.7084 64.5148 116.336 227 233 255
103.836 119.691 108.462 212 224 255
134.879 166.313 109.308 200 217 255
100.597 176.13 116.357 221 229 255
11.6364 156.488 110.176 183 206 255
190.275 73.0247 112.191 188 209 255
112.18 75.1758 111.952 218 228 255
68.3435 115.729 113.163 217 227 255
162.484 154.461 112.897 191 211 255
103.804 94.0827 111.313 236 238 255
131.657 154.18 111.221 189 210 255
99.6043 178.814 110.743 199 216 255
114.089 118.44 109.761 255 231 211
94.2776 87.3589 113.169 225 232 255
101.812 76.97 113.004 225 232 255
77.3859 128.698 114.925 214 225 255
114.88 121.896 97.5578 216 226 255
119.201 71.6553 111.962 222 230 255
129.251 96.0792 107.857 194 213 255
161.191 162.439 111.648 200 217 255
149.885 145.186 106.496 212 224 255
14.5752 175.55 110.516 191 211 255
160.569 56.269 112.094 194 213 255
113.584 113.144 113.676 255 247 238
108.661 111.012 114.455 208 222 255
132.865 90.8607 113.063 190 211 255
49.8479 141.04 111.908 186 208 255
27.2781 73.4213 112.402 195 214 255
83.5104 88.4938 108.567 214 225 255
121.55 15.6324 108.983 187 209 255
111.166 105.113 110.681 239 240 255
118.271 11.1114 114.108 200 217 255
115.716 99.213 110.572 218 228 255
94.3614 174.24 111.627 243 242 255
153.486 53.6005 118.293 201 218 255
50.855 107.45 106.329 202 218 255
56.6782 120.697 113.305 207 221 255
113.083 23.2838 112.484 183 206 255
134.97 86.5774 109.57 221 230 255
99.06 8.7182 108.028 196 214 255
61.6456 106.817 111.662 202 218 255
106.156 109.793 112.553 255 252 247
52.0966 110.257 106.279 201 217 255
53.1038 111.777 113.539 201 217 255
115.658 152.872 110.801 255 252 247
140.642 141.216 114.203 206 220 255
113.61 112.709 112.127 214 225 255
35.1476 113.305 112.209 191 211 255
107.882 123.275 109.97 255 210 173
54.9678 105.67 111.862 226 232 255
134.818 17.7811 111.869 201 217 255
113.301 78.3724 112.208 192 212 255
110.765 110.937 109.306 255 202 159
140.361 77.6465 110.16 217 227 255
113.027 75.8168 111.631 217 227 255
71.2584 89.1435 113.156 217 227 255
119.439 77.8242 112.074 221 229 255
101.993 94.7641 111.916 212 224 255
68.0887 59.1647 114.989 200 217 255
160.2 149.293 119.649 191 211 255
107.878 132.536 111.157 255 220 193
122.142 84.1325 109.532 255 236 220
82.0827 35.403 109.064 179 203 255
132.739 63.3239 118.219 203 219 255
104.036 100.095 110.998 189 210 255
111.672 133.204 111.54 232 236 255
113.783 113.23 110.201 255 252 247
105.654 107.115 111.741 255 230 210
67.7117 117.45 114.935 255 251 245
106.027 94.4319 108.806 214 225 255
127.411 154.323 113.311 255 220 193
119.26 107.767 113.55 255 211 176
138.763 140.223 116.296 213 225 255
113.919 152.276 113.903 207 221 255
49.4886 45.8594 111.497 202 218 255
96.6883 172.087 109.827 247 245 255
189.205 0.229833 100.758 181 205 255
97.8401 137.601 118.272 255 253 249
190.248 91.0235 114.907 196 214 255
92.3745 138.041 111.913 253 248 255
195.754 89.6196 111.271 201 217 255
102.089 171.609 110.072 203 219 255
119.047 219.004 101.003 202 218 255
94.3249 174.338 111.457 207 221 255
94.3038 119.918 107.644 255 245 235
102.6 94.58 114.899 234 237 255
107.349 123.575 109.183 226 232 255
187.202 116.073 109.408 217 227 255
142.582 178.35 112.232 213 225 255
126.483 156.967 111.124 217 227 255
115.741 145.976 109.672 255 238 223
217.137 100.707 113.165 180 204 255
106.385 113.54 107.014 231 235 255
113.576 114.408 110.056 255 209 172
48.4111 78.4912 114.182 194 213 255
76.2686 95.3685 112.838 231 235 255
115.23 115.731 110.925 255 254 251
81.6053 156.08 115.661 194 213 255
102.82 98.8381 117.877 255 227 205
149.758 44.7692 114.634 196 215 255
99.6817 127.047 113.857 255 234 217
201.154 35.2838 111.562 185 208 255
114.179 109.789 112.96 255 166 86
112.563 107.636 115.464 243 242 255
125.277 151.366 112.757 202 218 255
67.3294 137.488 123.355 212 224 255
32.4362 176.777 114.964 191 211 255
140.795 87.1989 114.503 199 216 255
86.3777 211.299 109.896 176 202 255
145.869 174.366 111.098 190 211 255
133.879 45.281 117.594 198 215 255
129.066 71.4659 117.446 212 224 255
93.8823 173.414 111.453 255 253 249
18.1184 150.585 115.243 183 206 255
142.78 71.7018 123.184 193 212 255
139.118 125.679 113.067 255 245 236
55.8364 91.026 110.934 201 218 255
136.647 34.156 112.997 199 216 255
138.223 110.99 110.007 216 227 255
174.024 26.0054 108.882 201 217 255
85.903 80.9193 113.567 255 243 232
168.572 132.526 123.57 208 221 255
50.1185 97.4971 125.628 192 212 255
104.874 95.8367 120.505 255 245 234
79.4037 119.26 106.693 205 220 255
138.045 131.014 115.195 207 221 255
93.7383 174.196 112.029 255 231 212
109.775 160.782 111.107 201 217 255
33.9289 110.187 111.565 189 210 255
197.06 114.155 117 190 211 255
94.3618 174.287 111.583 221 230 255
105.362 107.082 114.559 197 215 255
155.355 119.638 116.99 255 253 249
63.2398 127.29 114.245 199 216 255
94.3472 174.299 111.544 212 224 255
140.216 169.211 112.229 196 214 255
143.284 76.8173 113.072 224 231 255
53.2332 105.161 117.412 195 214 255
99.4335 74.2909 115.321 255 209 173
98.8246 126.586 108.023 255 230 210
94.3317 174.33 111.483 237 239 255
127.501 162.635 112.59 255 251 246
190.624 146.874 113.464 204 219 255
180.924 129.091 116.023 193 212 255
169.625 134.544 107.017 209 223 255
82.6565 71.9397 115.756 234 237 255
204.009 40.1395 112.464 182 206 255
159.989 84.4609 114.431 201 218 255
82.637 64.2058 112.715 217 227 255
169.353 111.068 86.5556 209 222 255
154.861 52.4756 117.432 226 232 255
109.012 119.88 109.139 255 162 77
34.5649 45.4754 114.181 194 213 255
94.2691 177.466 105.491 255 241 229
25.0003 60.9986 114.908 205 220 255
87.9818 135.971 115.009 255 238 223
123.8 158.554 113.352 226 232 255
159.725 53.6649 114.534 200 217 255
89.971 223.816 108.061 194 213 255
156.779 90.3653 108.067 193 213 255
110.599 175.281 110.149 181 205 255
21.782 174.769 110.082 192 212 255
87.7272 100.58 112.233 255 178 113
134.269 142.672 116.085 255 250 243
85.6601 37.7215 115.307 196 214 255
114.062 117.709 109.747 255 246 237
206.035 103.708 111.84 191 211 255
45.2413 90.0851 112.748 181 205 255
162.497 130.359 110.716 209 222 255
151.528 74.9565 114.394 212 224 255
44.5848 206.704 111.22 192 212 255
96.6527 168.498 112.483 255 253 249
168.409 13.7788 110.577 189 210 255
104.98 158.014 110.954 255 183 123
76.7999 125.728 113.726 212 224 255
145.568 88.1476 107.964 199 216 255
130.386 138.428 111.583 207 221 255
79.8435 184.227 113.752 201 217 255
104.666 49.9313 116.956 217 227 255
121.898 132.741 109.022 243 242 255
126.639 99.5511 106.507 255 217 186
179.07 66.0582 110.434 198 216 255
107.608 169.734 109.105 192 212 255
137.697 160.115 112.175 255 242 230
126.909 66.2618 104.854 218 228 255
86.9295 37.3112 115.522 199 216 255
95.4316 176.591 108.64 221 230 255
130.204 122.164 115.918 206 221 255
127.686 156.334 111.617 209 222 255
158.011 39.0244 116.18 196 214 255
132.033 81.4174 114.739 238 239 255
110.395 200.135 107.576 193 212 255
127.938 91.3993 118.387 230 235 255
152.18 154.74 110.118 188 209 255
143.847 43.7887 112.723 226 232 255
110.285 153.167 116.099 243 242 255
132.826 122.713 113.423 255 237 222
98.6547 163.435 110.226 182 206 255
94.3736 174.285 111.611 207 221 255
49.8499 33.3644 141.622 189 210 255
90.8907 155.29 109.868 198 216 255
59.3366 137.539 113.563 197 215 255
72.4131 88.5342 109.226 217 227 255
119.714 53.0321 113.28 187 209 255
112.8 111.356 113.752 255 231 212
58.8988 127.336 108.837 217 227 255
123.34 137.399 119.82 255 253 249
54.6816 125.692 107.791 193 212 255
2.80529 90.6714 109.862 190 211 255
104.73 177.144 109.781 208 222 255
134.439 100.464 107.617 255 207 169
94.2356 59.2895 107.5 255 254 251
138.733 75.9827 114.706 255 231 211
34.8066 146.071 116.573 186 208 255
161.589 105.651 105.187 201 217 255
47.6066 145.626 111.892 191 211 255
92.862 155.123 114.713 217 227 255
108.904 117.237 113.47 214 225 255
103.072 205.331 98.8427 198 215 255
103.063 117.979 108.739 233 237 255
169.967 133.459 126.388 197 215 255
176.75 76.0038 114.783 189 210 255
82.3587 106.801 103.949 255 247 239
105.829 112.373 108.567 255 202 159
94.3405 174.306 111.522 189 210 255
112.236 42.1705 109.995 202 218 255
53.6067 74.6733 109.865 200 217 255
94.6514 131.973 117.215 255 235 219
91.9834 124.898 115.32 255 254 250
102.904 107.624 115.12 207 221 255
108.942 155.419 109.214 255 246 237
170.006 204.155 130.761 186 208 255
147.574 87.801 127.397 194 213 255
169.372 107.363 100.851 204 219 255
121.174 97.2253 109.906 192 212 255
53.6555 69.3052 112.69 195 214 255
206.598 132.124 115.324 183 206 255
120.31 85.8704 113.677 211 223 255
108.16 108.553 111.79 255 239 225
30.2792 181.803 109.101 181 205 255
118.923 72.0653 112.838 255 232 214
76.0739 189.288 111.333 195 214 255
148.317 147.68 115.634 255 239 226
146.238 144.682 110.034 222 230 255
70.6737 62.941 114.237 255 250 244
94.3065 174.2 111.322 203 219 255
108.515 124.685 109.497 255 209 172
111.875 113.154 111.829 255 241 229
139.585 147.299 108.692 255 245 235
62.9711 153.163 119.786 212 224 255
93.8969 174.863 111.7 255 251 246
95.0348 110.344 107.908 255 254 250
136.648 72.365 113.255 202 218 255
101.676 130.602 113.79 255 239 225
46.7031 111.68 113.249 220 229 255
12.5006 92.0057 111.694 203 219 255
18.1733 180.032 111.636 192 212 255
89.3077 108.182 110.92 252 247 255
23.7698 128.731 112.667 194 213 255
94.3658 174.284 111.6 211 224 255
107.274 162.802 115.639 255 184 125
162.459 187.474 112.029 194 213 255
140.229 108.738 111.249 255 118 0
70.7273 175.146 113.167 214 225 255
47.1934 154.483 110.979 198 215 255
41.8989 129.469 110.482 203 219 255
136.082 17.929 115.407 255 248 240
89.6788 206.038 119.454 187 209 255
162.308 143.82 91.805 199 216 255
114.076 78.572 115.08 255 254 251
5.02178 115.854 115.319 190 210 255
105.22 107.543 114.873 207 221 255
43.1297 146.809 114.51 191 211 255
154.962 92.9256 108.558 210 223 255
91.1392 152.809 125.742 223 231 255
165.011 92.9486 112.002 206 221 255
206.308 58.0438 110.506 199 216 255
67.0656 27.9001 108.341 191 211 255
122.102 154.255 113.724 245 243 255
99.5635 80.6441 111.552 204 219 255
65.2939 146.057 101.194 203 219 255
48.95 106.514 120.77 227 233 255
112.907 111.4 114.216 225 232 255
114.797 106.424 110.123 205 220 255
111.213 112.094 109.634 238 239 255
66.5826 98.6833 116.251 196 214 255
87.6046 131.546 114.923 216 227 255
110.379 124.498 110.783 212 224 255
89.9947 123.893 111.046 255 255 251
112.683 126.294 117.45 255 192 140
110.622 110.511 116.583 255 236 220
25.9975 198.652 103.832 203 218 255
103.182 86.0916 117.775 190 211 255
159.57 91.598 111.538 198 216 255
166.332 100.856 106.223 181 205 255
77.7681 92.5485 108.914 203 219 255
98.8152 78.2544 113.672 209 222 255
99.6617 129.277 112.137 255 217 188
151.298 171.305 110.814 199 216 255
94.3406 174.264 111.33 255 248 240
129.903 130.031 112.318 210 223 255
195.357 11.1528 112.865 179 203 255
76.0084 192.132 114.005 193 213 255
169.313 119.885 107.1 206 220 255
107.489 82.2833 105.766 255 252 247
145.9 90.5288 110.991 223 231 255
112.463 111.793 113.087 255 231 211
104.804 110.125 102.968 225 232 255
94.3065 174.322 111.496 214 225 255
140.839 36.3014 111.024 221 230 255
94.6056 174.15 112.055 226 232 255
