ply
format ascii 1.0
element vertex 1341
property float x
property float y
property float z
property uchar red
property uchar green
property uchar blue
end_header
128.598 88.6296 108.556 219 228 255
93.7436 175.652 111.562 198 216 255
6.37177 113.353 107.42 188 210 255
131.532 26.0784 110 212 224 255
117.082 113.608 112.508 255 254 250
94.5444 175.642 111.773 205 220 255
130.468 102.486 121.462 198 216 255
186.908 74.0719 112.808 192 212 255
103.312 170.137 111.376 183 206 255
77.2329 134.122 106.551 255 213 179
68.2822 92.392 112.017 210 223 255
142.852 91.5433 105.275 255 197 150
133.288 110.144 116.508 225 232 255
54.4163 204.327 114.915 186 208 255
11.7836 70.8614 112.965 195 214 255
93.713 175.527 111.543 232 236 255
203.116 162.864 115.104 188 209 255
141.755 111.52 108.493 219 228 255
109.708 129.933 108.607 255 250 255
83.9333 111.602 115.623 215 226 255
106.632 126.951 110.918 202 218 255
83.3285 93.7191 120.2 224 231 255
114.805 150.006 108.667 208 222 255
179.572 173.318 112.06 188 209 255
135.29 180.211 108.893 251 246 255
79.2258 94.6981 116.389 202 218 255
148.715 77.1123 111.297 199 216 255
162.989 164.77 107.955 200 217 255
11.1266 84.563 113.369 180 204 255
98.0321 176.695 114.537 207 221 255
91.5129 71.5259 111.847 192 212 255
128.414 74.602 113.061 227 233 255
102.335 71.3673 110.23 246 244 255
170.154 141.625 112.301 187 209 255
94.5063 176.096 110.304 190 211 255
138.071 178.515 115.599 186 208 255
118.737 156.505 107.584 187 209 255
189.244 184.965 112.357 187 208 255
88.485 9.6098 110.392 195 214 255
161.203 63.3845 112.109 200 217 255
143.68 104.008 106.387 255 213 180
113.82 120.553 117.152 255 249 255
149.262 51.9292 116.476 205 220 255
70.2113 41.5996 112.137 203 219 255
161.654 121.679 112.866 214 225 255
82.3205 40.8097 112.536 197 215 255
83.7731 128.348 113.169 197 215 255
76.1362 107.667 118.292 207 221 255
165.969 95.469 101.822 198 216 255
142.815 82.9792 114.146 221 229 255
73.3949 143.574 114.837 202 218 255
74.3276 139.763 110.636 255 248 240
128.156 61.9163 116.785 199 216 255
93.78 175.577 111.536 202 218 255
133.045 174.613 111.713 212 224 255
114.269 94.5921 119.012 203 219 255
93.0365 82.9351 112.252 210 223 255
176.453 80.7865 110.347 195 214 255
128.375 74.5711 111.18 194 213 255
60.6763 95.0849 108.405 255 231 211
201.234 96.4359 109.463 201 217 255
66.0461 137.26 114.783 232 236 255
98.6414 151.284 103.534 255 240 227
167.783 137.398 112.707 255 215 183
101.687 199.185 111.673 196 214 255
104.711 62.6755 111.667 195 214 255
119.182 135.898 109.64 199 216 255
93.7875 175.536 111.466 219 228 255
104.389 55.8731 110.005 191 211 255
119.157 118.582 103.685 210 223 255
176.393 37.6863 113.855 194 213 255
207.107 159.548 118.986 186 208 255
38.9727 141.382 107.839 200 217 255
86.8424 127.332 109.993 219 229 255
164.594 204.996 111.456 181 205 255
53.2349 46.1737 117.68 203 219 255
150.492 118.295 104.027 198 215 255
179.006 105.532 114.288 180 204 255
93.9226 176.042 111.098 255 245 235
24.759 87.1213 114.707 211 224 255
87.3185 102.474 104.491 243 242 255
79.7944 39.6458 129.136 185 208 255
85.4663 83.036 104.541 255 248 241
137.121 146.097 113.447 255 234 217
105.818 61.9813 118.315 194 213 255
59.6567 118.691 115.772 255 216 185
137.118 73.0853 113.623 204 220 255
94.15 160.3 114.476 248 245 255
51.2274 159.145 112.189 217 227 255
129.103 155.341 108.021 201 217 255
165.112 14.2702 112.168 194 213 255
46.8994 207.042 112.194 178 203 255
93.1509 131.104 102.182 255 216 185
200.406 72.3261 115.611 199 216 255
90.5732 104.847 110.733 255 236 221
101.495 108.469 116.536 255 254 250
154.757 165.278 121.211 189 210 255
142.654 110.867 105.909 255 147 42
69.3973 104.464 117.199 255 244 233
93.7697 175.581 111.532 209 222 255
43.4142 141.191 112.049 197 215 255
84.2436 125.828 105.318 255 247 239
94.441 148.036 111.934 255 249 242
116.382 104.545 116.911 255 224 199
132.227 172.096 112.463 224 231 255
99.6058 161.595 112.859 205 220 255
170.605 51.7218 113.224 226 232 255
93.7774 175.506 111.462 222 230 255
140.598 75.9125 115.78 255 247 238
125.175 76.2506 107.559 224 231 255
107.356 27.0127 104.631 194 213 255
49.5557 80.6433 105.379 219 228 255
80.1352 26.4293 115.405 184 207 255
65.1794 62.8209 115.246 223 231 255
103.554 119.495 119.115 237 238 255
93.7771 175.558 111.506 197 215 255
98.5578 175.017 113.928 202 218 255
60.6554 133.566 112.457 198 216 255
90.0173 55.6126 119.786 255 239 225
93.8519 175.461 111.52 209 222 255
97.2341 84.9198 106.337 255 249 241
132.151 160.527 115.551 207 221 255
93.7959 175.494 111.446 202 218 255
146.293 138.423 110.134 233 236 255
93.581 175.239 111.574 215 226 255
93.7655 175.628 111.563 192 212 255
170.83 132.759 107.144 203 218 255
90.2364 140.329 121.108 201 218 255
187.367 146.909 115.439 210 223 255
122.309 126.228 112.874 210 223 255
102.627 139.721 117.751 199 216 255
148.93 81.4431 115.626 255 230 210
179.203 117.519 115.326 213 225 255
52.3348 96.5524 112.252 192 212 255
130.532 90.1334 109.181 219 229 255
116.935 77.7984 112.924 255 250 244
42.0315 164.895 114.238 183 206 255
74.2901 135.848 99.8592 193 213 255
219.712 91.4816 117.153 190 211 255
32.5857 127.89 111.559 189 210 255
176.568 110.234 113.407 252 247 255
121.481 131.149 109.028 255 236 219
146.818 69.1564 113.047 218 228 255
126.662 139.092 108.106 220 229 255
111.691 77.8878 109.311 255 249 242
50.3119 107.18 109.243 197 215 255
130.275 63.2276 118.159 197 215 255
53.5757 182.745 109.731 204 219 255
82.0436 99.2393 110.639 247 245 255
165.024 93.0135 110.712 227 233 255
150.141 106.944 117.336 255 236 220
149.084 96.0153 106.179 211 223 255
52.4453 99.1963 112.768 233 236 255
126.144 65.0667 113.973 197 215 255
76.9099 164.879 113.12 189 210 255
109.149 149.137 114.74 254 248 255
112.684 119.454 108.199 225 232 255
27.4029 63.6786 114.058 191 211 255
94.4483 121.536 109.773 255 222 196
118.13 115.364 116.544 255 234 217
167.496 108.497 112.857 210 223 255
112.904 160.154 114.763 212 224 255
114.256 121.407 104.059 208 222 255
151.372 102.249 106.328 255 236 220
155.703 131.081 110.751 216 226 255
135.639 93.0818 116.306 223 231 255
70.0622 77.6269 108.824 234 237 255
165.957 103.981 111.912 213 224 255
128.313 99.915 113.533 255 233 215
146.792 168.91 109.684 196 215 255
160.343 93.9938 108.839 246 244 255
79.7628 120.952 111.03 255 240 227
59.5743 57.821 112.605 219 228 255
93.7687 175.47 111.437 255 247 239
113.724 98.5918 107.161 255 238 224
99.109 148.64 107.033 255 248 240
157.431 159.659 113.051 235 238 255
92.7569 148.559 111.708 255 232 212
97.783 76.7859 117.108 255 230 210
136.189 81.7419 113.245 224 231 255
93.7126 175.742 111.64 222 230 255
165.846 134.866 112.001 198 216 255
123.352 162.482 114.537 212 224 255
47.9232 104.136 122.597 242 242 255
93.7691 175.592 111.538 255 231 212
176.904 98.7864 113.209 189 210 255
119.313 147.965 108.043 255 203 161
78.1836 98.9939 118.927 207 221 255
93.7661 175.442 111.615 195 214 255
127.795 128.597 119.593 255 231 211
73.5583 209.492 120.571 185 207 255
113.956 112.634 114.944 255 226 202
82.4409 100.879 120.314 224 231 255
132.716 130.542 114.649 229 234 255
113.946 128.931 116.117 197 215 255
127.232 163.715 110.162 200 217 255
73.2056 135.502 114.801 195 214 255
124.398 134.749 118.648 255 224 199
71.1633 157.235 112.468 191 211 255
88.9006 165.457 114.678 255 252 247
69.2874 92.2629 104.96 245 243 255
130.314 86.0611 104.097 205 220 255
127.18 112.872 109.46 255 242 230
83.6136 60.2951 105.174 199 216 255
79.9507 102.582 117.473 248 245 255
136.328 140.427 110.593 255 223 197
113.474 138.201 114.732 255 241 228
136.657 73.953 111.962 228 234 255
162.291 40.0097 111.571 220 229 255
112.748 114.675 101.286 255 200 156
126.654 138.193 111.701 231 235 255
75.334 82.726 113.895 192 212 255
151.123 153.941 110.959 255 197 149
114.854 74.9514 116.997 255 250 243
95.1916 175.655 110.108 255 249 241
25.1194 61.9722 116.851 188 210 255
128.6 100.025 115.899 214 225 255
148.062 13.7407 111.601 192 212 255
118.036 59.9257 118.099 255 245 234
130.365 52.4146 111.684 240 241 255
85.2493 195.757 110.049 200 217 255
186.998 84.2843 110.702 197 215 255
159.801 122.513 119.256 219 228 255
70.4963 103.703 109.299 214 225 255
50.0186 69.8665 112.276 202 218 255
137.158 116.851 116.91 204 219 255
116.922 79.7332 110.071 255 247 239
135.021 159.769 118.414 255 233 215
94.5093 204.798 112.503 200 217 255
94.9905 149.186 113.966 216 226 255
104.304 114.49 104.756 219 228 255
150.901 123.673 107.913 209 222 255
141.133 124.1 110.082 225 232 255
99.1068 84.0499 111.191 208 222 255
91.1448 107.142 115.563 244 243 255
67.7709 48.8212 111.513 255 249 255
163.331 149.985 105.457 230 235 255
57.9055 122.29 114.329 196 214 255
52.8837 117.326 115.44 195 214 255
46.5832 113.437 103.257 206 220 255
151.248 139.775 107.593 211 224 255
131.232 160.029 109.804 252 247 255
93.0087 175.832 111.165 207 221 255
164.564 116.738 114.074 207 221 255
108.341 46.7297 106.738 210 223 255
93.7232 175.689 111.618 202 218 255
89.9815 114.067 114.616 255 174 104
136.396 193.513 110.554 198 216 255
131.608 18.6259 111.164 194 213 255
163.883 133.066 117.332 212 224 255
80.944 138.039 119.265 255 252 247
144.857 87.8924 109.113 215 226 255
136.7 78.1175 117.635 228 234 255
164.075 57.7869 113.531 203 218 255
212.689 106.383 113.196 200 217 255
92.6949 164.073 110.749 201 218 255
174.768 119.814 113.42 198 216 255
131.727 99.4536 103.161 203 218 255
126.978 132.061 106.134 255 242 230
98.2158 123.243 115.22 255 238 224
104.961 149.506 116.747 234 237 255
112.268 103.5 113.212 255 215 183
59.3393 115.521 107.683 216 226 255
155.078 87.9237 108.627 255 251 245
122.108 70.5712 110.158 197 215 255
93.748 175.637 111.584 193 213 255
173.637 68.5371 113.69 198 215 255
92.941 171.94 112.318 203 219 255
157.522 98.5035 112.943 204 219 255
104.297 96.3512 114.092 207 221 255
114.364 135.387 112.348 199 216 255
39.9117 71.6611 109.997 190 210 255
85.8708 97.2329 114.667 208 222 255
117.854 193.025 112.662 180 204 255
82.687 105.793 107.037 214 225 255
93.7729 175.575 111.522 247 245 255
126.756 43.9035 117.684 213 225 255
61.3892 70.8309 113.197 198 216 255
63.2219 138.358 114.353 192 212 255
145.227 172.357 129.014 211 224 255
52.7085 99.2064 111.871 200 217 255
145.717 77.8588 114.153 199 216 255
110.668 162.435 111.624 211 223 255
92.2908 105.184 119.874 253 248 255
22.5654 152.482 112.139 198 216 255
125.791 54.4117 110.394 205 220 255
93.4695 87.3208 102.1 227 233 255
151.216 121.935 110.368 205 220 255
117.731 125.519 118.783 198 216 255
123.502 117.058 114.302 255 242 230
169.668 191.563 114.401 197 215 255
56.5559 93.5836 116.807 201 217 255
152.996 148.758 112.847 219 228 255
77.1512 101.15 104.281 193 212 255
34.0993 103.293 112.225 204 219 255
66.8085 75.4772 107.02 213 225 255
67.2911 137.834 109.797 255 253 249
120.417 59.9536 112.197 208 222 255
61.426 153.457 113.036 203 219 255
122.844 112.457 112.329 255 254 249
97.2395 155.836 109.998 206 221 255
98.7059 174.918 109.191 240 240 255
179.876 50.5963 114.622 184 207 255
133.694 91.5268 107.482 255 214 182
38.8404 79.2344 114.878 183 206 255
107.657 162.72 110.294 251 247 255
93.9195 175.612 111.429 186 208 255
77.6759 109.146 119.445 207 221 255
74.5728 221.066 103.743 201 217 255
82.9528 131.084 116.625 228 234 255
121.027 160.796 109.376 255 240 227
31.8886 50.9868 113.198 182 205 255
117.765 112.446 117.738 255 199 154
165.32 133.742 111.583 206 221 255
136.749 87.0259 120.407 255 251 246
129.476 153.798 117.824 199 217 255
126.817 115.069 119.582 255 141 25
91.38 95.45 105.68 217 227 255
105.147 19.516 112.783 183 206 255
124.837 63.3492 115.078 226 232 255
111.463 147.598 110.288 211 223 255
190.581 143.171 113.257 211 223 255
135.839 93.12 114.325 227 233 255
98.6309 159.713 110.138 255 250 243
80.0779 148.886 115.654 192 212 255
94.2363 175.736 112.294 255 250 244
115.637 163.487 112.925 226 232 255
114.007 133.111 110.403 255 235 219
136.996 113.215 101.793 224 231 255
160.335 155.845 111.771 255 242 231
119.372 107.562 101.542 255 247 239
111.49 118.32 110.048 198 215 255
83.3913 165.088 115.948 248 245 255
109.787 76.4624 111.171 231 235 255
24.2715 153.736 112.235 188 210 255
84.1242 172.27 114.391 181 205 255
115.464 156.002 111.586 206 221 255
169.863 112.301 112.461 255 250 255
96.6895 58.3127 109.181 202 218 255
73.9625 37.7558 112.952 201 217 255
44.4656 196.272 110.711 198 216 255
185.624 81.1222 108.781 198 216 255
132.996 152.119 117.946 216 227 255
118.911 124.635 111.84 255 188 133
86.3117 117.463 115.855 241 241 255
40.9261 39.8299 112.093 188 209 255
151.305 95.4381 115.306 204 219 255
103.678 120.434 107.743 255 229 208
96.8922 147.158 114.208 221 229 255
162.521 36.6963 115.942 190 211 255
71.2324 49.6628 113.89 222 230 255
168.947 109.74 111.975 220 229 255
69.3536 44.7075 112.675 198 216 255
94.035 175.534 110.862 211 224 255
133.893 98.9349 116.446 255 249 241
79.2528 135.301 110.591 255 248 240
152.954 160.335 109.324 195 214 255
118.112 106.007 110.825 255 188 132
102.279 109.537 100.39 255 239 225
102.968 154.989 111.297 197 215 255
132.858 30.6441 107.564 194 213 255
159.493 120.266 111.667 255 209 173
173.83 125.67 121.978 215 226 255
96.1572 29.4798 112.21 195 214 255
75.5027 56.9563 112.112 220 229 255
82.4226 211.894 114.006 184 207 255
93.0716 142.179 120.727 220 229 255
121.52 69.0298 110.063 198 215 255
170.076 111.97 115.902 188 209 255
79.8021 153.522 114.285 206 221 255
171.812 115.312 112.233 201 217 255
133.249 145.377 109.791 255 250 243
82.5246 129.169 118.376 255 250 255
58.546 184.12 113.868 223 231 255
118.738 125.493 120.249 255 114 0
134.754 132.708 113.902 216 227 255
110.759 10.4057 113.836 183 206 255
123.302 105.224 115.471 192 212 255
101.542 116.09 118.309 255 221 194
143.221 192.601 105.31 206 220 255
43.0532 47.1722 109.493 205 220 255
94.3314 57.7238 109.153 189 210 255
53.8926 102.355 112.285 236 238 255
88.5457 97.0699 104.521 255 233 214
82.235 66.5234 118.38 222 230 255
53.15 75.2004 129.865 218 228 255
47.0678 98.5082 104.722 207 221 255
52.2206 95.0593 112.3 228 233 255
130.534 207.406 107.978 192 212 255
113.247 52.8784 116.946 203 219 255
84.8531 41.6626 112.454 208 222 255
22.327 150.521 112.578 191 211 255
102.881 97.4614 112.271 255 186 129
125.864 57.0229 113.366 210 223 255
41.4604 178.316 112.498 189 210 255
108.609 106.912 106.731 255 248 241
159.218 52.7524 109.034 207 221 255
168.184 16.2607 105.721 187 209 255
106.194 90.185 110.687 214 225 255
163.735 44.5105 111.476 199 216 255
157.197 113.922 107.146 212 224 255
121.584 30.1804 113.736 214 225 255
107.103 101.711 119.692 255 193 143
100.604 109.849 104.088 255 138 17
107.085 152.039 112.258 255 246 237
100.702 23.3396 109.776 207 221 255
103.511 167.668 109.537 210 223 255
170.42 91.701 112.261 188 209 255
116.131 87.3915 110.768 229 234 255
92.9317 175.854 110.995 190 211 255
41.1953 196.946 111.86 185 207 255
174.406 112.526 110.929 255 251 244
57.3929 130.861 111.685 209 222 255
214.799 75.8022 113.853 191 211 255
125.514 124.782 113.897 239 240 255
128.625 130.307 115.09 218 228 255
86.831 214.871 107.654 187 209 255
165.755 39.4237 108.693 194 213 255
138.947 115.934 108.52 209 222 255
65.1276 134.886 128.784 198 215 255
64.5923 102.915 118.638 255 190 136
151.642 82.3596 113.313 211 224 255
80.962 107.814 118.895 255 253 248
105.494 152.327 111.64 208 222 255
64.5583 69.4836 110.635 183 206 255
152.427 127.68 119.073 255 246 237
167.324 110.683 112.335 208 222 255
105.763 160.219 112.028 200 217 255
95.6108 34.7868 111.809 203 218 255
27.9703 184.585 112.405 195 214 255
89.5484 118.558 119.052 213 225 255
128.846 75.2417 119.801 214 225 255
64.2298 222.191 117.457 196 214 255
22.2575 153.33 111.68 210 223 255
144.352 143.212 104.371 227 233 255
89.8895 94.2482 107.149 203 218 255
167.397 108.206 109.088 215 226 255
109.438 101.296 101.908 201 217 255
93.5965 145.164 110.12 255 182 120
102.535 91.5976 111.74 255 223 197
55.9037 175.711 114.199 194 213 255
216.496 94.5743 110.216 191 211 255
55.1848 196.567 112.694 184 207 255
76.7402 149.222 110.414 231 236 255
61.3601 126.523 116.227 207 221 255
70.2514 29.1442 114.04 192 212 255
136.769 150.486 117.332 193 212 255
91.9592 169.349 111.145 208 222 255
137.117 159.37 108.873 255 242 230
107.931 159.049 110.901 220 229 255
147.327 41.1952 116.562 208 222 255
111.3 168.601 110.676 198 215 255
167.237 188.732 110.843 205 220 255
27.0496 97.8583 112.636 207 221 255
57.9271 113.913 110.813 234 237 255
84.356 130.391 103.876 255 206 166
203.224 174.795 117.708 194 213 255
127.444 110.88 105.89 255 197 149
85.1881 140.308 118.974 216 227 255
102.496 127.75 109.961 248 245 255
108.327 110.179 104.548 255 254 251
99.103 85.2884 113.08 255 213 179
165.134 109.017 109.15 199 216 255
132.654 90.6271 115.419 255 235 219
122.539 118.955 116.558 227 233 255
93.7937 175.463 111.46 255 217 186
129.661 124.571 107.37 224 231 255
125.017 182.804 109.285 207 221 255
86.585 150.217 119.311 222 230 255
68.262 13.3911 113.347 183 206 255
167.438 92.8209 112.686 180 204 255
7.0776 153.688 114.614 186 208 255
74.4098 37.9935 111.17 255 232 214
180.938 137.706 115.033 182 206 255
138.974 71.2202 122.155 191 211 255
145.926 52.1489 114.687 188 210 255
96.0679 100.303 112.919 255 228 207
195.533 158.755 112.517 188 209 255
93.7443 175.566 111.519 249 245 255
112.202 114.698 102.435 255 182 120
133.111 180 111.727 224 231 255
80.2445 35.2581 113.249 212 224 255
147.998 210.812 101.143 198 216 255
38.8302 194.132 112.385 183 206 255
140.012 187.106 112.411 203 219 255
153.501 150.629 114.685 208 222 255
80.8783 105.665 118.495 204 219 255
141.845 96.391 108.8 231 235 255
108.387 151.178 112.187 212 224 255
175.912 167.105 114.512 185 207 255
47.7134 161.159 113.619 189 210 255
38.8416 160.815 111.827 215 226 255
74.8744 37.8432 138.834 255 181 118
64.8634 26.2083 112.316 187 209 255
147.184 115.213 109.172 254 248 255
96.1197 88.0818 112.845 206 220 255
149.129 99.5259 117.667 196 214 255
133.452 136.278 114.947 204 219 255
160.941 111.603 115.586 231 235 255
108.719 18.8245 112.322 198 216 255
108.067 132.564 108.101 255 246 237
5.14459 126.204 114.902 178 203 255
160.971 143.848 111.103 185 207 255
72.86 50.3826 110.923 193 213 255
216.225 139.828 114.778 184 207 255
138.547 117.245 111.442 255 252 247
109.67 148.318 111.247 255 231 212
107.99 111.745 105.02 255 242 230
90.6255 72.8287 114.491 211 224 255
52.5687 141.031 114.018 203 218 255
209.761 162.119 113.054 185 207 255
83.783 110.049 103.701 220 229 255
75.9336 77.4066 113.319 227 233 255
150.183 81.7056 114.092 201 217 255
15.111 123.603 111.366 201 217 255
60.9399 133.616 115.926 205 220 255
131.943 125.587 119.323 223 230 255
174.049 139.49 107.627 197 215 255
56.2625 154.212 112.708 190 210 255
77.8329 98.7692 115.451 255 249 255
116.753 190.692 112.152 183 206 255
119.509 126.185 108.933 240 240 255
166.36 203.715 109.862 190 210 255
154.108 145.961 110.682 202 218 255
124.876 102.356 109.501 255 251 255
127.16 149.122 112.708 252 247 255
53.2114 106.325 112.064 243 242 255
211.25 78.5741 115.807 199 216 255
81.8787 109.891 113.47 241 241 255
149.054 85.3474 113.703 194 213 255
95.5525 31.4551 115.221 191 212 255
51.8959 179.62 113.661 185 207 255
43.9274 38.4527 114.997 186 208 255
120.144 106.658 112.281 255 206 166
90.7396 129.058 107.483 202 218 255
122.471 40.3462 112.742 207 221 255
98.1656 164.606 112.421 255 250 243
90.5015 84.7887 106.171 255 239 225
121.879 73.7137 113.357 231 235 255
106.61 106.363 116.487 210 223 255
134.625 130.315 120.393 255 218 189
140.735 77.9095 113.978 251 247 255
136.594 43.5973 113.024 221 229 255
93.9873 174.1 110.659 200 217 255
149.463 134.704 111.433 219 228 255
58.0262 152.551 110.729 187 209 255
6.05409 99.2987 113.467 186 208 255
101.083 174.568 109.95 207 221 255
169.205 61.885 113.366 193 212 255
34.6484 104.838 113.165 210 223 255
130.72 10.2933 127.594 184 207 255
43.6166 85.8023 111.434 235 238 255
120.596 96.8066 117.73 227 233 255
85.1236 166.539 111.102 209 222 255
218.989 84.5283 109.679 184 207 255
167.231 111.543 111.809 187 209 255
145.897 75.8131 112.687 195 214 255
145.476 63.6449 116.543 185 208 255
209.555 73.6219 115.023 203 219 255
151.613 183.007 114.189 255 251 255
50.7191 76.759 108.066 211 223 255
118.85 115.214 114.538 255 174 103
93.7834 175.549 111.491 208 222 255
113.454 143.746 113.302 229 234 255
145.512 120.173 106.848 212 224 255
178.356 71.9091 114.531 181 205 255
83.2262 98.7527 120.792 255 236 220
178.956 68.9224 117.241 186 208 255
85.6243 109.81 120.474 200 217 255
92.7824 92.5023 120.915 208 222 255
54.8497 160.837 111.979 226 232 255
197.9 158.879 119.199 195 214 255
97.8802 155.452 115.229 212 224 255
141.072 52.2023 108.856 255 253 248
34.5756 56.0017 110.331 185 207 255
113.039 99.9466 121.529 200 217 255
172.173 131.631 116.673 220 229 255
69.9537 150.335 114.529 255 250 243
110.482 105.474 116.044 214 226 255
63.677 120.88 111.546 255 234 217
98.3146 174.415 109.284 193 212 255
55.9406 169.235 116.057 191 212 255
166.763 139.104 114.979 194 213 255
105.664 104.721 113.765 255 194 145
76.6166 78.251 117.453 244 242 255
84.8063 131.69 103.349 197 215 255
36.43 42.5736 110.836 191 211 255
116.729 109.369 115.929 203 219 255
133.514 184.247 111.603 198 215 255
149.716 162.038 116.083 199 216 255
96.2144 53.5121 105.868 201 218 255
74.1704 99.3348 106.609 194 213 255
82.239 128.03 119.267 220 229 255
19.1971 145.467 112.461 182 206 255
173.762 136.393 109.112 253 248 255
94.386 108.065 112.51 255 226 202
113.907 122.524 110.676 255 197 150
168.925 181.205 115.383 203 218 255
91.5163 27.5198 113.831 194 213 255
219.808 117.434 113.082 199 216 255
115.705 147.089 110.315 255 180 115
78.8933 31.1767 108.864 184 207 255
80.0225 184.972 113.621 235 238 255
37.3797 141.073 110.055 207 221 255
126.223 83.5874 108.195 255 254 251
99.726 132.115 120.52 216 227 255
63.5754 204.584 111.705 178 203 255
133.226 104.198 118.204 197 215 255
67.687 150.503 113.687 191 211 255
50.8355 94.7918 106.744 201 217 255
137.681 178.863 108.947 200 217 255
32.9638 122.781 109.325 186 208 255
122.144 138.774 110.862 255 212 178
48.8619 43.8781 111.626 199 216 255
99.8242 93.0594 121.333 255 235 218
145.312 163.225 112.787 200 217 255
149.647 91.0133 115.762 255 251 245
102.211 85.883 107.765 255 254 250
119.419 153.954 112.49 193 213 255
19.6466 141.534 114.911 187 209 255
55.5957 83.9977 112.356 255 251 245
117.971 156.768 115.336 219 228 255
97.9166 73.2543 112.914 200 217 255
164.572 78.7892 115.717 238 239 255
52.0996 111.308 115.768 216 227 255
71.2584 183.324 111.952 206 221 255
154.239 105.403 106.714 197 215 255
157.743 38.7394 114.801 199 216 255
148.369 26.9289 113.963 188 209 255
111.606 111.732 120.216 234 237 255
140.06 184.066 109.75 241 241 255
150.276 175.749 109.036 199 216 255
116.085 103.513 115.434 255 217 188
80.1774 203.992 114.037 183 206 255
108.488 13.2609 112.257 207 221 255
111.065 102.873 109.487 255 156 62
148.782 107.683 109.769 255 235 219
48.813 121.193 111.359 255 253 248
125.401 117.122 111.877 215 226 255
161.987 94.3191 115.701 246 244 255
129.118 40.9876 109.263 214 225 255
142.113 39.7145 110.036 199 216 255
155.969 94.5888 119.169 208 222 255
161.985 99.494 113.9 186 208 255
126.627 53.034 115.123 230 235 255
167.297 156.004 109.899 183 206 255
81.0077 36.3879 112.964 198 215 255
199.524 33.866 114.144 201 217 255
33.7524 137.342 113.762 191 212 255
80.2515 125.935 105.399 247 244 255
105.558 126.453 106.972 220 229 255
50.6805 58.0378 115.11 180 205 255
57.9637 208.753 111.839 199 216 255
166.211 55.0758 115.047 184 207 255
87.5783 207.414 113.819 197 215 255
74.531 48.3438 110.375 213 225 255
167.397 95.5565 111.85 213 225 255
132.386 92.5533 116.869 220 229 255
51.4666 103.47 110.594 211 223 255
118.273 117.915 107.997 198 216 255
125.646 123.499 116.62 255 175 106
94.1308 116.449 117.529 255 255 251
149.214 120.335 109.712 255 192 141
89.6314 103.176 107.514 255 255 252
60.3906 175.888 113.867 187 209 255
25.2092 179.583 113.482 184 207 255
118.9 106.128 107.037 255 145 36
92.4987 167.422 113.385 206 220 255
118.561 147.081 108.821 205 220 255
84.9338 123.88 121.326 201 217 255
98.9337 137.684 116.155 246 244 255
59.9442 107.638 112.693 205 220 255
204.262 142.307 113.142 189 210 255
99.8216 109.446 105.856 215 226 255
193.048 49.7099 113.409 183 206 255
89.3938 60.8476 116.973 240 240 255
170.168 97.8262 117.849 229 234 255
87.1567 125.87 117.321 255 181 119
107.937 102.936 116.84 241 241 255
59.5199 39.3617 114.58 197 215 255
99.0069 83.8391 113.093 223 231 255
110.75 148.138 111.716 215 226 255
172.369 138.515 105.282 239 240 255
39.4799 80.6152 115.21 187 209 255
85.804 142.913 113.549 201 217 255
71.1657 153.802 115.745 248 245 255
173.79 148.675 109.338 183 206 255
112.391 17.2232 109.211 181 205 255
90.5514 136.331 103.088 204 219 255
63.1696 181.648 114.551 190 211 255
35.4813 140.328 109.216 197 215 255
160.195 173.055 102.612 208 222 255
170.98 113.873 118.631 255 220 192
111.246 42.7695 116.552 209 222 255
135.354 14.8702 113.615 189 210 255
104.141 57.9609 109.06 217 227 255
111.361 82.6441 113.434 255 252 247
120.556 83.4029 118.427 255 253 248
114.796 115.649 105.319 255 219 190
120.571 135.65 111.7 255 242 230
85.6083 90.6832 118.7 216 227 255
125.217 112.149 108.855 255 115 0
112.578 89.5583 114.712 213 225 255
110.226 75.5762 108.378 255 229 208
131.163 71.3074 119.05 186 208 255
104.693 100.108 107.893 215 226 255
140.04 141.843 116.684 195 214 255
151.664 125.865 111.353 255 168 92
70.5324 194.536 112.789 185 207 255
70.6981 137.841 113.437 212 224 255
25.8907 124.236 114.881 187 209 255
72.8315 107.97 119.055 195 214 255
102.992 100.301 112.904 255 228 207
147.187 79.0216 112.815 255 231 211
45.1062 73.3739 121.239 193 213 255
110.066 78.8 108.25 255 247 239
111.265 146.267 107.398 247 245 255
93.8824 175.606 111.906 223 231 255
71.6576 159.557 110.371 188 210 255
78.9178 97.4373 106.15 232 236 255
72.9231 224.073 123.425 201 217 255
93.8186 175.785 111.643 235 238 255
93.8085 175.406 111.383 193 213 255
119.577 84.9007 117.52 255 189 135
170.636 125.018 112.41 201 218 255
73.8993 71.1422 117.816 209 223 255
120.143 117.6 117.656 255 218 189
96.5081 168.947 109.659 255 254 250
171.54 123.073 103.809 255 249 255
81.8128 157.452 113.383 220 229 255
169.059 76.4132 112.461 184 207 255
105.638 28.8031 108.21 191 211 255
130.217 60.345 110.746 183 206 255
45.6118 122.1 112.428 201 217 255
142.539 76.0467 112.414 195 214 255
163.549 185.677 109.743 206 221 255
93.7261 175.082 110.676 193 213 255
202.324 85.9051 113.031 214 225 255
145.193 84.871 111.877 192 212 255
93.7443 175.459 111.473 225 232 255
109.084 129.377 112.32 255 229 208
208.798 114.581 112.244 187 209 255
112.959 117.546 108.374 201 217 255
145.564 29.984 112.533 205 220 255
185.851 126.089 112.012 197 215 255
115.38 119.879 114.937 255 196 149
112.277 117.79 106.898 235 238 255
56.336 52.3674 111.478 193 212 255
109.693 88.0103 119.612 210 223 255
58.2254 52.5227 108.331 193 212 255
138.876 76.8657 112.007 205 220 255
162.836 197.594 110.244 197 215 255
93.7793 175.554 111.504 255 226 202
118.399 96.9961 116.207 255 248 239
74.332 144.001 111.875 192 212 255
71.4735 25.3254 140.682 214 226 255
135.574 131.967 106.925 203 219 255
135.518 7.05502 110.841 191 211 255
4.88793 132.691 116.524 186 208 255
2.61061 106.862 111.269 182 206 255
73.9866 136.26 109.758 214 225 255
175.459 50.4795 114.617 180 205 255
12.5933 80.8703 108.722 203 219 255
109.263 123.652 108.268 255 222 195
169.786 27.4383 114.024 195 214 255
137.238 59.2078 108.405 255 231 212
97.9396 157.809 108.955 225 232 255
100.62 118.61 122.671 255 251 255
125.792 128.64 106.747 227 233 255
107.899 116.908 103.93 236 238 255
107.949 110.96 118.4 240 241 255
60.9513 190.827 115.581 189 210 255
192.08 135.38 113.794 202 218 255
95.8511 80.916 113.087 240 240 255
100.301 131.679 113.322 255 188 133
111.4 78.4334 110.358 233 236 255
49.9155 99.7309 107.115 202 218 255
107.765 135.357 106.044 218 228 255
60.0141 206.363 112.032 189 210 255
71.5402 112.017 110.921 196 215 255
178.235 142.462 113.69 198 216 255
136.781 36.5594 116.459 200 217 255
77.7102 92.1623 117.499 255 209 172
156.746 122.611 106.416 195 214 255
126.667 115.61 114.017 253 248 255
152.212 104.454 117.182 234 237 255
206.308 112.637 114.131 194 213 255
48.1246 100.997 110.945 186 208 255
159.36 71.2495 109.004 208 222 255
138.884 77.4057 118.579 219 228 255
107.095 121.374 107.651 255 233 214
114.245 117.911 123.938 189 210 255
85.9163 134.746 119.015 201 218 255
94.8492 151.188 113.149 204 219 255
147.63 86.446 115.443 255 222 197
52.7978 118.982 113.953 215 226 255
109.7 37.4363 112.421 198 215 255
110.602 142.592 103.052 192 212 255
129.506 208.991 112.286 186 208 255
28.5154 152.97 111.065 204 219 255
172.747 125.57 105.232 215 226 255
93.7773 175.563 111.512 211 224 255
180.697 113.497 114.387 195 214 255
104.193 104.061 116.694 239 240 255
99.1708 185.186 112.092 179 203 255
95.1322 135.284 114.56 241 241 255
96.4603 89.8165 112.899 255 246 237
112.412 98.2535 114.02 225 232 255
107.407 46.0259 115.383 209 222 255
83.3417 190.708 113.602 239 240 255
173.169 137.731 112.841 213 225 255
64.1403 128.594 112.762 212 224 255
93.7656 175.599 111.547 212 224 255
61.1277 149.217 110.001 207 221 255
118.797 138.407 111.413 217 227 255
67.7002 163.108 116.424 224 231 255
115.422 135.25 117.494 255 252 247
189.945 137.96 111.399 185 208 255
92.5152 97.4776 109.671 218 227 255
141.575 73.0314 114.651 225 232 255
118.634 120.72 111.754 246 244 255
123.701 85.4266 106.874 255 206 167
147.854 85.0142 114.916 255 233 215
125.258 107.925 104.733 255 251 255
161.097 103.887 112.248 224 231 255
165.359 109.532 114.571 194 213 255
85.9013 64.5749 114.138 231 235 255
138.73 6.3767 110.004 189 210 255
111.292 51.6143 111.247 226 232 255
130.571 113.37 120.918 239 240 255
83.2168 28.4356 109.339 200 217 255
152.917 186.956 113.83 200 217 255
127.026 190.298 110.42 185 207 255
52.4006 89.461 117.019 192 212 255
124.756 143.363 120.566 207 221 255
116.446 103.157 113.789 255 228 207
18.0286 156.7 112.445 185 208 255
104.254 132.685 111.68 255 203 161
102.562 163.938 114.236 208 222 255
72.237 79.299 119.286 255 249 255
57.1109 68.6044 114.579 190 210 255
80.4865 89.5785 118.994 212 224 255
132.338 175.238 109.2 186 208 255
75.131 149.393 114.732 207 221 255
116.89 154.555 112.257 212 224 255
93.7605 175.438 111.426 208 222 255
110.502 114.516 119.863 255 214 181
142.434 74.5409 114.993 220 229 255
126.418 201.463 107.911 191 211 255
120.301 82.1467 110.686 255 226 202
127.673 196.059 129.945 218 228 255
199.143 126.614 112.536 196 214 255
112.48 106.332 121.001 246 244 255
77.9473 97.7846 110.295 224 231 255
49.9353 111.055 107.907 192 212 255
101.322 91.6529 111.491 191 211 255
103.584 90.179 119.716 212 224 255
81.9029 154.19 112.611 220 229 255
2.78105 112.332 112.87 194 213 255
151.622 113.232 114.118 216 226 255
81.4103 137.473 115.163 209 222 255
107.226 137.84 119.634 255 254 250
188.216 80.0328 111.719 206 220 255
117.899 111.486 121.597 255 249 242
138.928 83.1266 110.905 234 237 255
148.501 70.1682 116.239 255 238 223
90.3154 54.0462 117.413 187 209 255
65.3882 130.519 107.604 200 217 255
93.7983 175.57 111.539 202 218 255
166.78 91.1921 121.322 255 215 183
72.6387 86.6537 115.064 255 213 180
96.1456 132.087 109.081 255 181 119
130.647 73.0519 114.321 229 234 255
131.978 121.637 115.679 246 244 255
125.837 100.845 113.752 255 249 242
188.192 90.2786 110.492 200 217 255
112.935 120.56 108.624 255 216 184
112.473 110.539 119.405 255 239 226
70.524 140.91 117.25 249 246 255
119.095 72.6461 110.121 201 217 255
96.3767 211.04 115.192 189 210 255
92.607 97.1495 110.883 253 248 255
123.872 115.354 113.555 214 225 255
157.865 149.103 107.504 229 234 255
178.588 101.653 112.496 202 218 255
25.3868 50.2435 113.841 191 211 255
44.2988 155.915 112.828 212 224 255
93.801 175.493 111.49 227 233 255
102.579 102.19 110.783 250 246 255
136.45 131.7 112.352 255 202 160
66.1598 196.012 112.311 183 206 255
114.812 96.5543 111.439 236 238 255
100.636 76.6864 106.612 208 222 255
88.9607 95.0775 111.446 255 254 251
198.344 13.428 109.314 201 218 255
43.6698 201.638 111.328 186 208 255
121.425 118.835 107.797 254 248 255
140.885 76.5353 115.809 191 211 255
137.111 43.137 115.924 203 218 255
156.631 98.5729 117.735 255 253 249
73.0515 61.2332 107.852 214 226 255
171.578 18.7444 111.268 180 205 255
142.034 119.755 116.743 211 224 255
53.6464 88.0733 115.809 201 217 255
71.0546 75.0604 118.781 212 224 255
156.725 114.794 112.112 255 243 231
201.64 95.6562 113.218 185 208 255
52.2401 44.997 111.416 190 211 255
126.958 186.471 110.239 206 221 255
122.709 111.981 113.908 255 238 223
104.555 116.917 108.545 233 237 255
68.312 57.5024 109.516 203 219 255
21.4263 140.407 108.483 185 208 255
98.0589 125.606 119.598 225 232 255
161.425 120.393 101.092 201 217 255
102.105 172.724 109.612 199 216 255
147.021 79.8818 115.279 255 250 255
113.228 117.158 104.308 255 245 235
153.249 199.333 110.514 193 212 255
111.35 104.622 116.349 244 242 255
13.4286 95.3073 110.296 192 212 255
100.534 161.868 115.814 255 217 186
109.641 120.482 101.667 225 232 255
105.122 113.853 103.442 255 125 0
74.6029 83.9206 105.344 255 242 230
58.5127 191.943 111.7 192 212 255
143.124 65.2501 111.004 194 213 255
118.129 101.445 118.76 213 225 255
123.643 158.31 116.117 254 248 255
140.727 64.0001 110.022 208 222 255
117.827 114.024 109.858 204 219 255
30.6994 139.695 114.475 212 224 255
115.461 207.764 116.561 198 216 255
114.005 115.808 117.651 255 220 193
73.7211 173.221 110.397 242 241 255
109.545 118.124 109.864 255 212 179
50.2311 129.389 111.558 188 209 255
58.9857 123.723 113.258 255 249 255
45.6466 161.459 107.655 196 215 255
166.671 187.876 119.024 187 209 255
145.535 136.556 118.768 255 218 188
13.4446 114.358 112.737 202 218 255
47.7786 134.066 115.758 255 249 242
142.771 101.906 116.573 231 235 255
114.043 44.6482 117.977 197 215 255
74.9125 87.9492 106.876 200 217 255
93.6722 175.68 111.604 198 216 255
68.3816 42.6809 112.848 214 225 255
115.731 157.499 112.676 218 228 255
26.2705 61.9846 114.261 208 222 255
114.486 98.5302 113.859 255 223 197
70.3472 97.4053 107.862 216 226 255
67.4776 138.362 98.7052 190 210 255
211.641 94.1947 107.991 194 213 255
96.4194 51.3045 111.24 207 221 255
107.108 75.4867 115.084 219 228 255
84.6411 98.4642 119.529 247 244 255
65.546 148.986 111.405 242 241 255
194.907 67.5226 113.801 194 213 255
79.9313 163.707 113.873 229 234 255
107.545 98.407 106.104 255 224 199
167.907 128.217 111.718 192 212 255
95.5275 160.001 116.279 255 234 216
110.178 78.4638 117.408 226 232 255
112.891 52.4555 111.883 249 246 255
105.296 126.737 105.413 255 251 246
64.6279 33.5289 111.49 199 216 255
141.276 73.2993 128.302 224 231 255
123.681 134.345 131.438 236 238 255
46.161 74.8005 113.137 244 243 255
110.999 119.005 110.311 211 224 255
76.8683 112.017 118.295 255 247 238
119.315 109.521 109.827 255 236 219
65.7138 157.12 110.733 206 220 255
71.814 96.0678 113.417 224 231 255
72.2812 42.3235 105.3 208 222 255
26.4056 192.41 112.608 182 206 255
63.7491 75.9197 117.69 186 208 255
93.7478 175.534 111.505 207 221 255
53.278 86.0817 112.513 199 216 255
90.3386 163.492 114.207 219 229 255
154.526 164.598 111.903 200 217 255
135.814 102.992 115.155 198 216 255
28.8289 153.825 111.149 191 211 255
90.6959 42.6296 104.856 202 218 255
158.63 157.648 113.628 204 219 255
34.9836 40.5914 113.445 192 212 255
109.131 86.7071 113.508 255 251 246
74.973 141.574 116.521 252 247 255
218.193 78.0814 112.028 187 209 255
205.029 158.843 113.805 190 211 255
153.269 69.2973 113.029 203 219 255
114.514 117 109.935 255 228 206
35.9593 34.9821 113.051 216 227 255
61.843 135.984 113.948 255 242 230
115.004 111.553 115.226 255 226 202
112.452 124.845 116.801 221 230 255
97.6795 147.331 112.837 255 163 79
121.533 37.1741 113.499 207 221 255
104.24 75.1587 106.974 255 215 182
136.36 67.7453 118.506 198 215 255
111.523 157.96 109.19 255 239 225
206.358 67.3774 110.745 192 212 255
78.1407 97.1205 104.526 220 229 255
86.0684 79.6797 119.825 255 230 209
95.7148 5.72203 107.844 183 206 255
180.985 115.632 113.797 255 249 242
174.015 126.313 107.844 204 219 255
141.582 117.91 112.614 243 242 255
163.072 169.248 113.927 228 234 255
18.4138 67.6926 111.532 199 216 255
108.773 136.614 107.785 255 239 225
142.397 199.721 121.086 198 216 255
34.6778 183.318 115.675 180 204 255
179.404 71.3279 117.292 191 212 255
48.4892 105.149 112.219 186 208 255
115.353 110.741 104.083 245 243 255
50.394 187.092 110.137 189 210 255
12.6173 114.949 112.829 190 211 255
143.823 175.518 110.045 219 228 255
118.254 109.618 109.968 250 246 255
95.8513 214.762 112.53 182 206 255
54.7565 29.0798 114.172 193 213 255
135.451 139.199 112.325 209 222 255
93.3049 63.1044 108.76 216 227 255
112.173 87.3559 104.696 255 41 0
133.114 101.675 102.033 255 239 225
130.013 200.888 113.173 192 212 255
93.8954 175.777 111.57 196 214 255
68.3181 69.0628 114.023 219 228 255
111.037 76.4219 112.196 182 206 255
127.269 155.175 111.775 209 223 255
114.002 60.9601 112.355 205 220 255
105.635 213.379 106.012 186 208 255
55.8955 111.32 110.326 217 227 255
101.104 22.6631 108.953 190 211 255
93.1648 175.812 111.687 255 199 153
93.7267 175.566 111.288 200 217 255
79.3834 124.547 105.409 233 236 255
117.376 90.3951 113.016 255 252 247
157.961 80.4039 116.13 215 226 255
95.8293 66.9418 109.25 236 238 255
110.663 71.0528 113.928 205 220 255
172.22 120.641 109.798 207 221 255
27.8884 177.55 112.707 211 223 255
113.423 144.326 118.221 255 212 177
124.101 146.574 118.928 255 248 240
131.826 199.404 113.06 196 214 255
128.167 188.391 112.386 208 222 255
221.975 121.998 112.891 189 210 255
63.3388 151.134 111.923 193 213 255
172.198 141.344 109.798 209 222 255
93.7107 175.372 111.741 191 211 255
215.75 114.113 113.606 187 209 255
152.23 61.2315 108.987 215 226 255
132.955 74.9311 112.717 212 224 255
138.656 120.747 109.179 255 249 241
114.419 97.4855 112.407 255 207 169
107.046 130.531 117.925 255 242 231
139.444 101.331 105.651 232 236 255
79.7146 71.1756 119.722 194 213 255
66.1648 107.792 110.657 204 219 255
148.247 56.7283 115.419 198 216 255
120.431 120.916 116.288 255 241 228
79.6616 66.8253 107.136 214 225 255
62.9779 101.058 114.188 233 237 255
67.8581 71.5278 112.278 206 220 255
147.777 84.1592 112.536 245 243 255
139.281 58.816 111.027 211 223 255
93.8931 176.284 111.783 255 254 250
133.365 67.1642 119.042 211 224 255
88.048 31.2075 111.868 207 221 255
181.629 84.3513 112.029 227 233 255
134.497 184.406 111.79 200 217 255
74.3095 110.317 109.383 206 220 255
224.362 111.68 116.099 185 208 255
157.11 119.383 107.566 214 225 255
7.43434 145.045 114.424 216 226 255
34.7564 102.532 111.37 185 207 255
171.111 75.1654 111.685 189 210 255
108.705 70.0527 110.54 188 209 255
88.9283 65.7924 108.518 199 216 255
144.859 124.423 121.827 255 224 200
27.3561 152.409 108.251 211 224 255
171.495 89.6313 130.074 213 225 255
132.531 48.536 111.561 188 210 255
129.541 104.821 104.241 255 99 0
140.59 185.669 111.511 191 211 255
27.3282 188.108 110.775 200 217 255
138.941 116.726 121.373 211 223 255
93.7978 175.451 111.472 207 221 255
114.508 119.883 110.124 255 239 224
128.823 132.973 114.154 210 223 255
168.218 149.824 107.949 182 205 255
112.498 149.922 108.376 227 233 255
160.994 138.236 99.1608 196 214 255
140.567 80.2199 136.216 214 225 255
165.23 132.364 112.628 255 196 149
108.779 74.7546 111.856 191 211 255
79.8022 56.4028 111.179 197 215 255
63.8864 91.0498 114.2 255 251 255
102.239 80.6274 109.203 230 235 255
125.739 125.484 105.512 255 250 244
103.677 137.482 108.11 208 222 255
93.7703 175.583 111.529 191 211 255
95.8731 172.611 110.689 245 243 255
90.6462 75.6026 104.624 201 218 255
186.428 164.313 113.892 181 205 255
96.9968 85.6645 113.217 255 201 158
111.8 78.6599 111.163 255 249 255
174.638 137.785 104.888 187 209 255
100.823 162.584 108.49 255 246 236
104.761 144.197 114.597 247 245 255
146.023 85.2353 119.957 207 221 255
108.73 127.562 113.59 220 229 255
161.492 99.267 112.005 202 218 255
93.7757 175.618 111.609 197 215 255
123.272 144.265 112.285 255 250 244
27.6607 63.0337 110.089 189 210 255
143.831 141.525 110.255 255 249 242
163.493 82.9602 117.046 203 219 255
154.726 149.023 114.03 197 215 255
64.1895 41.2266 113.96 186 208 255
56.7588 115.973 107.203 205 220 255
123.787 99.2287 111.497 255 243 231
88.8955 56.74 110.073 206 220 255
92.1344 157.244 114.214 214 225 255
146.008 85.9691 115.497 255 215 183
137.846 47.8029 108.911 206 221 255
93.7727 175.566 111.52 195 214 255
197.004 58.2718 111.418 187 208 255
209.024 52.6516 114.312 186 208 255
114.16 19.6518 111.186 179 204 255
57.4418 143.079 112.809 195 214 255
138.354 130.362 104.221 186 208 255
135.157 85.9433 110.7 214 226 255
103.078 163.851 107.235 223 231 255
135.131 77.0533 107.666 208 222 255
76.0729 50.7706 109.282 217 227 255
80.5949 144.979 112.274 194 213 255
169.474 107.55 113.192 254 248 255
164.233 105.344 109.716 195 214 255
61.3344 70.0348 110.69 250 246 255
101.902 122.442 121.343 255 239 225
32.1392 196.466 112.081 197 215 255
130.495 128.568 119.464 219 228 255
93.7767 175.541 111.483 196 214 255
50.604 138.885 116.648 226 232 255
165.338 160.128 112.002 188 209 255
93.7696 175.574 111.534 207 221 255
95.6133 15.5206 99.1585 195 214 255
101.381 170.138 108.459 205 220 255
161.325 101.805 110.818 255 160 73
80.3367 99.3221 102.916 228 233 255
143.401 130.751 106.601 207 221 255
76.9177 17.0982 109.814 179 204 255
139.657 55.0441 115.919 202 218 255
123.324 216.315 111.535 203 218 255
116.536 54.412 114.72 198 216 255
59.5901 25.6763 118.929 204 219 255
104.685 83.3564 107.563 217 227 255
28.4068 101.655 113.124 196 214 255
115.3 37.3002 115.675 195 214 255
31.469 128.376 115.068 182 206 255
95.2886 85.7997 111.993 255 236 219
63.8082 45.7171 113.249 215 226 255
180.774 101.327 100.891 191 211 255
100.217 68.6129 115.13 234 237 255
66.5769 90.1087 108.938 208 221 255
104.738 87.917 111.135 255 135 10
30.4952 114.683 112.849 196 215 255
97.3768 159.547 120.215 209 222 255
103.141 111.188 110.326 210 223 255
180.362 54.6736 114.131 201 217 255
141.668 122.039 108.406 203 219 255
129.492 22.4609 114.932 188 209 255
91.9225 135.385 116.265 255 215 184
52.7236 110.474 117.002 255 251 245
113.49 74.5128 115.309 255 177 111
99.4986 167.916 114.382 219 228 255
146.178 123.427 110.561 210 223 255
80.5671 125.864 108.276 255 244 234
166.081 99.0398 112.344 183 206 255
181.968 38.3135 113.957 192 212 255
101.598 165.215 109.67 197 215 255
78.9067 138.645 119.631 247 244 255
173.07 170.277 113.232 178 203 255
110.331 123.586 125.047 255 242 230
94.3167 142.287 109.182 255 219 191
89.5078 47.3572 112.559 203 219 255
102.28 184.832 109.945 211 224 255
93.7783 175.558 111.507 190 210 255
52.6323 110.159 109.019 192 212 255
152.997 99.7692 109.939 214 225 255
129.1 73.1026 118.751 255 249 255
57.6848 69.8669 113.359 183 206 255
172.935 54.0769 115.341 198 216 255
29.6754 83.1959 111.499 180 204 255
217.694 86.4574 107.73 184 207 255
166.658 64.3772 112.98 206 220 255
119.268 158.944 108.342 200 217 255
179.732 192.093 113.676 183 206 255
115.764 77.1496 112.169 255 239 224
157.714 80.859 115.059 255 232 213
113.665 125.322 108.107 227 233 255
220.833 136.927 113.096 191 211 255
42.3965 142.735 112.844 197 215 255
105.65 141.265 114.724 255 235 218
141.933 79.2133 117.394 255 248 239
146.535 176.474 112.205 206 220 255
6.17992 152.729 111.413 198 215 255
93.7768 175.559 111.51 212 224 255
97.4241 174.929 110.358 227 233 255
99.9054 168.38 117.747 197 215 255
76.9595 144.368 112.679 238 239 255
166.473 122.029 112.283 184 207 255
79.722 28.3267 103.107 182 206 255
139.725 80.7733 109.822 255 254 251
102.829 112.625 110.575 255 252 248
94.1453 175.388 110.123 255 247 239
108.894 93.5896 119.29 255 213 180
98.6982 183.236 111.319 188 210 255
87.2774 43.0465 114.328 202 218 255
70.4706 76.7199 114.627 213 225 255
163.979 100.717 109.051 214 226 255
105.429 118.197 121.483 255 239 225
81.5143 104.046 105.275 199 216 255
39.045 37.0259 110.133 184 207 255
80.3137 149.813 124.823 207 221 255
105.253 142.611 113.274 198 215 255
174.059 122.758 110.324 233 237 255
103.611 44.7374 115.325 204 219 255
127.485 73.8919 114.69 200 217 255
105.684 160.12 112.881 210 223 255
108.839 69.5216 112.253 195 214 255
125.354 161.184 115.925 255 219 191
72.9258 67.9264 111.226 197 215 255
165.477 96.4716 112.066 209 222 255
81.6939 78.3154 118.778 203 219 255
10.9255 113.418 110.191 202 218 255
124.595 193.95 115.872 207 221 255
55.2298 78.6739 108.772 186 208 255
69.9556 68.7666 115.935 190 211 255
50.8812 34.1606 116.284 183 206 255
44.5444 70.0017 111.899 198 215 255
173.465 85.4736 114.842 219 228 255
137.747 121.933 103.412 255 241 229
147.804 100.813 105.732 255 252 246
36.9609 171.195 108.654 187 209 255
163.244 86.0209 113.197 205 220 255
200.887 167.081 112.341 207 221 255
93.8732 175.144 111.042 238 239 255
209.285 141.749 110.274 203 219 255
135.692 106.479 121.429 218 228 255
22.8429 77.2281 113.998 189 210 255
120.105 102.074 104.905 235 238 255
88.1162 21.0719 114.39 199 216 255
84.4351 98.4219 114.05 216 227 255
93.7823 175.447 111.469 199 216 255
130.83 55.9021 117.702 205 220 255
140.736 168.76 113.243 193 212 255
93.4585 68.0654 118.032 248 245 255
161.044 151.795 114.867 208 222 255
93.7646 175.397 111.396 193 212 255
131.319 144.076 112.249 255 250 244
72.3639 94.8475 111.457 220 229 255
178.535 63.636 111.349 180 204 255
169.971 103.261 111.464 212 224 255
93.6875 175.472 111.432 244 243 255
138.758 147.562 105.884 204 219 255
93.7958 175.533 111.477 223 230 255
107.337 70.0823 115.897 224 231 255
86.5312 89.816 105.459 255 255 251
167.852 123.565 113.328 230 234 255
59.0202 128.924 114.554 240 241 255
212.187 131.842 111.761 219 228 255
154.019 44.4038 113.454 203 219 255
136.714 164.734 110.473 191 211 255
105.376 161.464 111.554 206 221 255
10.8738 124.217 111.842 182 205 255
180.037 158.834 115.27 193 212 255
112.658 108.625 103.257 255 215 183
64.03 215.47 110.744 181 205 255
116.917 162.69 110.176 198 215 255
120.134 101.387 104.324 215 226 255
97.9953 161.674 112.214 206 220 255
117.123 86.8512 101.707 244 243 255
139.288 87.2748 110.299 255 230 210
107.001 20.889 118.15 199 216 255
197.499 166.029 113.448 185 208 255
73.4253 164.985 112.385 214 225 255
158.802 90.2783 110.721 209 222 255
113.629 106.205 101.524 217 227 255
81.9318 148.656 110.041 187 209 255
204.092 160.731 114.772 182 206 255
113.695 110.621 118.412 255 227 205
92.8835 56.2783 108.584 197 215 255
152.589 76.4605 114.678 216 226 255
101.936 101.624 121.263 215 226 255
42.3552 199.477 111.469 189 210 255
17.1937 155.306 110.718 198 216 255
154.62 9.08112 102.345 197 215 255
136.455 166.553 111.384 191 211 255
120.237 96.9764 107.431 255 253 249
186.392 182.894 111.648 195 214 255
116.454 135.804 110.933 255 237 222
45.0561 41.588 112.675 194 213 255
110.52 116.652 119.791 255 203 161
130.255 164.282 111.207 255 241 228
48.6945 169.072 114.985 200 217 255
128.565 158.724 110.807 211 224 255
96.2299 191.606 111.297 202 218 255
197.367 105.076 97.3334 237 239 255
135.03 111.666 117.157 208 222 255
55.9238 136.927 110.521 220 229 255
74.9424 69.4734 109.056 206 221 255
180.502 117.012 111.073 196 214 255
126.381 133.587 108.048 255 235 219
39.3819 109.256 114.265 244 243 255
201.847 87.9427 113.447 194 213 255
51.1687 93.3615 110.775 191 211 255
115.123 193.959 112.126 196 214 255
219.206 108.548 108.5 190 211 255
112.416 143.453 116.799 216 227 255
164.374 156.489 111.591 192 212 255
40.4044 156.052 113.886 186 208 255
175.754 127.7 110.198 192 212 255
138.843 119.001 109.316 255 249 255
175.932 141.109 114.195 228 234 255
111.934 41.9034 112.08 207 221 255
110.172 116.702 105.913 205 220 255
92.9912 59.7448 107.533 211 223 255
93.771 175.595 111.529 209 222 255
57.3168 72.6275 116.574 193 212 255
160.527 124.337 107.703 221 230 255
162.533 134.47 116.383 192 212 255
9.78848 80.2044 109.61 173 200 255
89.9386 69.9608 110.806 232 236 255
163.305 127.987 112.648 255 249 241
127.205 11.6113 115.817 189 210 255
146.488 127.235 117.562 224 231 255
