ply
format ascii 1.0
element vertex 1341
property float x
property float y
property float z
property uchar red
property uchar green
property uchar blue
end_header
159.858 115.434 105.447 191 211 255
93.2874 173.604 111.151 193 212 255
118.067 117.18 104.1 255 186 128
125.35 137.883 112.697 210 223 255
99.0297 133.414 111.086 255 213 180
93.2862 173.603 111.151 200 217 255
116.54 77.3138 112.814 194 213 255
80.1576 171.995 112.89 254 248 255
65.1651 120.921 111.408 198 216 255
138.79 107.514 119.34 210 223 255
124.1 74.45 118.251 212 224 255
137.467 143.094 109.627 233 236 255
107.028 98.8627 115.396 191 211 255
46.5799 105.444 110.047 198 216 255
134.924 115.659 111.835 231 235 255
93.3341 173.617 111.139 197 215 255
161.861 106.928 111.764 255 228 206
201.427 61.7671 40.6442 200 217 255
75.6529 20.7888 108.413 186 208 255
93.3495 173.68 111.166 199 216 255
93.3026 173.601 111.169 205 220 255
123.649 159.696 109.484 190 211 255
82.894 165.381 112.945 216 226 255
201.258 147.344 112.76 184 207 255
93.294 173.671 111.241 224 231 255
85.3594 135.507 112.735 255 236 221
111.049 126.467 110.46 255 216 184
124.702 191.961 110.352 184 207 255
141.814 153.679 111.622 209 222 255
93.5801 173.809 111.506 182 206 255
81.467 126.193 107.212 202 218 255
103.814 117.477 111.868 225 232 255
7.14663 82.7365 109.907 201 218 255
120.92 137.755 104.962 215 226 255
101.743 173.691 121.75 188 210 255
120.187 95.0061 111.929 213 225 255
87.4772 92.8079 112.218 251 247 255
177.125 185.226 117.479 197 215 255
103.384 84.7296 110.332 229 234 255
121.04 122.215 111.871 255 203 162
220.382 144.444 117.286 189 210 255
99.7563 157.952 110.676 203 219 255
48.752 56.2407 116.099 183 206 255
134.467 183.588 112.798 202 218 255
86.1244 166.945 108.05 255 254 250
93.2232 173.475 111.187 215 226 255
132.656 196.111 112.718 202 218 255
11.774 67.1252 111.712 184 207 255
116.018 87.1861 116.531 188 210 255
84.4992 104.228 111.763 202 218 255
154.421 62.9634 110.154 215 226 255
22.2848 76.6902 113.115 184 207 255
161.405 92.668 108.299 191 211 255
106.351 113.404 105.148 255 185 126
87.5853 140.61 112.363 209 222 255
38.7667 68.1265 110.677 203 219 255
162.903 171.718 117.126 211 224 255
122.024 130.569 108.593 231 235 255
108.606 110.302 111.899 255 237 221
81.1255 70.6441 114.197 212 224 255
161.878 111.18 140.776 201 217 255
103.267 118.671 109.337 255 226 203
109.674 118.345 116.931 236 238 255
70.8343 49.8678 111.779 199 216 255
150.738 70.9887 115.121 190 211 255
73.7231 141.966 109.662 213 224 255
72.7037 129.132 115.656 208 222 255
93.2358 173.599 111.077 193 213 255
173.928 104.682 122.558 207 221 255
87.3627 178.416 111.875 192 212 255
107.766 9.59329 108.114 188 210 255
223.542 140.463 115.556 192 212 255
93.2925 173.614 111.15 214 225 255
111.223 114.506 113.63 233 237 255
148.971 53.4276 108.947 200 217 255
158.208 125.595 112.039 207 221 255
75.6961 125.132 103.194 244 243 255
159.795 25.3178 112.972 198 216 255
84.1999 109.278 117.96 251 247 255
203.669 120.212 110.377 198 216 255
139.676 104.536 111.487 231 235 255
143.42 191.163 113.674 184 207 255
154.141 88.444 106.269 214 225 255
57.2322 101.246 110.5 198 216 255
68.4886 35.988 124.488 194 213 255
90.9699 105.268 111.993 255 197 150
51.5997 148.435 109.44 189 210 255
73.3315 18.3237 106.387 183 206 255
168.226 134.615 113.184 216 226 255
88.2274 160.78 109.486 205 220 255
122.034 217.458 104.067 255 243 232
120.696 119.627 106.158 255 174 103
138.401 68.3075 117.788 245 243 255
152.89 133.124 109.867 191 211 255
106.988 82.7087 108.406 212 224 255
122.783 49.3215 111.219 247 244 255
196.136 143.539 112.662 192 212 255
113.683 115.216 115.068 255 114 0
180.506 12.9098 104.048 199 216 255
91.8829 101.373 110.099 221 229 255
93.2743 173.58 111.156 194 213 255
154.526 96.553 112.122 252 247 255
93.3198 173.647 111.146 220 229 255
1.94338 108.089 115.226 185 207 255
146.838 85.1694 119.279 255 254 250
112.766 103.131 112.994 238 239 255
87.7832 97.7372 139.476 194 213 255
84.7107 121.462 113.738 255 255 252
106.485 108.633 120.223 227 233 255
140.451 151.554 111.237 255 255 251
112.885 150.142 107.995 255 246 237
162.138 88.7274 110.611 193 213 255
130.834 73.048 114.509 198 216 255
204.526 96.5453 116.369 194 213 255
14.5728 156.73 112.001 195 214 255
114.762 113.732 106.76 255 240 226
109.639 113.44 111.022 255 199 154
93.193 173.542 111.155 255 255 252
84.0032 55.9862 114.577 201 218 255
113.386 206.912 87.3503 184 207 255
126.597 90.1266 134.3 225 232 255
49.004 113.035 113.004 200 217 255
111.869 115.377 111.692 255 231 212
72.7576 196.132 112.724 201 218 255
97.0568 137.198 116.594 255 252 246
126.693 11.4599 119.796 189 210 255
101.304 115.475 111.803 226 232 255
77.9398 52.1848 113.746 218 228 255
88.1864 153.174 110.074 197 215 255
110.231 124.882 119.782 205 220 255
106.714 111.53 110.553 255 180 117
41.0501 31.7517 116.743 190 211 255
114.348 116.395 109.304 217 227 255
56.4282 120.21 112.035 228 233 255
137.381 74.862 129.071 207 221 255
113.179 147.286 108.528 208 221 255
112.61 113.297 112.287 255 215 184
119.284 161.104 111.55 206 220 255
121.889 104.566 115.207 255 250 243
162.23 94.0718 103.782 187 209 255
101.358 101.657 110.87 223 231 255
12.2407 178.378 114.955 199 216 255
165.014 0.278698 115.675 190 211 255
83.8649 154.324 120.791 225 232 255
72.1085 82.9566 115.501 204 219 255
58.2658 122.045 104.316 198 215 255
106.882 162.735 116.663 234 237 255
61.4754 91.8174 111.083 191 211 255
115.004 117.172 117.206 255 243 232
2.49757 168.744 112.476 192 212 255
218.634 44.2857 111.306 183 206 255
179.439 124.045 100.354 203 219 255
93.3779 173.505 111.131 215 226 255
133.833 81.5669 114.992 201 217 255
180.419 55.2666 112.64 188 209 255
132.279 41.2306 114.394 189 210 255
112.566 122.637 105.771 255 229 208
93.2851 173.601 111.151 255 246 237
60.2327 199.842 112.451 201 218 255
93.3388 173.698 111.152 192 212 255
138.005 143.268 109.568 190 211 255
15.0129 179.574 112.283 204 220 255
84.7559 44.5675 114.265 175 201 255
170.033 43.9396 112.971 255 252 248
122.999 124.117 115.927 221 229 255
93.3084 173.466 111.204 194 213 255
20.1884 147.078 114.907 210 223 255
111.905 114.66 113.901 249 246 255
82.6094 36.7084 104.347 204 219 255
92.8668 173.231 110.722 201 218 255
93.5231 173.076 110.795 228 234 255
62.8498 122.818 105.811 232 236 255
57.6772 88.4847 112.013 194 213 255
158.268 102.221 111.821 248 245 255
115.823 63.0663 109.933 198 215 255
77.1526 96.6297 115.496 255 177 110
106.049 104.314 110.081 192 212 255
52.0217 88.6139 115.827 187 209 255
68.2204 94.6838 112.704 255 251 245
83.9279 109.622 108.974 197 215 255
219.335 102.66 108.415 181 205 255
74.1541 7.10394 117.996 208 222 255
97.3994 94.058 118.415 255 206 167
84.6299 177.037 104.793 214 225 255
62.0737 108.466 111.394 255 215 183
63.9828 36.3342 142.103 196 215 255
148.834 69.2451 139.173 229 234 255
27.391 60.2895 110.005 196 214 255
28.1612 75.9478 111.634 201 218 255
160.856 162.913 102.824 195 214 255
168.055 117.394 113.598 196 214 255
159.158 64.247 110.939 212 224 255
151.721 87.2189 110.184 255 246 237
93.2831 173.597 111.152 213 224 255
140.168 105.978 112.31 253 248 255
108.678 116.721 117.575 210 223 255
92.1641 172.717 111.013 212 224 255
153.438 127.505 59.2152 187 209 255
120.664 181.622 109.314 228 234 255
72.6085 173.848 110.501 228 234 255
93.2802 173.537 111.155 206 220 255
42.728 189.233 109.643 191 211 255
88.4133 96.6285 113.227 255 247 238
172.381 127.996 112.628 210 223 255
144.303 68.9221 101.226 255 233 214
93.2931 173.613 111.15 186 208 255
63.4896 218.67 94.1669 196 214 255
93.2859 173.602 111.151 204 220 255
146.207 104.808 113.179 223 231 255
88.6164 79.8634 115.249 214 225 255
17.2053 171.328 116.566 180 204 255
112.043 115.532 114.84 255 156 64
109.994 176.328 108.288 179 204 255
52.2165 108.908 120.052 211 224 255
70.0741 95.7285 111.381 214 226 255
107.319 140.284 113.238 229 234 255
191.557 17.7127 106.218 196 214 255
129.557 173.054 112.944 199 216 255
223.608 68.3783 112.736 190 211 255
103.349 145.252 104.105 255 242 231
130.921 1.26985 108.743 182 206 255
83.089 116.027 107.906 205 220 255
61.3996 32.7043 110.81 176 202 255
140.905 85.4149 116.95 233 236 255
55.1899 88.7057 112.155 203 219 255
113.023 132.574 101.921 219 228 255
111.403 121.452 111.496 255 231 212
16.793 200.556 117.42 193 212 255
117.198 129.632 110.139 248 245 255
66.4144 44.5538 101.965 189 210 255
63.7715 126.177 106.632 191 212 255
93.2869 173.604 111.151 205 220 255
115.61 117.072 109.568 255 251 245
83.0324 44.68 114.493 219 228 255
107.831 157.443 104.859 226 232 255
23.0327 47.547 108.546 184 207 255
52.5884 123.067 112.156 183 206 255
121.503 18.6682 100.314 183 206 255
110.529 113.889 122.609 255 255 251
77.8659 119.937 106.497 213 225 255
117.376 117.026 108.269 229 234 255
115.621 116.894 110.888 214 225 255
117.106 186.718 112.595 196 215 255
49.8104 95.3812 109.067 208 222 255
111.583 113.787 110.922 220 229 255
202.491 82.6235 112.905 203 219 255
107.054 174.175 112.556 193 213 255
72.7141 78.5057 112.866 255 233 215
141.858 109.604 110.354 207 221 255
203.826 63.0266 108.989 236 238 255
14.5659 110.094 115.298 193 213 255
53.311 103.107 102.681 207 221 255
67.5264 209.091 112.186 190 211 255
140.958 76.8781 110.031 255 250 255
93.3325 173.681 111.166 194 213 255
106.423 108.94 109.986 235 237 255
94.0293 174.547 110.908 194 213 255
91.5646 127.752 115.68 246 244 255
140.838 112.716 111.022 243 242 255
93.5462 174.095 111.053 255 245 235
157.056 120.168 112.736 233 237 255
120.994 200.765 108.708 181 205 255
93.2845 173.599 111.152 206 221 255
128.971 133.965 111.939 220 229 255
57.2863 44.9054 110.182 188 209 255
93.4344 173.517 111.439 254 248 255
61.9474 193.48 112.396 195 213 255
111.056 109.567 111.602 255 255 252
148.06 91.035 112.98 190 211 255
93.2697 173.497 111.229 255 205 165
101.444 109.91 120.594 210 223 255
131.528 79.6946 123.673 255 243 232
88.5835 122.713 109.544 201 217 255
77.7926 145.924 105.228 203 219 255
93.3927 173.618 111.045 190 211 255
61.3691 180.394 115.448 194 213 255
129.615 63.0392 115.177 209 222 255
100.89 150.403 112.946 211 223 255
109.822 170.627 114.716 187 209 255
122.842 185.813 112.727 255 249 255
181.286 8.02392 112.252 180 205 255
67.2872 107.935 110.224 205 220 255
93.283 173.597 111.152 201 217 255
94.4896 175.636 109.723 219 228 255
56.5196 71.7668 113.524 207 221 255
152.22 124.577 109.799 202 218 255
47.8462 104.8 105.227 205 220 255
47.7752 75.5728 114.763 239 240 255
97.9021 166.02 108.85 255 253 248
113.252 120.793 108.976 255 235 219
52.4529 88.9083 112.993 201 218 255
29.5482 161.425 111.772 193 212 255
93.2981 173.626 111.15 255 249 242
108.01 123.959 106.429 255 238 224
121.703 78.9781 113.715 222 230 255
136.8 60.9692 116.827 216 226 255
120.246 171.253 128.791 206 220 255
191.949 91.393 109.826 212 224 255
106.86 147.061 111.241 255 251 255
118.073 111.056 111.742 241 241 255
152.918 51.1341 114.351 186 208 255
134.045 22.726 111.776 198 216 255
107.812 121.295 107.412 255 242 231
80.2461 27.9384 111.722 183 206 255
68.6162 97.6665 114.205 255 255 252
93.2977 173.65 111.137 255 238 223
117.985 144.22 120.039 217 227 255
104.077 125.438 113.681 205 220 255
102.585 175.902 117.267 255 255 252
81.6644 26.2911 111.086 203 219 255
138.11 99.7424 109.702 255 218 189
52.1147 121.823 153.791 214 225 255
93.1034 173.244 111.074 216 226 255
169.919 115.652 123.467 199 216 255
124.912 189.181 112.578 191 211 255
137.5 163.089 112.464 211 223 255
175.081 169.268 98.6052 230 235 255
102.281 164.157 112.452 238 240 255
93.277 173.585 111.155 255 252 247
61.4556 115.132 112.001 220 229 255
155.447 97.7937 121.615 252 247 255
59.7492 84.7211 113.484 210 223 255
136.298 74.8403 112.88 255 207 169
65.3912 60.5894 116.773 183 206 255
138.255 73.5255 112.673 199 216 255
151.891 74.7542 111.798 199 216 255
124.77 104.409 115.976 255 246 238
126.616 22.7859 113.704 194 213 255
110.631 112.922 110.184 255 243 233
114.65 104.073 112.729 206 220 255
67.8376 59.9214 112.956 232 236 255
92.1006 152 111.994 191 211 255
94.5255 174.311 110.607 208 222 255
103.764 172.511 112.519 226 232 255
165.151 136.203 113.867 185 207 255
173.338 76.1167 116.739 199 216 255
101.867 176.799 116.348 224 231 255
102.365 98.1396 116.677 231 236 255
152.67 96.5454 107.923 198 215 255
108.087 122.122 110.538 255 250 244
109.093 123.254 107.14 255 217 186
128.943 62.6829 118.46 255 228 206
108.294 78.4924 115.78 232 236 255
78.4836 97.8463 115.361 206 221 255
122.21 135.742 115.48 198 216 255
106.183 119.032 109.587 255 221 194
103.128 70.5461 114.385 255 254 250
144.416 173.069 113.536 200 217 255
106.992 105.934 108.552 228 233 255
110.886 114.113 111.208 255 207 168
122.641 122.483 113.203 255 252 247
155.057 189.55 115.494 211 224 255
117.766 120.122 108.228 255 230 210
28.7747 144.839 116.264 194 213 255
171.561 154.265 127.695 201 218 255
157.071 111.008 115.836 208 222 255
219.403 100.553 106.436 222 230 255
97.6626 81.1593 113.128 211 224 255
164.052 113.861 113.321 199 216 255
108.816 112.867 117.096 255 235 218
81.1402 18.6023 106.646 186 208 255
109.445 61.1242 115.939 240 241 255
68.3404 126.4 112.702 228 234 255
110.964 113.573 111.525 255 250 243
162.242 103.715 112.663 205 220 255
120.122 110.086 110.884 255 208 170
114.876 72.1817 118.79 225 232 255
96.6715 172.63 111.47 240 240 255
143.316 144.574 114.325 200 217 255
16.1498 185.229 112.858 204 219 255
140.446 56.6203 115.139 212 224 255
96.9619 28.3084 112.479 196 214 255
85.8073 145.156 123.924 255 202 159
72.4634 152.562 111.72 200 217 255
59.0837 53.5143 105.795 199 216 255
167.907 120.331 110.439 206 221 255
91.814 110.13 111.528 255 236 219
125.651 17.4835 110.242 194 213 255
205.926 105.945 115.043 201 217 255
107.741 103.184 111.76 231 236 255
73.8675 39.7107 106.202 207 221 255
86.9039 106.39 114.003 255 240 227
97.4264 172.143 107.779 255 236 220
101.495 75.6505 118.787 255 216 184
224.16 65.0215 111.117 188 209 255
175.8 131.518 108.84 211 224 255
170.438 74.3967 113.726 188 209 255
93.268 173.566 111.16 203 219 255
117.232 113.629 104.103 255 214 182
141.661 81.3835 121.722 204 219 255
48.9377 139.809 109.028 202 218 255
159.938 123.401 110.54 197 215 255
202.369 58.4032 112.358 191 211 255
215.571 71.2389 114.8 200 217 255
146.249 212.815 126.743 182 206 255
93.3814 173.42 111.268 193 212 255
189.239 128.054 117.908 205 220 255
124.05 181.802 104.999 185 207 255
32.8688 204.989 103.946 208 222 255
102.637 81.5117 114.608 255 244 234
139.351 177.908 111.938 255 202 160
159.47 61.2144 116.984 209 222 255
26.1884 55.0219 59.771 198 215 255
93.1744 173.53 111.151 210 223 255
93.4263 153.554 107.937 250 246 255
93.2819 173.339 110.725 210 223 255
113.9 186.423 111.653 199 216 255
171.317 65.3148 112.025 182 205 255
112.426 171.177 113.098 206 221 255
106.719 157.826 108.206 255 249 242
93.289 173.607 111.15 255 251 255
107.753 123.199 109.344 255 141 26
93.2802 173.592 111.153 199 217 255
173.107 10.1982 108.107 195 214 255
107.058 125.499 111.872 255 247 239
75.9441 221.912 101.772 198 216 255
21.4184 164.318 110.573 238 239 255
142.75 68.4645 114.582 209 222 255
109.57 178.829 114.288 190 211 255
72.8925 142.964 113.223 209 222 255
104.994 114.08 117.915 232 236 255
62.8364 94.448 109.739 207 221 255
126.737 104.754 112.581 255 244 234
92.2758 175.806 113.331 255 247 238
113.768 117.95 117.246 214 226 255
93.3771 173.714 111.057 233 236 255
117.895 166.601 111.347 204 220 255
39.2957 167.374 110.538 197 215 255
56.1782 66.8428 97.8501 201 217 255
117.181 19.3024 122.108 187 209 255
75.7972 41.3735 111.991 203 219 255
20.5324 65.2111 119.074 196 214 255
91.8645 126.369 124.985 255 238 224
162.934 104.495 112.119 224 231 255
202.604 127.312 111.171 195 213 255
129.481 121.673 111.032 231 235 255
158.269 150.49 110.538 194 213 255
31.9462 80.9357 117.253 220 229 255
151.894 73.3787 117.244 221 229 255
74.2306 78.469 119.239 188 209 255
118.159 116.864 101.722 255 235 219
93.2792 173.59 111.154 241 241 255
80.5855 154.101 116.645 255 211 175
71.1298 127.085 110.667 221 230 255
46.4619 120.264 111.975 255 230 210
154.306 148.565 113.737 200 217 255
51.8513 47.1956 132.147 195 214 255
105.985 122.244 106.883 255 227 205
150.877 32.6892 115.251 206 221 255
108.132 213.247 81.6382 193 212 255
74.8692 164.974 111.252 216 226 255
162.422 170.984 112.95 194 213 255
120.796 90.2474 126.829 199 216 255
93.6678 15.6136 112.571 190 210 255
132.471 51.6471 118.665 255 253 248
111.476 95.3405 113.896 255 237 222
82.4812 144.512 106.165 219 228 255
117.992 134.701 104.406 255 92 0
93.2977 173.622 111.149 208 222 255
93.2862 173.603 111.152 255 185 126
38.3226 49.9621 115.549 198 216 255
93.3682 173.724 111.141 187 209 255
98.0553 94.2026 108.817 231 236 255
114.642 89.3403 113.427 255 202 159
161.992 30.9509 130.641 199 216 255
149.422 192.879 123.465 227 233 255
148.607 132.933 113.576 216 226 255
154.417 201.579 104.459 200 217 255
78.6601 93.3374 116.907 196 215 255
123.221 119.595 112.001 255 232 212
154.467 109.893 114.764 255 231 212
112.034 114.025 114.152 255 241 228
102.737 112.936 110.587 255 192 140
48.7087 194.087 111.439 193 213 255
115.77 134.769 100.46 192 212 255
49.9918 156.499 111.082 206 221 255
122.775 33.8662 115.135 198 216 255
106.926 113.441 118.806 212 224 255
92.8869 174.274 111.326 199 216 255
140.741 125.645 111.452 203 218 255
117.937 95.7134 112.853 240 241 255
110.707 57.2363 115.172 200 217 255
69.207 67.0637 111.068 222 230 255
131.28 82.6054 122.22 250 246 255
96.7231 94.0031 115.513 215 226 255
93.1239 173.627 111.116 233 237 255
119.882 130.861 105.189 228 234 255
111.581 66.9695 110.665 194 213 255
6.25829 100.638 112.575 185 207 255
100.809 109.395 114.068 255 255 251
49.7998 132.102 112.384 216 227 255
109.467 112.143 122.059 255 238 223
174.258 124.967 109.622 244 243 255
104.496 93.6742 113.831 215 226 255
67.7877 106.669 112.794 255 231 211
77.182 36.5257 116.104 203 219 255
176.548 188.539 115.548 178 203 255
93.2957 173.611 111.149 217 227 255
116.183 139.904 113.867 219 228 255
103.725 116.46 117.019 255 220 192
50.3492 116.5 106.596 198 216 255
88.7323 14.2481 104.074 203 219 255
122.661 72.7547 116.019 219 228 255
56.2346 61.1038 116.587 200 217 255
114.115 111.313 112.393 255 227 204
114.206 115.153 111.083 255 235 219
169.496 142.682 111.782 206 221 255
157.223 90.0962 115.834 234 237 255
167.609 174.062 111.732 189 210 255
4.27283 207.126 116.595 180 204 255
110.562 119.927 113.877 224 231 255
109.088 109.607 112.919 255 244 234
94.5665 151.077 116.562 237 239 255
54.0571 107.623 109.227 195 214 255
70.9383 74.1288 110.124 255 249 255
166.276 99.6981 108.104 208 222 255
91.4334 109.423 116.609 255 255 251
93.2353 173.588 111.114 255 236 219
98.4546 175.541 111.62 215 226 255
62.4565 148.511 113.981 206 220 255
112.107 111.381 114.8 201 218 255
72.414 85.5071 112.876 199 216 255
103.686 113.636 109.791 255 241 229
77.5 102.083 111.906 196 214 255
113.808 126.955 110.357 255 243 232
93.3604 173.654 111.176 187 208 255
114.767 146.659 101.084 224 231 255
144.176 58.6356 114.925 197 215 255
103.875 125.96 111.419 208 222 255
115.401 114.361 111.154 252 247 255
144.209 93.3301 111.703 255 234 217
93.2959 173.628 111.147 194 213 255
68.7107 194.765 122.377 187 209 255
112.69 111.055 112.832 255 241 229
119.798 136.958 114.463 255 221 194
185.3 70.9098 114.43 235 237 255
221.961 82.1421 116.022 187 209 255
105.426 113.03 117.881 210 223 255
104.781 119.618 113.881 253 248 255
108.141 117.571 117.495 255 226 202
121.755 124.684 114.459 255 253 248
93.278 162.777 107.821 222 230 255
158.466 66.4752 112.364 193 213 255
157.798 132.578 109.121 189 210 255
114.249 150.511 115.823 193 212 255
118.675 114.94 105.113 255 235 219
114.441 121.585 105.798 206 220 255
126.493 52.0731 116.225 190 210 255
217.934 102.076 114.026 197 215 255
155.568 154.189 116.118 197 215 255
167.266 83.333 112.747 185 208 255
93.2838 173.598 111.152 220 229 255
163.394 183.806 136.296 198 216 255
93.2667 173.565 111.158 207 221 255
120.854 84.1405 113.96 221 230 255
104.775 116.915 111.302 255 226 203
105.073 117.172 113.488 255 234 216
176.393 154.812 113.988 180 204 255
56.6709 104 107.127 209 222 255
85.4864 124.531 112.693 241 241 255
109.056 117.824 105.389 255 180 117
142.182 73.3725 105.658 224 231 255
137.147 43.5766 115.662 192 212 255
64.9531 128.853 118.94 192 212 255
93.2822 173.599 111.153 195 214 255
100.642 219.196 115.308 207 221 255
162.275 94.6982 102.77 207 221 255
118.528 86.2156 104.357 255 189 135
95.7916 59.3592 111.467 198 216 255
119.105 117.436 110.123 228 233 255
107.136 91.1347 113.576 255 207 169
111.526 105.073 116.054 255 102 0
111.899 116.116 114.246 231 235 255
94.7054 166.329 110.155 255 234 217
122.348 161.135 110.376 190 211 255
115.08 119.176 107.196 255 231 212
90.9618 141.144 126.388 209 223 255
43.835 180.376 115.438 198 215 255
138.686 125.888 112.38 197 215 255
65.7225 189.463 110.612 249 246 255
93.2774 173.586 111.155 255 219 190
117.022 165.74 113.488 216 226 255
112.23 98.6114 113.379 255 28 0
109.107 166.484 114.005 255 250 255
69.8705 104.677 112.925 254 248 255
95.434 97.3366 105.696 229 234 255
98.1866 145.628 110.794 191 211 255
154.608 96.4477 112.876 212 224 255
191.564 105.893 116.489 210 223 255
182.98 129.6 114.557 204 219 255
45.1704 82.7699 108.45 202 218 255
88.364 147.952 111.129 224 231 255
111.754 62.3283 113.672 204 219 255
16.4466 133.201 112.48 199 216 255
93.2855 173.601 111.151 188 210 255
114.355 119.274 107.193 255 247 238
144.442 55.024 114.294 201 218 255
169.047 62.1888 114.003 197 215 255
110.243 40.0914 112.345 218 228 255
166.155 184.749 113.976 188 209 255
103.639 111.062 118.334 236 238 255
89.0598 90.3264 113.497 220 229 255
79.7846 97.1801 110.4 209 223 255
104.141 105.451 112.088 233 236 255
152.198 102.487 111.299 201 218 255
69.8927 128.652 113.211 188 209 255
162.199 189.276 122.729 202 218 255
153.26 149.194 112.02 255 243 232
101.295 83.9632 113.883 232 236 255
152.366 93.8226 112.072 187 209 255
112.731 114.525 122.669 255 225 202
115.04 150.902 108.596 211 223 255
157.536 125.9 120.317 204 219 255
93.2025 173.508 111.193 202 218 255
106.521 155.482 105.527 255 252 247
67.4688 162.008 100.404 207 221 255
144.004 85.9713 107.29 255 202 159
195.735 86.9363 112.221 195 214 255
158.322 27.4961 110.664 214 225 255
88.0047 224.664 104.514 200 217 255
64.5277 76.1947 112.25 220 229 255
93.2966 173.606 111.134 193 212 255
131.385 153 112.024 201 217 255
26.9089 45.9845 116.102 182 206 255
110.435 54.4085 114.75 224 231 255
86.7022 156.117 112.755 198 216 255
182.883 65.9388 112.358 185 208 255
141.172 72.1882 115.846 207 221 255
107.618 108.492 110.378 255 228 206
44.8584 156.781 114.936 205 220 255
4.79457 159.837 115.754 176 202 255
90.9049 113.511 109.115 255 245 235
70.1217 44.3643 109.863 213 224 255
215.493 46.9035 113.005 200 217 255
149.386 139.841 109.066 195 214 255
65.406 19.8942 116.266 190 211 255
50.3074 176.547 111.533 214 225 255
127.021 82.7468 115.999 237 239 255
62.8378 84.035 117.328 199 216 255
122.068 88.6045 114.32 255 233 215
81.7498 207.879 100.23 200 217 255
170.043 132.317 101.859 204 219 255
88.9626 54.7194 115.501 200 217 255
106.829 44.9074 113.507 203 219 255
109.891 104.402 99.975 207 221 255
87.0029 25.6267 108.957 182 206 255
63.8634 77.0635 109.543 255 250 255
162.137 113.495 128.372 195 214 255
117.716 113.247 114.382 255 219 191
124.561 93.6245 101.899 255 235 219
178.664 6.11843 92.0081 197 215 255
97.6183 200.686 111.345 190 210 255
113.239 117.612 115.008 248 245 255
33.8112 149.614 110.998 177 202 255
144.184 96.7132 112.396 197 215 255
79.449 109.649 111.874 255 143 31
126.603 74.4897 118.804 205 220 255
152.98 94.0438 106.091 204 219 255
54.3454 168.68 113.146 210 223 255
90.2813 178.148 113.306 255 191 139
103.573 164.232 107.813 255 243 231
113.635 120.749 115.073 255 250 255
168.29 133.507 114.667 208 222 255
111.434 120.048 114.423 230 235 255
137.987 72.9099 113.723 201 218 255
188.202 89.6908 116.12 211 223 255
114.507 115.717 112.375 222 230 255
180.715 65.1753 114.928 202 218 255
93.1175 166.311 109.179 240 241 255
57.8338 108.84 111.781 219 228 255
139.522 177.038 114.779 203 219 255
123.336 164.251 109.926 208 222 255
110.509 152.648 112.295 211 223 255
7.81105 70.4192 109.832 181 205 255
105.766 108.611 115.256 204 219 255
133.206 88.474 115.316 203 219 255
130.395 127.32 113.299 221 230 255
93.8315 103.82 91.4085 224 231 255
110.866 115.736 114.386 255 245 235
98.6286 173.838 110.417 221 229 255
108.786 200.902 125.477 180 204 255
93.2895 173.608 111.15 201 218 255
128.267 133.843 118.46 219 228 255
47.0922 82.0295 128.011 205 220 255
107.738 114.752 117.478 252 247 255
94.59 175.929 110.906 194 213 255
175.433 85.2592 109.92 194 213 255
82.9207 160.126 112.669 191 211 255
106.04 74.1796 119.589 234 237 255
112.663 117.045 113.005 255 247 238
49.4156 128.573 110.175 212 224 255
129.211 156.204 113.581 193 213 255
17.8297 175.762 112.798 181 205 255
109.592 86.3868 118.104 216 226 255
110.827 119.455 108.435 229 234 255
81.5472 97.074 115.627 255 247 238
74.0849 30.07 110.499 188 209 255
149.137 104.929 112.007 255 210 174
107.413 113.696 110.079 220 229 255
76.0958 147.876 109.726 250 246 255
131.648 72.5823 123.706 236 238 255
93.3087 174.302 111.286 185 207 255
104.403 109.578 116.897 239 240 255
119.708 181.547 117.335 187 209 255
146.279 82.7068 99.4803 223 230 255
122.073 201.059 115.297 192 212 255
120.834 156.371 111.065 195 214 255
76.8464 148.734 107.426 255 224 199
186.809 180.326 113.424 179 203 255
84.6276 22.9452 137.812 189 210 255
93.6861 174.452 110.982 255 244 233
112.508 154.065 115.431 255 245 236
134.457 71.3172 111.037 255 230 210
135.83 70.2402 117.797 221 229 255
112.719 88.2146 118.337 243 242 255
99.6719 87.0001 119.902 237 239 255
64.0585 158.947 111.536 255 253 248
112.85 131.222 112.163 255 250 255
204.876 49.5977 110 187 209 255
162.352 134.312 113.018 232 236 255
106.328 106.589 110.604 255 240 226
138.912 81.6729 112.135 255 181 118
128.49 131.686 83.9758 191 211 255
93.2707 173.526 111.174 239 240 255
93.2815 173.594 111.153 229 234 255
111.004 112.794 123.257 221 230 255
101.469 42.8556 114.617 244 243 255
157.83 141.516 113.196 238 239 255
169.439 119.627 104.079 195 214 255
121.78 146.451 112.859 252 247 255
57.939 71.7788 94.1306 255 240 228
32.2698 43.44 116.402 189 210 255
152.078 138.684 113.39 251 246 255
78.9365 21.9406 110.425 184 207 255
51.5311 55.6719 111.813 205 220 255
93.3095 173.63 111.152 218 228 255
133.715 75.3576 119.859 242 242 255
70.6926 56.8251 109.665 206 221 255
47.2592 65.4422 110.823 193 212 255
118.469 112.888 107.94 216 227 255
129.694 95.3349 131.825 205 220 255
103.029 149.856 113.826 212 224 255
127.478 116.036 110.276 255 182 120
47.1912 61.6722 114.773 187 209 255
190 95.4112 109.646 198 215 255
146.388 85.3901 125.389 255 246 236
90.7302 132.729 110.85 229 234 255
164.543 29.2598 111.13 187 209 255
128.573 35.3001 109.173 205 220 255
83.2128 205.241 110.148 192 212 255
127.155 71.4606 124.708 189 210 255
190.832 45.7065 115.549 188 210 255
80.8988 118.843 115.07 237 239 255
195.478 38.4205 111.81 204 220 255
72.2417 84.865 115.941 212 224 255
106.887 109.872 114.67 229 234 255
162.442 119.574 102.857 239 240 255
78.212 105.063 112.166 216 227 255
123.091 26.7554 115.606 186 208 255
58.0051 126.198 113.918 220 229 255
113.27 110.543 107.127 242 241 255
179.297 98.9154 113.423 196 214 255
106.308 116.942 118.418 205 220 255
83.6396 134.823 115.091 228 234 255
159.574 113.416 122.022 239 240 255
113.852 115.941 122.129 192 212 255
141.937 95.9529 117.095 240 241 255
114.035 118.034 119.045 255 225 201
54.5448 80.802 111.387 250 246 255
124.238 189.139 113.286 187 209 255
74.795 171.561 113.034 206 220 255
81.1013 101.494 114.052 214 225 255
205.861 34.2774 115.818 178 203 255
103.471 87.0352 115.701 225 232 255
183.136 133.951 124.728 212 224 255
103.636 64.1238 111.907 213 225 255
89.5891 173.226 110.744 255 250 255
173.16 112.591 115.062 187 209 255
121.395 158.91 112.125 191 211 255
107.401 33.9437 115.472 219 228 255
56.6334 50.3094 107.786 190 210 255
107.594 113.429 120.139 235 238 255
67.9463 91.5329 110.89 212 224 255
54.5736 114.339 116.392 255 245 236
158.706 97.0518 117.136 186 208 255
99.9554 161.205 120.511 205 220 255
111.399 102.518 114.161 255 221 194
50.52 98.9363 106.772 192 212 255
89.3435 64.1885 116.087 199 216 255
48.0778 90.9704 112.15 215 226 255
162.299 99.1414 112.576 219 228 255
110.484 200.446 105.096 204 219 255
102.196 166.6 120.216 255 206 167
114.024 119.33 113.838 255 249 255
65.5266 130.455 112.048 202 218 255
167.218 119.142 110.288 204 219 255
114.206 121.355 104.827 221 229 255
118.897 81.4003 118.972 213 225 255
173.801 188.763 113.607 181 205 255
100.753 108.801 111.916 255 250 244
131.202 149.352 111.698 215 226 255
60.7545 153.241 111.956 200 217 255
83.7968 153.36 108.387 215 226 255
141.061 126.48 107.937 255 254 251
94.1142 186.777 113.004 188 210 255
47.9946 123.712 79.8935 213 225 255
148.367 161.574 109.25 193 213 255
64.4029 119.375 113.563 214 225 255
100.267 96.8475 112.959 223 230 255
142.826 129.124 108.572 197 215 255
59.6932 103.386 113.839 224 231 255
148.884 92.1058 87.1596 228 234 255
110.838 113.073 110.601 250 246 255
117.598 122.048 105.719 208 222 255
93.298 173.619 111.154 200 217 255
130.487 36.8329 111.249 201 218 255
158.455 92.3636 119.413 213 225 255
114.008 110.324 111.347 255 198 151
93.2621 173.55 111.167 190 210 255
156.073 161.062 139.346 189 210 255
93.2867 173.603 111.151 240 241 255
115.402 97.675 112.465 255 253 248
104.574 100.492 110.68 225 232 255
147.764 144.574 112.413 215 226 255
50.7198 57.0656 113.762 195 214 255
109.162 104.252 106.327 255 233 215
116.054 84.0275 111.192 185 207 255
114.458 7.45825 111.892 214 225 255
33.9312 104.751 116.053 244 243 255
77.0096 17.6127 135.909 199 216 255
125.277 124.262 112.134 210 223 255
95.8793 136.75 111.845 224 231 255
163.502 133.974 113.133 187 209 255
172.908 106.025 107.853 206 220 255
93.2839 173.598 111.152 245 243 255
200.242 94.4361 115.157 190 211 255
121.432 93.6157 112.678 255 220 192
99.9188 173.866 112.399 203 219 255
71.0205 128.936 113.087 205 220 255
61.9732 17.9397 91.0405 194 213 255
101.906 123.548 112.113 217 227 255
119.294 79.0696 115.928 203 219 255
192.588 23.599 112.289 195 214 255
162.845 47.5684 115.743 196 214 255
164.196 179.094 103.115 201 217 255
133.967 102.044 116.029 227 233 255
103.603 96.8689 119.188 255 212 178
81.4612 64.1272 114.483 199 216 255
78.1616 184.267 113.051 181 205 255
190.579 28.3026 116.819 189 210 255
69.0096 98.5051 110.264 221 229 255
90.6357 118.144 112.009 255 203 161
112.038 101.093 114.078 220 229 255
80.5183 124.679 111.783 199 216 255
110.633 110.076 106.449 255 226 202
102.109 109.043 110.229 209 222 255
98.7801 106.171 119.245 198 216 255
51.431 99.1614 105.22 212 224 255
109.749 122.212 111.211 217 227 255
176.772 198.534 105.163 195 214 255
113.748 107.748 102.533 255 249 255
89.8341 81.3774 114.561 204 219 255
34.3486 109.621 107.528 255 240 227
156.055 84.3106 114.638 247 245 255
93.2923 173.613 111.15 197 215 255
125.381 73.581 120.62 248 245 255
74.7815 88.1793 111.805 232 236 255
115.51 139.183 109.649 232 236 255
157.961 105.231 110.711 197 215 255
64.5822 92.3671 120.11 193 212 255
137.772 49.9777 118.826 186 208 255
171.21 140.242 107.619 207 221 255
88.7033 47.011 114.679 193 212 255
134.496 89.6222 117.132 255 251 244
53.9634 79.3462 100.717 197 215 255
93.2724 173.575 111.158 196 214 255
107.719 52.6999 108.598 212 224 255
158.114 116.512 110.104 197 215 255
125.942 90.3893 114.116 223 231 255
84.4557 65.5052 111.436 193 212 255
184.85 48.0904 114.396 191 211 255
110.523 82.7389 110.661 218 228 255
201.898 88.5695 110.431 197 215 255
116.102 102.584 110.327 255 194 144
113.424 106.738 105.909 248 245 255
57.1729 35.5021 131.027 212 224 255
108.52 112.171 118.498 255 199 154
70.561 135.675 121.08 255 204 164
72.0819 108.895 106.709 204 220 255
161.388 155.7 111.337 205 220 255
93.8042 173.652 111.902 214 225 255
71.4135 118.832 114.543 217 227 255
99.5582 85.1869 110.989 226 232 255
78.4213 70.4911 112.696 255 226 203
52.9196 118.496 103.407 241 241 255
93.0407 109.941 113.753 255 250 244
184.91 58.9165 113.094 204 219 255
93.2853 173.606 111.145 231 235 255
104.463 120.574 113.279 255 234 216
105.396 22.4515 109.002 255 249 242
123.821 89.7684 112.118 239 240 255
109.027 121.246 110.711 230 235 255
144.28 72.1702 122.869 255 253 249
93.2858 173.602 111.151 194 213 255
40.923 57.9228 112.209 200 217 255
93.2771 173.586 111.156 255 243 232
139.301 82.5842 119.672 255 250 243
51.3246 117.942 114.105 194 213 255
209.834 148.47 119.868 183 206 255
55.4463 119.008 105.747 255 248 240
164.549 159.074 112.528 215 226 255
109.556 101.887 113.196 219 228 255
113.101 119.912 112.143 234 237 255
128.637 124.755 112.761 205 220 255
147.976 84.577 118.085 186 208 255
112.305 115.792 121.727 255 226 203
92.8177 57.3691 113.747 255 242 231
96.7668 95.154 118.63 214 225 255
123.828 153.731 111.301 201 218 255
83.1848 71.3404 116.337 210 223 255
96.8836 202.165 108.292 206 220 255
146.269 15.9482 110.526 180 204 255
142.021 41.682 113.223 195 214 255
80.8119 106.456 110.591 255 238 224
163.536 105.249 93.8223 225 232 255
219.838 108.499 111.786 182 206 255
165.657 199.751 107.933 182 205 255
216.806 42.0963 112.559 183 206 255
172.227 114.926 96.5099 202 218 255
10.3682 177.264 112.046 188 210 255
105.906 142.275 111.248 255 252 247
103.664 171.308 110.229 236 238 255
93.2855 173.601 111.151 227 233 255
110.371 108.294 113.693 209 222 255
93.2928 173.613 111.149 217 227 255
104.654 119.498 112.932 246 244 255
13.6496 114.113 98.013 201 218 255
109.683 167.541 111.008 194 213 255
147.892 39.3064 114.444 208 222 255
124.321 47.3565 109.902 219 228 255
118.278 81.3521 113.546 255 254 251
147.698 89.2016 105.229 218 228 255
72.3185 108.207 115.181 212 224 255
95.9147 54.1701 116.698 208 222 255
115.182 125.761 110.026 214 226 255
82.9018 13.5071 99.0667 201 218 255
126.217 75.9145 120.026 207 221 255
160.012 54.2294 111.051 193 212 255
93.2835 173.597 111.152 202 218 255
143.191 109.168 112.75 255 250 255
210.464 104.719 107.684 185 207 255
179.389 106.467 109.612 186 208 255
93.2858 173.602 111.151 216 227 255
175.27 18.9835 102.876 190 211 255
113.603 98.4922 111.281 255 129 0
66.0857 82.1647 113.318 187 208 255
105.157 106.272 115.705 255 250 244
103.609 117.404 116.172 217 227 255
97.0533 82.0607 113.991 255 251 245
13.2297 148.771 113.295 177 202 255
74.5344 138.082 111.378 219 228 255
93.2379 173.51 111.19 212 224 255
146.56 7.95152 109.862 203 218 255
97.5344 135.172 112.86 232 236 255
107.985 53.5986 113.631 209 222 255
60.0148 119.866 110.567 197 215 255
69.6331 35.1976 116.129 206 221 255
123.86 107.197 114.453 197 215 255
96.2711 162.929 114.216 225 232 255
156.654 91.2553 108.408 241 241 255
93.2671 173.565 111.161 255 251 245
109.766 112.238 110.148 207 221 255
127.099 79.0808 111.171 255 219 190
101.566 72.3197 110.821 213 225 255
158.957 46.7855 113.907 193 213 255
122.751 100.794 113.138 210 223 255
93.2836 173.598 111.152 193 213 255
128.295 96.9079 112.676 218 228 255
55.8284 44.436 108.772 208 222 255
87.528 159.333 109.155 222 230 255
126.342 94.8565 110.604 255 234 217
211.585 104.401 113.962 207 221 255
124.206 83.9646 117.223 216 227 255
157.462 145.723 112.694 217 227 255
60.1477 81.4121 111.897 220 229 255
158.633 50.6784 112.907 193 212 255
86.6144 132.691 110.336 230 235 255
146.027 122.759 110.098 195 214 255
160.124 106.867 111.658 255 239 226
93.25 173.438 111.245 195 214 255
132.948 83.9428 112.878 202 218 255
86.9433 159.449 123.579 210 223 255
29.0054 55.9628 114.295 185 207 255
92.7801 173.467 111.137 193 213 255
216.103 72.2071 114.439 194 213 255
98.2916 82.6695 124.626 255 207 169
57.5315 109.158 124.018 200 217 255
150.799 7.45749 112.471 191 211 255
207.511 82.243 108.94 192 212 255
85.5131 202.181 108.855 204 219 255
86.555 157.474 116.344 195 214 255
69.576 84.7842 109.097 255 211 176
199.426 17.8923 108.133 188 209 255
92.8358 174.491 111.409 208 222 255
115.13 118.518 110.251 255 249 242
93.4438 174.029 111.155 244 243 255
83.6387 185.88 110.574 194 213 255
144.432 159.268 113.402 196 214 255
117.19 138.81 111.649 202 218 255
208.279 61.204 110.879 198 215 255
186.205 36.6935 111.944 200 217 255
123.706 79.8824 122.152 192 212 255
148.248 139.039 111.492 194 213 255
141.037 126.007 110.062 183 206 255
93.2271 173.531 111.201 205 220 255
191.182 82.9522 113.072 193 212 255
122.935 10.7445 114.791 186 208 255
110.631 104.828 112.139 255 235 218
27.6806 120.556 109.923 197 215 255
213.514 129.311 107.905 219 228 255
114.577 119.785 108.992 255 247 239
189.065 19.9633 110.384 199 216 255
160.489 111.018 116.328 210 223 255
106.052 122.576 113.245 255 249 241
92.2847 174.012 111.395 212 224 255
221.96 107.88 112.286 180 204 255
110.608 127.014 112.203 211 223 255
110.958 98.122 103.779 200 217 255
91.0823 102.018 113.873 204 219 255
152.492 151.592 114.047 203 219 255
119.422 36.8875 112.179 192 212 255
89.1431 127.275 110.146 211 223 255
93.4559 173.722 111.244 188 209 255
82.5874 17.4722 115.685 184 207 255
111.329 169.596 109.439 255 249 242
103.547 170.555 110.26 255 251 245
87.7658 139.961 111.26 255 229 209
131.628 90.8649 112.286 191 211 255
118.538 114.928 110.057 255 227 204
50.0795 83.0544 106.806 196 214 255
96.5364 122.048 111.99 241 241 255
70.5558 219.725 107.131 194 213 255
114.804 118.125 109.651 255 243 232
78.2381 118.552 115.059 204 219 255
174.988 139.623 119.368 188 209 255
93.278 173.587 111.154 246 244 255
102.148 20.4421 101.355 204 219 255
94.8458 178.714 112.716 255 249 242
107.658 117.091 108.497 255 159 70
91.1457 46.1011 114.063 190 211 255
104.671 166.458 106.813 255 193 143
113.934 121.285 105.875 255 199 154
165.898 14.3799 112.972 181 205 255
53.8478 118.974 96.2337 200 217 255
143.277 85.0564 108.314 196 214 255
114.294 115.541 111.613 255 217 187
180.619 41.4708 110.504 192 212 255
145.929 21.3002 111.975 204 219 255
156.194 12.7606 116.359 193 212 255
155.939 89.8495 108.221 255 206 167
56.7639 157.272 110.741 237 239 255
129.206 128.772 111.146 209 222 255
144.025 164.792 112.22 197 215 255
106.547 132.362 111.345 229 234 255
152.48 86.7375 118.807 188 210 255
159.654 37.0959 111.087 215 226 255
59.3504 53.133 108.531 255 252 247
123.086 164.382 115.38 201 217 255
110.837 118.901 117.938 255 249 242
137.957 132.103 112.404 255 201 158
151.532 143.095 113.589 194 213 255
104.542 111.828 118.26 230 235 255
106.577 115.814 112.524 250 246 255
54.3218 121.826 108.188 200 217 255
103.634 17.5962 111.923 186 208 255
70.0614 101.259 112.647 221 230 255
177.2 92.4435 114.184 193 212 255
98.2717 179.999 105.144 255 220 192
163.952 81.4598 119.656 193 212 255
159.642 143.027 112.675 205 220 255
168.14 118.308 114.587 197 215 255
31.466 158.17 108.623 220 229 255
128.94 72.9544 109.51 252 247 255
118.76 109.962 112.765 211 223 255
57.0551 108.104 101.634 218 228 255
107.943 122.915 107.13 212 224 255
92.419 96.6902 114.133 255 228 206
143.301 106.604 114.628 213 225 255
99.0257 138.089 113.398 201 217 255
53.2773 50.8612 84.8128 244 242 255
176.179 136.592 108.516 255 250 255
97.5997 51.9804 116.251 198 216 255
55.1593 102.933 120.77 255 203 161
88.314 36.9646 115.005 182 206 255
116.211 127.151 107.689 197 215 255
108.302 158.419 102.97 213 225 255
54.741 62.7267 130.571 189 210 255
70.2963 83.7416 115.36 255 252 248
98.1104 171.671 107.673 205 220 255
53.1779 114.817 119.286 204 220 255
121.401 40.5425 112.57 198 216 255
132.244 34.4491 111.453 195 214 255
133.868 40.3714 115.701 205 220 255
31.5277 107.163 106.845 203 219 255
118.219 120.359 118.713 210 223 255
101.266 170.913 109.069 188 209 255
54.9592 205.95 106.406 196 214 255
170.761 112.806 132.626 230 235 255
107.835 110.176 119.857 213 225 255
68.3388 122.916 113.008 255 232 214
59.5762 198.504 111.513 184 207 255
64.6776 212.428 104.121 207 221 255
119.751 42.4257 111.629 200 217 255
88.1986 26.8868 115.184 196 214 255
103.991 124.158 110.3 214 225 255
108.2 109.054 111.944 255 248 241
108.488 111.95 112.9 255 183 123
184.285 24.5896 107.3 189 210 255
80.9587 113.544 116.113 223 231 255
30.132 77.1054 113.113 184 207 255
109.819 159.501 106.538 255 210 175
87.3872 85.9977 114.354 240 240 255
13.9871 143.623 118.303 181 205 255
102.29 106.374 110.601 255 201 158
93.2797 173.591 111.154 187 209 255
158.315 136.289 102.763 192 212 255
61.6979 105.28 113.179 232 236 255
79.2791 140.946 112.894 235 237 255
127.015 87.5695 102.569 255 250 243
192.145 110.933 113.261 207 221 255
97.019 159.815 127.29 216 227 255
110.181 119.469 111.391 255 221 194
41.2021 193.243 111.658 188 209 255
96.5365 102.286 111.585 255 195 146
76.1985 99.9812 112.709 218 228 255
164.141 36.6485 111.029 195 214 255
116.924 153.974 112.486 198 215 255
49.4215 170.367 113.089 198 216 255
174.897 79.3485 115.662 223 230 255
157.145 96.498 107.019 212 224 255
208.49 151.777 114.404 231 235 255
119.451 147.414 112.629 231 235 255
106.585 133.463 111.738 255 197 151
210.208 148.689 112.4 195 214 255
138.979 109.597 112.046 255 250 244
153.535 127.176 108.384 227 233 255
151.768 146.566 114.893 255 250 244
170.12 91.7284 111.418 202 218 255
198.653 154.801 120.53 199 216 255
115.894 135.275 115.728 243 242 255
93.2709 173.572 111.159 192 212 255
122.968 98.1942 113.048 255 218 189
102.002 82.5236 115.396 255 220 192
134.674 102.673 113.564 226 232 255
107.275 107.173 118.109 197 215 255
106.793 111.243 111.548 233 237 255
93.2848 173.6 111.151 201 218 255
111.749 120.504 114.391 255 201 158
82.5335 75.5232 115.352 255 242 230
112.907 6.0118 117.655 195 214 255
77.7217 54.1124 118.68 183 206 255
165.588 151.95 115.991 202 218 255
64.1341 104.017 114.906 221 230 255
101.308 23.0388 110.669 195 214 255
65.0381 66.8338 108.247 221 229 255
59.2305 61.4372 113.332 202 218 255
142.741 144.748 116.496 192 212 255
93.2951 173.617 111.149 193 212 255
97.0964 194.291 112.527 199 216 255
105.896 111.928 110.532 243 242 255
120.924 52.7846 116.092 205 220 255
95.4502 51.2905 113.524 211 224 255
186.279 161.656 113.639 191 211 255
111.671 150.294 106.084 225 232 255
76.2239 92.6728 111.041 239 240 255
94.3554 15.6209 105.843 180 204 255
116.494 116.84 116.577 197 215 255
83.8735 74.9448 112.729 255 246 237
153.832 18.445 112.375 188 209 255
112.955 104.429 113.227 234 237 255
71.7111 92.8829 112.118 255 229 209
93.2531 173.558 111.429 202 218 255
102.642 146.68 112.258 248 245 255
54.5873 72.9845 119.824 245 243 255
177.271 58.1068 111.368 202 218 255
146.356 150.561 111.254 202 218 255
74.0263 134.727 112.388 255 225 201
112.54 117.262 111.62 255 222 196
55.9373 68.7577 114.09 198 216 255
93.2745 173.581 111.156 246 244 255
15.8703 94.1617 107.081 188 209 255
156.35 92.2468 117.436 205 220 255
61.8021 120.17 104.35 209 222 255
69.3722 69.7029 116.247 201 218 255
90.4223 168.434 112.73 249 246 255
123.469 189.236 111.845 213 225 255
109.993 147.597 112.371 255 197 150
136.05 73.4415 111.262 197 215 255
104.359 82.3383 125.519 255 203 162
109.635 114.053 114.179 214 225 255
120.914 119.642 112.71 199 216 255
127.464 89.8626 105.919 255 243 232
80.7809 162.264 114.613 198 216 255
214.356 52.8071 109.148 182 205 255
51.7224 64.7745 114.115 192 212 255
127.044 68.1681 120.955 186 208 255
126.952 113.52 109.997 206 221 255
101.48 99.8721 108.521 193 213 255
188.888 96.0415 110.722 181 205 255
93.2827 173.596 111.152 233 237 255
93.2835 173.598 111.152 191 211 255
113.904 105.917 111.603 255 201 158
110.192 117.988 116.029 255 222 195
157.391 138.823 108.571 214 225 255
101.345 143.754 129.8 255 217 188
93.2709 173.573 111.158 195 214 255
69.7811 136.515 104.918 192 212 255
90.2786 146.258 118.249 255 185 125
113.758 110.48 108.676 255 205 165
100.289 178.018 112.998 255 206 168
4.66842 98.6532 115.423 186 208 255
162.55 105.345 108.933 209 222 255
136.461 81.7955 111.576 209 222 255
78.9839 103.049 114.627 196 214 255
79.7475 82.5349 108.718 214 225 255
117.408 115.727 119.114 237 239 255
70.4389 65.3869 116.028 197 215 255
109.682 167.276 109.645 186 208 255
105.806 110.943 121.476 255 159 71
113.174 118.252 110.759 255 217 187
130.727 16.2038 111.698 211 223 255
128.903 34.1841 115.203 189 210 255
194.891 99.4407 113.235 198 215 255
128.221 155.696 112.762 204 219 255
83.6588 91.6908 116.555 218 228 255
110.799 115.672 122.839 195 214 255
70.0649 145.869 112.637 193 213 255
88.887 161.67 123.912 255 236 219
52.1068 152.818 112.837 229 234 255
62.7904 103.423 112.534 209 222 255
118.393 130.775 108.761 255 234 216
72.954 46.3503 108.596 208 221 255
116.212 112.213 109.786 255 225 200
77.5111 84.5229 114.323 199 216 255
117.153 139.975 108.143 209 223 255
131.65 69.63 113.06 255 247 238
94.6407 175.177 110.756 209 222 255
156.006 134.056 111.674 194 213 255
93.7917 173.188 111.068 246 244 255
11.4195 79.2542 112.719 211 223 255
18.0018 67.9163 113.785 220 229 255
93.2647 173.569 111.167 194 213 255
93.282 173.595 111.153 255 250 255
84.9311 88.1106 110.826 190 210 255
114.964 107.815 104.755 240 240 255
81.4467 159.835 115.283 202 218 255
8.52721 187.225 112.764 186 208 255
75.1322 221.68 114.647 179 204 255
69.6153 132.077 108.478 255 250 255
93.3611 173.598 111.438 217 227 255
56.4111 93.729 112.016 206 220 255
110.362 110.666 113.791 231 235 255
178.484 16.9037 116.895 196 214 255
123.142 214.214 122.034 189 210 255
24.0021 72.5605 114.5 192 212 255
61.1937 116.984 107.912 219 229 255
135.271 140.063 111.38 196 214 255
85.6032 143.006 114.574 197 215 255
115.75 17.8558 95.615 189 210 255
146.489 39.89 112.281 194 213 255
93.727 175.267 110.645 193 213 255
218.733 74.7533 110.652 181 205 255
63.6428 75.593 108.263 255 243 232
93.2869 173.605 111.152 210 223 255
118.48 142.939 110.817 215 226 255
161.656 35.1281 116.025 193 212 255
109.313 122.193 111.281 255 204 162
18.1902 62.9037 114.099 180 204 255
127.237 81.5761 113.046 255 250 244
93.2999 173.559 111.208 196 214 255
97.0943 175.03 110.005 207 221 255
93.4115 174.466 110.929 212 224 255
115.173 137.266 109.962 224 231 255
112.72 92.2152 113.509 255 241 229
98.6246 93.3216 115.542 255 250 244
127.25 112.294 115.085 255 216 185
95.6903 1.73973 111.934 196 214 255
154.74 132.368 98.2312 200 217 255
136.774 128.302 108.795 216 227 255
93.284 173.598 111.152 217 227 255
57.1649 114.154 102.498 204 219 255
114.432 160.988 108.546 194 213 255
93.1318 173.341 110.581 195 214 255
93.2883 173.606 111.15 239 240 255
87.9997 93.1779 111.112 255 238 224
105.141 214.382 102.182 192 212 255
180.217 72.0952 114.175 204 219 255
103.265 175.203 122.46 255 225 201
92.5432 108.669 113.579 255 246 237
93.2807 173.593 111.153 255 252 248
106.591 163.462 116.41 255 239 225
77.0751 23.4841 110.109 195 214 255
88.4884 88.8973 111.595 192 212 255
10.411 74.34 118.382 215 226 255
108.215 117.672 110.902 255 231 212
194.178 175.257 110.466 202 218 255
106.705 108.856 118.057 209 222 255
94.1041 108.159 110.794 228 233 255
49.6959 177.7 112.702 191 211 255
55.5964 115.263 113.517 214 225 255
136.059 67.8893 124.726 233 237 255
97.9447 153.567 111.446 241 241 255
115.008 122.906 106.947 235 238 255
109.507 154.636 118.269 200 217 255
131.383 107.561 110.791 255 240 227
93.284 173.599 111.152 193 213 255
162.263 143.984 136.041 203 219 255
152.11 152.486 92.4515 199 216 255
83.0181 120.094 114.883 196 214 255
142.501 4.30896 109.784 203 218 255
168.907 162.966 113.839 188 209 255
111.114 3.6843 110.119 187 208 255
102.007 47.7061 95.7616 191 211 255
99.5371 68.5296 114.129 196 215 255
115.236 84.1026 110.663 195 214 255
131.594 114.296 112.955 246 244 255
108.2 92.3175 112.778 255 244 234
111.219 118.32 118.442 247 244 255
142.001 39.5214 116.495 198 216 255
74.3428 169.931 111.753 222 230 255
78.5827 93.3299 120.926 210 223 255
145.257 56.4516 113.368 216 226 255
86.7965 193.099 112.83 190 211 255
158.629 99.9289 104.584 212 224 255
105.358 108.146 112.375 255 233 215
154.357 101.971 115.363 206 220 255
165.197 114.709 111.943 210 223 255
210.051 89.4862 108.965 189 210 255
71.725 54.0969 111.124 243 242 255
93.4109 174.335 111.136 245 243 255
77.3848 100.222 109.806 223 231 255
