ply
format ascii 1.0
element vertex 1341
property float x
property float y
property float z
property uchar red
property uchar green
property uchar blue
end_header
113.168 64.473 111.781 204 219 255
157.63 81.3616 118.621 214 226 255
111.202 150.489 113.499 191 212 255
52.7292 210.504 114.836 185 207 255
99.9092 215.982 110.178 180 204 255
112.018 113.846 105.869 227 233 255
176.174 142.757 117.16 195 214 255
116.035 80.0367 109.315 255 220 192
79.8973 146.092 115.693 255 228 206
114.805 147.279 117.66 214 226 255
59.9472 205.212 111.865 199 217 255
73.5939 142.975 106.166 238 239 255
132.601 76.2782 96.6353 245 243 255
152.314 175.605 110.852 187 208 255
122.928 105.604 108.61 207 221 255
105.728 158.223 102.526 219 228 255
105.642 51.5702 116.66 202 218 255
86.0773 147.879 119.066 204 219 255
29.8834 220.766 93.2058 190 211 255
153.411 82.3459 112.283 255 251 244
93.5095 173.489 110.848 197 215 255
91.812 127.738 116.82 255 240 227
159.833 37.6339 115.024 187 209 255
101.582 47.7926 108.083 201 217 255
212.169 117.413 113.617 211 223 255
25.8598 87.2042 101.614 213 225 255
104.715 115.641 115.554 204 219 255
152.822 139.04 115.114 255 243 232
181.732 177.412 111.066 181 205 255
111.44 150.893 108.439 212 224 255
40.7632 180.514 112.945 204 219 255
30.5768 189.955 112.014 191 211 255
61.4821 176.126 112.592 196 214 255
59.7328 71.8645 112.21 185 207 255
93.482 173.52 110.812 207 221 255
83.2173 27.3896 112.455 189 210 255
147.002 98.716 110.998 201 217 255
121.585 126.744 110.921 236 238 255
88.6449 116.093 112.512 255 224 199
59.5121 151.597 115.152 189 210 255
114.318 167.392 112.174 189 210 255
134.567 101.064 119.708 255 206 167
158.719 184.001 113.806 255 255 251
105.795 107.509 111.958 223 231 255
109.237 124.407 104.709 250 246 255
91.5661 180.028 111.352 202 218 255
44.9815 39.8562 108.079 187 209 255
122.54 103.724 111.523 221 229 255
90.7062 116.994 114.924 195 213 255
173.318 137.939 108.763 214 225 255
93.4935 188.036 113.543 192 212 255
175.579 51.7835 115.529 190 210 255
83.7823 160.211 111.414 218 228 255
112.159 200.4 113.768 194 213 255
168.481 104.194 116.091 196 214 255
93.4453 31.0811 113.233 192 212 255
108.006 110.035 113.891 235 238 255
118.601 136.573 107.891 247 244 255
18.7752 115.166 113.628 184 207 255
111.943 108.689 113.219 255 250 243
155.416 89.2218 111.564 234 237 255
106.629 89.3907 110.137 203 219 255
79.8952 102.825 112.268 208 222 255
116.157 77.213 110.115 233 236 255
45.9431 55.621 106.586 213 225 255
60.4517 20.822 109.424 194 213 255
93.5155 173.468 110.855 217 227 255
95.8088 178.209 114.436 218 228 255
158.319 125.467 111.558 255 239 226
101.33 88.2604 113.601 221 230 255
119.086 124.286 112.361 255 249 255
68.1149 105.668 111.922 254 248 255
167.656 134.324 108.385 207 221 255
35.3951 147.904 110.375 185 208 255
57.0871 220.121 112.348 180 204 255
116.137 137.498 110.973 255 243 231
168.179 87.6432 113.078 196 214 255
190.669 124.323 119.008 198 216 255
57.0116 32.656 103.489 181 205 255
41.2157 203.207 112.605 183 206 255
165.267 110.403 111.615 255 243 233
169.63 131.087 125.512 195 214 255
85.8484 94.0119 116.284 220 229 255
116.313 194.015 114.907 196 214 255
130.578 97.37 111.391 235 237 255
125.829 161.661 111.722 209 222 255
111.821 127.378 110.533 255 237 221
222.923 138.043 110.187 199 216 255
152.297 208.489 112.544 199 216 255
93.5111 173.486 110.857 222 230 255
132.976 212.63 121.415 198 215 255
80.4616 145.314 112.18 255 130 0
63.1816 129.985 113.157 198 215 255
50.5707 122.106 106.863 255 193 141
123.921 118.42 110.838 219 228 255
94.2358 166.02 111.528 192 212 255
135.913 78.2728 124.519 253 248 255
115.623 133.962 110.095 220 229 255
111.789 110.401 113.941 204 219 255
130.059 169.926 113.344 251 247 255
154.687 180.167 110.725 200 217 255
150.75 174.137 92.3866 219 228 255
57.6646 107.121 124.465 190 211 255
128.751 78.1953 116.82 255 236 220
109.951 170.321 110.746 195 214 255
161.421 161.486 124.192 219 228 255
93.5173 173.461 110.856 199 216 255
99.7468 157.399 115.153 199 216 255
122.39 102.253 112.52 255 231 212
99.2422 30.46 113.421 194 213 255
66.3663 148.508 110.535 225 232 255
138.241 69.4784 120.296 251 247 255
121.994 134.929 119.662 255 224 200
152.072 93.3833 117.073 213 225 255
74.4175 24.7848 111.215 187 209 255
93.7323 152.509 107.852 197 215 255
108.905 180.532 111.768 191 211 255
110.886 119.17 100.3 199 216 255
96.6393 85.1697 111.983 236 238 255
66.015 91.8263 116.224 191 211 255
58.4871 124.571 111.094 187 209 255
124.571 94.2303 109.32 249 246 255
110.521 106.434 113.09 242 242 255
166.676 81.4055 101.627 213 225 255
120.754 85.6947 112.471 238 239 255
61.6273 170.081 111.647 240 241 255
93.5263 173.484 110.847 183 206 255
150.367 78.3171 110.884 247 245 255
93.5433 173.366 110.845 255 250 243
43.6777 113.082 104.742 197 215 255
90.8416 179.488 112.029 189 210 255
106.91 109.727 112.152 255 222 195
125.839 83.0251 89.2405 206 221 255
121.974 113.707 110.776 255 252 247
120.372 163.337 110.405 189 210 255
53.6733 190.852 110.149 211 223 255
95.7 66.2892 113.873 195 214 255
162.399 56.4601 112.344 186 208 255
93.5148 173.47 110.854 215 226 255
203.843 156.831 114.526 197 215 255
111.902 43.2662 114.639 200 217 255
107.791 121.082 108.886 255 250 244
121.133 78.6991 112.902 222 230 255
193.243 104.579 111.779 201 217 255
53.5531 71.7552 103.568 207 221 255
158.15 92.1091 118.347 208 222 255
93.5177 173.459 110.856 198 216 255
88.0846 169.804 113.23 202 218 255
127.283 84.358 112.573 245 243 255
109.377 113.613 110.899 223 231 255
35.4117 195.19 112.315 194 213 255
123.169 152.948 112.091 255 250 244
81.8847 61.3111 109.245 200 217 255
111.305 131.396 110.827 255 228 206
107.171 108.674 111.22 255 198 151
108.447 117.735 112.279 255 246 237
111.047 114.397 113.118 255 208 170
105.702 147.761 111.513 239 240 255
108.551 168.994 109.171 206 221 255
100.222 112.524 114.38 255 247 239
107.706 111.244 115.953 255 172 100
49.8958 90.9304 109.408 200 217 255
83.3659 75.5382 117.967 229 234 255
99.2108 116.598 109.035 255 229 207
76.6078 71.0477 113.985 199 216 255
15.4508 105.868 110.481 180 204 255
50.0931 139.045 112.02 239 240 255
93.5232 173.401 110.852 213 225 255
78.3335 150.789 109.942 205 220 255
164.314 116.907 107.329 193 212 255
140.281 74.7607 112.092 224 231 255
110.231 114.523 111.617 231 235 255
171.814 88.5802 111.302 209 222 255
113.39 115.394 109.127 255 231 211
85.3239 43.2083 111.633 183 206 255
89.9375 85.4652 107.823 250 246 255
93.5118 173.485 110.85 204 220 255
95.8039 98.6269 110.329 255 254 250
153.127 127.324 108.833 194 213 255
58.4285 84.1439 111.698 195 214 255
114.388 112.945 112.091 255 240 227
148.754 153.386 112.079 255 227 205
89.3313 121.007 112.426 242 242 255
114.547 111.298 106.135 255 200 156
110.008 118.548 107.775 255 235 218
113.207 116.858 112.762 221 230 255
110.141 113.552 115.985 255 243 232
110.247 115.509 112.846 255 245 235
65.1906 92.6585 109.594 242 242 255
65.6414 127.291 112.285 201 218 255
109.613 107.741 111.937 210 223 255
101.704 46.2858 110.545 254 248 255
182.584 87.231 112.02 204 220 255
113.085 91.3407 118.573 225 232 255
158.36 97.8858 104.949 224 231 255
153.427 76.6927 110.776 222 230 255
35.9228 184.148 115.519 206 220 255
81.5022 42.1927 111.923 201 218 255
224.424 113.365 110.911 188 209 255
108.917 121.858 109.039 255 245 235
112.689 47.3701 113.583 199 216 255
100.595 176.999 117.207 255 254 249
13.489 136.554 115.939 182 206 255
90.7302 116.722 114.663 224 231 255
150.966 140.992 111.126 195 214 255
75.7537 85.2658 111.154 220 229 255
108.342 114.517 114.224 226 232 255
162.319 127.286 114.106 246 244 255
155.292 120.362 111.037 206 220 255
163.22 163.27 104.855 213 225 255
157.327 88.3709 108.575 190 211 255
46.7726 57.3412 113.969 190 210 255
90.6687 113.371 112.208 255 241 229
64.9708 126.105 110.628 197 215 255
54.2406 131.165 114.408 222 230 255
45.9943 62.8472 121.373 192 212 255
85.6009 76.165 109.797 248 245 255
143.334 81.8871 106.897 255 243 232
113.407 145.268 112.171 255 214 181
108.313 120.206 111.529 228 234 255
110.984 135.107 93.5593 255 205 164
105.521 95.6049 117.238 255 235 219
79.891 137.285 108.925 217 227 255
113.538 105.2 106.488 255 207 169
108.748 108.76 116.683 255 206 167
98.5448 108.184 106.881 255 115 0
22.737 212.427 101.798 194 213 255
155.47 99.2023 114.652 235 238 255
70.5847 134.251 111.48 197 215 255
149.385 131.152 111.841 191 211 255
176.066 111.437 114.792 194 213 255
105.696 50.8581 117.621 187 209 255
88.4324 58.6766 115.375 255 195 146
106.507 153.049 114.076 255 249 242
59.9353 56.1421 116.055 200 217 255
81.6134 152.219 108.457 244 242 255
102.47 107.244 112.466 255 244 233
98.9495 105.665 113.533 227 233 255
205.548 75.7067 109.743 195 214 255
57.5058 72.767 112.844 187 209 255
74.5216 171.209 111.533 210 223 255
159.897 82.6127 111.683 211 224 255
159.764 147.23 116.061 225 232 255
131.056 113.354 114.417 224 231 255
99.0309 87.6238 112.795 192 212 255
92.2877 56.9605 110.83 197 215 255
120.253 98.8088 114.99 255 230 210
92.6578 174.62 110.24 201 217 255
129.93 29.9763 112.615 190 211 255
129.991 55.8281 117.562 255 246 236
141.538 147.739 108.669 226 232 255
93.4832 172.897 110.605 193 213 255
13.0619 111.045 114.099 195 214 255
95.3102 26.3691 109.526 211 224 255
157.417 103.568 115.228 211 223 255
74.888 119.724 108.575 255 249 242
205.138 76.8142 114.583 219 228 255
77.4438 45.2398 112.367 195 214 255
114.034 116.168 114.201 210 223 255
96.4451 218.334 113.172 190 211 255
73.9548 71.1117 101.836 189 210 255
163.349 124.632 115.264 255 248 240
111.273 128.266 110.574 255 117 0
142.862 48.6372 117.265 233 237 255
103.348 122.383 110.276 255 211 176
119.408 66.9675 116.933 230 235 255
99.976 153.971 113.863 213 225 255
142.73 136.583 115.476 207 221 255
199.07 26.6976 111.588 180 204 255
111.465 114.675 114.601 255 233 216
128.252 73.3209 120.126 205 220 255
147.981 4.82178 111.494 197 215 255
103.521 164.716 116.291 252 247 255
93.4989 173.513 110.834 208 222 255
82.7718 148.992 117.158 214 225 255
157.925 164.521 113.29 188 209 255
48.2309 79.6796 110.52 244 243 255
87.7653 174.145 112.965 207 221 255
77.164 146.85 105.97 211 224 255
168.843 189.523 130.781 191 211 255
151.687 51.5559 109.778 195 214 255
114.272 116.246 108.024 255 254 250
91.944 160.328 117.101 255 202 159
143.072 136.928 113.129 217 227 255
164.082 129.308 112.991 191 211 255
89.5416 120.979 111.211 219 228 255
113.661 195.424 109.921 205 220 255
113.815 114.609 109.692 233 236 255
111.903 168.451 111.01 197 215 255
108.74 92.2239 108.588 237 239 255
104.931 113.8 114.984 255 163 79
157.359 55.9036 113.839 255 255 252
114.484 148.592 110.924 208 222 255
72.6266 91.5739 113.465 255 230 210
85.3164 169.917 114.214 190 211 255
116.991 85.0445 113.655 201 217 255
93.4519 173.523 110.828 194 213 255
83.989 89.685 115.019 221 229 255
82.8626 132.052 114.157 210 223 255
109.429 109.377 110.232 255 238 224
141.651 206.407 115.918 186 208 255
63.9151 117.551 118.403 231 235 255
114.704 119.313 109.277 255 232 212
163 174.516 103.035 210 223 255
130.459 198.197 106.162 194 213 255
108.72 105.843 112.805 255 251 246
97.2542 58.2292 111.393 239 240 255
56.2548 164.863 111.094 202 218 255
138.911 202.833 124.237 195 214 255
56.1671 113.524 105.624 196 214 255
115.77 186.513 111.638 178 203 255
61.631 100.758 110.932 255 244 234
91.9895 100.531 116.267 211 223 255
110.251 112.7 116.529 255 242 230
145.01 138.873 113.689 211 224 255
101.549 71.3921 112.346 221 229 255
93.4776 173.034 109.982 220 229 255
74.1311 211.171 111.055 201 217 255
118.795 80.3446 111.194 255 249 241
31.1141 198.52 111.762 177 202 255
155.546 91.3053 117.73 215 226 255
152.339 163.874 113.101 201 218 255
48.1654 53.9278 112.341 187 209 255
111.312 112.915 112.528 255 230 210
53.4499 110.025 104.945 207 221 255
161.921 114.862 99.7638 255 253 249
115.951 114.895 109.9 255 202 159
96.478 71.9141 112.99 204 219 255
93.5226 173.469 110.854 255 253 249
117.313 94.7895 113.706 255 189 135
137.781 146.523 114.737 248 245 255
99.2747 43.5337 114.385 191 211 255
71.2094 102.701 114.709 182 205 255
164.203 156.274 107.296 206 221 255
55.1302 69.9024 113.351 183 207 255
144.61 193.853 110.981 208 222 255
118.272 139.271 113.605 255 246 236
93.6117 173.161 110.876 217 227 255
56.0118 100.729 125.267 206 220 255
105.29 160.891 119.791 255 243 232
124.622 102.44 111.473 210 223 255
175.366 115.856 112.74 190 211 255
181.491 143.361 122.352 199 216 255
118.488 113.734 106.084 255 194 144
140.965 162.349 111.993 222 230 255
104.856 23.7201 107.591 208 222 255
150.197 123.136 115.27 184 207 255
204.641 86.5763 115.003 200 217 255
88.6276 117.624 107.667 220 229 255
52.5966 115.42 115.241 190 211 255
110.362 117.076 108.572 255 213 180
93.3994 173.199 110.712 195 214 255
59.0381 150.943 112.211 215 226 255
97.7782 172.784 106.15 255 247 239
175.782 87.1535 111.558 199 216 255
99.1246 83.7382 116.783 249 246 255
75.2223 154.164 115.07 224 231 255
93.8999 174.48 112.104 218 228 255
103.224 109.439 112.874 216 226 255
83.6576 74.9159 106.928 195 213 255
106.736 109.549 112.505 244 243 255
89.9959 220.016 112.476 186 208 255
60.3288 172.403 116.784 188 210 255
99.2878 176.325 110.071 211 223 255
166.018 74.0663 108.984 217 227 255
65.5392 136.849 115.25 218 227 255
43.0016 40.6602 111.014 192 212 255
100.919 38.4695 114.188 198 215 255
160.607 161.885 113.693 202 218 255
110.774 179.873 110.257 189 210 255
134.422 136.141 109.62 255 225 201
51.6259 82.9299 108.711 205 220 255
93.5132 173.476 110.853 189 210 255
151.039 89.201 117.396 192 212 255
166.344 79.1714 113.778 221 229 255
93.6294 173.348 110.992 182 205 255
109.435 113.12 117.115 255 210 174
120.756 72.665 114.551 206 221 255
93.5228 173.423 110.854 204 220 255
33.6821 195.158 111.838 182 205 255
176.505 123.928 112.576 185 207 255
89.4412 81.8837 114.692 225 232 255
126.166 74.89 113.827 205 220 255
96.4138 163.339 115.199 215 226 255
94.5437 168.182 109.482 221 229 255
110.074 10.0362 104.926 202 218 255
167.011 138.719 111.99 194 213 255
104.529 112.341 110.054 255 243 232
79.6129 180.795 112.742 225 232 255
158.567 89.9376 106.122 223 231 255
155.058 89.926 103.169 197 215 255
71.1517 137.937 120.769 207 221 255
186.618 129.311 110.048 255 249 242
98.1345 168.503 109.68 255 254 249
167.716 73.0501 95.496 215 226 255
44.96 127.287 114.387 183 206 255
101.251 80.9705 105.835 255 240 227
208.195 45.8079 112.088 202 218 255
115.205 177.054 108.472 235 237 255
108.752 112.678 115.613 199 216 255
107.529 109.502 115.564 244 243 255
86.1318 133.942 117.198 188 210 255
17.1104 152.774 113.613 229 234 255
93.8133 173.728 110.873 255 251 245
114.968 90.182 110.335 211 223 255
140.885 39.9248 112.102 193 212 255
21.2914 96.7854 116.035 190 211 255
166.936 104.431 120.235 209 222 255
149.938 85.2022 109.82 230 235 255
175.479 0.923201 112.207 184 207 255
17.7966 81.7475 111.573 174 200 255
91.2616 142.29 112.716 216 227 255
98.8177 166.468 107.244 218 228 255
93.4877 173.532 110.84 254 248 255
28.7066 149.516 108.723 198 216 255
157.838 95.7889 107.162 209 222 255
165.045 3.51884 112.127 180 204 255
163.044 101.852 118.96 207 221 255
103.649 174.664 109.648 188 209 255
164.005 146.224 121.821 187 209 255
118.658 122.902 110.763 205 220 255
200.419 60.0182 110.206 194 213 255
71.1978 145.161 117.62 204 219 255
127.711 82.154 118.464 210 223 255
138.711 133.427 112.154 213 225 255
153.101 154.289 109.342 225 232 255
101.805 88.1041 114.216 255 255 251
131.182 192.499 113.411 180 204 255
115.042 90.411 111.663 255 249 242
110.243 120.53 114.531 255 200 156
26.1819 158.486 113.951 214 225 255
119.382 71.0975 115.014 255 251 255
93.5719 173.066 110.76 218 228 255
1.93675 85.8144 108.85 199 216 255
83.1574 107.373 108.85 232 236 255
85.1736 13.8186 116.482 191 211 255
193.147 179.492 115.19 185 207 255
167.671 60.7721 111.308 186 208 255
56.2678 111.414 115.23 193 213 255
107.278 132.609 111.318 209 222 255
93.5193 173.452 110.857 196 214 255
110.835 112.313 113.843 255 229 208
92.2562 78.9057 117.51 218 227 255
100.587 181.736 111.417 210 223 255
140.224 97.9416 102.829 255 252 247
136.66 71.0196 120.012 208 222 255
95.1965 134.004 110.993 204 219 255
127.507 83.7433 112.409 197 215 255
112.041 116.193 119.334 220 229 255
93.6432 130.695 110.596 241 241 255
93.3125 173.502 110.91 215 226 255
178.37 131.362 109.149 255 251 255
93.7706 172.672 111.193 197 215 255
81.5866 28.6737 152.866 187 209 255
142.377 77.5247 110.011 255 247 238
77.1814 85.2705 108.167 205 220 255
196.597 41.1743 111.375 189 210 255
93.5177 173.459 110.856 222 230 255
59.5889 37.2027 110.58 196 214 255
168.097 100.162 119.626 192 212 255
111.767 140.935 116.23 255 226 203
174.922 53.2847 116.334 190 211 255
54.1522 196.16 113.613 212 224 255
146.076 11.6314 112.081 195 213 255
144.269 79.4078 111.527 215 226 255
129.709 135.138 111.148 255 178 112
39.8893 78.371 122.124 195 214 255
71.7179 94.4745 116.725 227 233 255
61.1607 152.179 94.7311 214 226 255
119.923 122.514 112.913 255 255 251
101.13 47.7944 112.616 189 210 255
93.5505 173.43 110.803 215 226 255
38.7597 82.183 107.589 208 222 255
93.5244 173.318 110.84 187 209 255
79.0732 97.3989 116.402 255 231 212
149.338 177.085 111.065 230 235 255
119.149 88.9296 113.419 234 237 255
122.39 50.7715 114.696 189 210 255
114.044 13.047 127.641 214 225 255
167.767 112.638 114.46 189 210 255
118.425 172.842 122.84 195 214 255
113.095 174.433 111.446 210 223 255
93.5199 173.448 110.858 203 219 255
107.008 79.8809 113.439 255 209 172
134.916 126.15 115.127 206 221 255
99.5468 110.346 106.866 215 226 255
216.979 58.9154 109.672 197 215 255
55.006 94.2141 116.925 206 221 255
111.714 90.8323 109.96 205 220 255
127.956 156.739 111.525 216 226 255
105.209 116.368 110.236 255 235 218
93.5197 173.454 110.857 193 212 255
108.048 63.9518 115.264 229 234 255
146.133 112.502 113.052 255 237 222
178.805 132.074 103.506 215 226 255
65.1718 50.4799 110.849 188 209 255
153.413 53.8888 112.711 218 228 255
51.2001 102.604 108.906 197 215 255
210.634 90.8343 110.835 191 211 255
51.422 98.4419 109.553 196 214 255
32.6298 89.4791 108.231 189 210 255
93.5115 173.502 110.834 191 211 255
109.761 177.026 111.827 194 213 255
42.9802 30.2323 115.259 198 216 255
101.41 87.3958 110.342 255 238 223
8.86882 182.658 111.627 186 208 255
104.747 167.821 107.065 255 246 238
160.486 101.731 112.046 190 211 255
6.3145 131.926 108.908 178 203 255
56.3429 210.982 107.122 198 215 255
141.345 76.7469 111.921 197 215 255
121.626 107.804 124.183 255 240 227
106.612 109.662 115.407 255 185 127
134.796 154.672 112.664 226 232 255
143.622 148.31 146.721 196 214 255
188.716 101.725 109.188 207 221 255
93.525 173.417 110.857 197 215 255
80.4739 90.4265 112.996 208 222 255
124.887 29.7086 110.721 216 226 255
111.199 114.89 118.279 205 220 255
106.953 124.148 116.43 255 183 123
107.949 106.9 112.337 255 245 235
156.342 108.761 114.753 206 221 255
50.8257 211.37 110.435 184 207 255
153.568 58.5672 114.075 187 209 255
64.9277 123.533 96.0779 230 235 255
163.371 153.607 106.595 202 218 255
66.7572 112.03 112.318 255 192 140
128.458 112.607 110.793 210 223 255
129.442 65.3425 118.953 204 219 255
36.3715 91.1014 114.092 199 216 255
93.4879 173.513 110.838 208 222 255
135.86 8.50879 110.66 200 217 255
107.423 147.889 112.667 220 229 255
167.129 117.449 111.37 227 233 255
103.173 152.048 124.324 243 242 255
150.789 123.524 111.627 203 218 255
173.204 154.67 116.491 182 206 255
146.588 91.0404 113.285 188 209 255
114.385 110.446 107.754 255 229 208
72.2387 117.822 106.876 255 240 226
93.5042 173.491 110.846 200 217 255
79.7501 63.151 114.412 243 242 255
102.784 135.164 111.69 207 221 255
154.614 89.7935 105.843 199 216 255
71.2314 53.3814 112.556 255 253 248
143.238 85.4553 116.357 255 253 249
110.096 111.259 114.979 255 221 193
64.0505 123.987 110.259 199 216 255
93.5232 173.431 110.857 198 216 255
112.214 115.11 109.99 255 227 204
165.535 94.7863 116.832 202 218 255
109.462 48.5655 115.664 255 252 247
105.663 164.028 115.245 255 249 242
84.3046 90.5132 110.158 211 224 255
171.521 124.667 104.764 216 227 255
115.208 116.452 107.581 238 239 255
165.019 172.237 128.622 204 219 255
115.064 119.323 108.985 255 246 237
93.5023 173.249 110.797 202 218 255
80.9179 54.6054 115.843 196 214 255
100.875 167.654 110.102 255 234 216
68.5544 103.31 110.775 209 222 255
149.615 87.886 110.022 222 230 255
114.028 119.257 106.316 255 248 241
136.043 153.132 112.463 188 209 255
105.732 105.163 112.812 253 248 255
61.1939 59.1547 108.732 181 205 255
109.336 113.888 115.791 255 207 170
93.3656 173.43 110.97 208 222 255
63.1004 129.689 112.882 217 227 255
186.084 117.972 81.7199 198 216 255
124.667 88.4988 109.687 255 245 235
82.6026 100.008 109.094 255 247 239
111.541 115.04 103.762 216 227 255
66.2128 95.8119 115.129 195 214 255
164.422 131.356 113.053 198 215 255
73.3594 193.161 112.537 192 212 255
167.551 140.747 112.244 193 213 255
138.598 82.7009 115.33 200 217 255
105.615 118.618 109.473 255 246 237
107.557 122.674 115.065 240 240 255
99.3933 174.095 108.075 255 216 185
161.811 99.8581 105.591 211 223 255
173.31 125.348 118.939 213 225 255
98.8295 131.785 109.133 255 253 249
93.5306 173.414 110.853 227 233 255
155.236 93.0301 113.279 255 222 195
32.6666 123.25 113.349 198 216 255
191.325 23.3182 117.382 190 211 255
129.841 69.9718 117.986 216 227 255
60.3969 122.662 120.236 208 222 255
155.48 132.842 108.751 249 246 255
148.858 45.4476 114.099 185 208 255
7.08644 104.625 113.683 198 215 255
105.385 102.123 112.875 255 246 237
139.722 64.9284 119.48 255 215 183
114.484 141.736 109.756 241 241 255
114.159 119.823 110.884 255 211 176
114.661 119.788 109.511 255 247 239
160.316 104.108 103.232 204 219 255
196.623 135.528 119.833 207 221 255
155.162 113.926 117.783 232 236 255
108.741 101.839 112.628 227 233 255
91.5126 132.364 112.326 255 217 187
200.495 168.596 113.588 191 211 255
109.168 118.22 110.482 193 213 255
108.065 113.204 109.365 255 189 135
108.719 112.006 115.344 236 238 255
120.499 83.9814 111.359 201 217 255
107.189 110.006 116.586 255 250 243
131.005 135.965 111.896 224 231 255
74.975 118.795 116.255 217 227 255
130.251 73.6754 118.644 199 216 255
60.6445 43.0578 108.945 197 215 255
150.783 163.139 115.525 196 215 255
110.282 113.188 112.709 255 255 252
56.8834 99.7767 108.648 202 218 255
97.5301 115.61 111.533 255 189 134
22.668 53.5955 111.269 185 207 255
93.6155 173.41 111.114 207 221 255
93.5143 173.471 110.852 195 214 255
155.514 150.134 110.581 255 114 0
93.9147 93.6879 113.117 206 221 255
115.286 112.952 109.636 202 218 255
76.8173 55.9068 111.847 207 221 255
194.518 38.006 113.059 186 208 255
7.26016 99.185 114.093 197 215 255
140.62 39.8186 110.795 201 218 255
197.192 86.2242 114.076 188 209 255
105.908 54.6716 109.464 255 219 191
108.174 106.648 111.985 225 232 255
87.8889 154.296 114.26 197 215 255
162.465 136.42 110.472 193 213 255
114.486 53.8798 111.581 255 240 227
107.104 116.59 114.231 255 236 220
101.553 88.2492 113.978 226 232 255
122.68 124.987 108.077 219 229 255
114.318 118.028 108.092 215 226 255
125.415 51.3119 117.339 224 231 255
137.575 117.884 112.71 214 225 255
210.195 50.168 110.045 187 209 255
169.73 74.0554 114.716 200 217 255
161.741 138.649 109.116 188 209 255
157.359 105.819 114.189 228 234 255
170.858 159.386 111.933 202 218 255
93.5547 173.387 110.844 255 248 240
113.796 106.222 110.478 255 213 179
68.9199 101.024 116.381 255 235 219
172.112 75.822 109.687 191 211 255
93.514 173.472 110.854 201 217 255
113.815 155.417 109.192 204 220 255
111.146 112.713 115.399 208 222 255
128.003 2.41614 97.3703 216 227 255
215.275 71.8975 109.655 194 213 255
112.366 116.696 106.451 255 218 189
150.385 128.835 110.424 210 223 255
123.888 134.363 113.329 201 218 255
146.505 87.9087 116.019 225 232 255
51.1217 164.004 112.27 196 214 255
93.481 173.496 110.812 194 213 255
93.8578 173.913 110.688 203 219 255
115.529 114.776 110.88 255 205 166
127.079 162.04 110.492 238 239 255
135.598 76.7639 118.006 255 233 215
104.442 110.643 111.146 236 238 255
64.6342 91.5103 114.627 255 247 238
93.504 173.496 110.844 186 208 255
148.587 10.1564 112.411 191 211 255
64.643 167.445 114.258 199 216 255
79.5773 110.951 105.968 219 228 255
94.8353 164.027 119.753 196 214 255
93.1149 52.2908 113.542 214 225 255
115.753 142.319 114.305 225 232 255
81.223 84.7209 115.738 215 226 255
108.273 107.48 112.748 255 239 225
181.498 173.674 115.883 209 222 255
49.6501 116.273 119.502 255 227 204
154.315 49.0942 113.934 205 220 255
74.2597 74.9346 109.687 204 219 255
0.990122 87.1639 114.089 224 231 255
31.7787 145.32 111.838 206 220 255
104.887 102.718 112.72 209 223 255
173.447 129.278 114.31 203 219 255
103.275 139.73 112.322 255 179 114
145.337 152.909 112.28 218 228 255
69.1679 204.718 112.469 192 212 255
125.74 144.171 110.24 205 220 255
92.0912 56.5507 115.34 196 214 255
130.284 144.125 114.412 224 231 255
214.812 45.7558 113.501 182 205 255
104.772 63.1143 99.7278 208 222 255
193.45 21.6751 110.31 182 206 255
93.6828 24.5219 110.303 198 216 255
88.2299 14.1502 109.814 191 211 255
128.067 118.341 111.545 255 206 168
92.9684 90.2462 115.981 255 178 112
134.838 185.508 125.894 189 210 255
110.682 120.671 107.01 255 230 210
115.642 134.987 111.348 255 230 210
172.578 107.838 119.516 202 218 255
37.4735 130.376 110.723 188 210 255
151.678 89.0517 107.854 221 229 255
146.904 122.754 110.851 211 223 255
173.572 35.0592 113.685 193 213 255
73.6202 146.083 113.789 195 214 255
115.835 116.969 115.509 255 205 164
168.404 124.551 122.194 210 223 255
77.5345 105.475 109.509 255 251 255
144.785 29.8977 112.226 188 209 255
108.578 105.199 113.097 240 240 255
131.595 77.2486 117.79 221 230 255
111.457 115.207 115.864 255 202 160
184.733 117.944 113.569 200 217 255
92.9114 178.602 113.699 255 241 228
65.6186 55.1509 115.213 203 218 255
217.735 149.186 112.617 183 206 255
181.62 105.537 111.172 209 222 255
93.5192 173.453 110.857 218 228 255
97.0432 174.642 126.032 255 252 246
98.4527 161.085 110.387 192 212 255
110.16 114.806 108.957 223 231 255
107.82 165.967 111.227 202 218 255
64.9455 127.875 128.298 215 226 255
93.148 120.538 111.129 197 215 255
93.632 54.3108 111.051 194 213 255
106.187 106.858 112.462 255 234 216
93.5154 173.539 110.8 206 221 255
110.525 113.374 111.496 255 193 142
125.282 88.4507 116.621 255 255 251
113.001 150.621 117.35 255 250 244
59.442 60.488 105.175 195 214 255
113.846 109.764 106.578 205 220 255
93.0906 116.695 117.273 255 202 159
82.1937 80.5779 111.174 221 229 255
166.134 114.716 103.2 255 249 242
116.605 143.077 109.88 254 248 255
112.417 163.476 109.501 200 217 255
117.839 75.7595 116.738 242 242 255
93.2761 173.145 110.952 211 223 255
93.5143 173.472 110.854 206 221 255
87.362 121.178 114.079 198 215 255
113.987 92.1236 118.006 255 234 217
154.583 101.329 113.922 204 219 255
140.405 179.109 104.541 193 212 255
98.6094 180.592 113.862 211 224 255
100.664 111.588 112.033 213 225 255
93.515 173.47 110.855 205 220 255
53.8039 119.064 104.105 229 234 255
130.117 64.2435 113.615 255 212 178
181.861 49.9857 109.003 213 225 255
144.4 79.2824 110.76 205 220 255
149.764 121.485 111.042 195 214 255
108.833 167.993 108.524 187 209 255
164.001 124.714 115.292 201 217 255
116.466 124.866 109.308 255 208 170
94.5251 106.097 114.796 230 235 255
163.33 141.324 110.283 229 234 255
53.6949 97.5559 110.048 192 212 255
113.946 114.945 109.695 255 239 225
144.593 36.379 112.624 209 223 255
115.283 82.4779 113.802 202 218 255
121.014 67.6581 109.846 255 244 233
65.2895 73.8502 114.406 207 221 255
153.025 125.14 111.457 200 217 255
144.194 93.1721 109.412 255 242 231
100.28 72.2047 116.718 236 238 255
193.338 144.621 114.821 199 216 255
90.339 125.889 110.042 223 231 255
100.894 133.816 109.195 255 254 251
31.5852 47.8604 108.458 182 206 255
89.3614 146.418 123.108 255 243 232
109.983 147.393 102.613 252 247 255
115.447 115.015 110.677 255 225 201
171.375 189.094 114.214 184 207 255
182.024 107.638 110.715 185 208 255
113.955 183.935 119.952 198 215 255
127.524 85.7318 123.772 233 236 255
103.252 113.199 114.807 234 237 255
79.2251 127.517 113.578 242 242 255
103.402 86.8197 116.409 235 237 255
119.597 186.503 111.446 241 241 255
99.0197 140.845 116.464 255 229 209
157.367 144.315 105.951 200 217 255
129.497 77.3656 116.307 199 216 255
153.798 106.685 115.93 233 237 255
106.378 94.6099 118.287 241 241 255
111.388 147.701 120.149 188 209 255
106.397 97.3076 111.732 218 228 255
85.4578 69.0729 110.755 216 226 255
111.122 113.262 119.223 255 188 133
113.716 172.424 109.158 192 212 255
83.8318 124.187 117.783 219 228 255
49.8604 166.883 114.869 190 211 255
139.05 108.374 114.025 255 251 245
164.309 163.611 102.388 201 218 255
88.4846 111.916 111.173 237 239 255
46.2942 28.6844 109.005 191 211 255
93.518 173.458 110.857 186 208 255
94.4652 59.5384 108.74 205 220 255
165.431 115.749 112.368 221 229 255
53.49 168.387 113.901 189 210 255
107.439 116.516 112.699 247 244 255
62.7878 29.6682 114.207 188 209 255
70.7139 115.621 108.758 205 220 255
93.5095 173.513 110.843 217 227 255
103.01 103.403 120.25 255 202 159
111.974 114.62 110.186 255 205 166
130.502 104.611 109.333 196 214 255
93.5103 173.492 110.84 255 181 119
96.4074 59.6374 109.458 219 228 255
151.716 4.90409 104.503 185 208 255
96.0174 85.3342 111.983 227 233 255
123.439 97.6737 112.7 255 249 255
112.779 74.4237 114.767 183 206 255
110.694 114.237 116.131 255 200 155
222.507 126.796 110.539 190 211 255
190.676 104.313 113.515 187 208 255
149.809 92.9462 107.536 211 224 255
224.558 105.054 109.992 190 210 255
155.178 158.382 110.234 196 214 255
102.639 171.766 116.09 216 226 255
113.882 114.645 109.676 243 242 255
59.7187 84.8317 113.627 222 230 255
104.161 154.218 123.507 255 235 218
150.785 89.1262 111.762 246 244 255
60.4351 115.694 113.25 206 221 255
63.2079 126.791 110.586 238 239 255
133.604 20.8519 120.054 179 204 255
118.604 122.376 109.157 228 234 255
156.637 95.6006 107.654 255 249 242
129.717 86.9447 111.941 214 225 255
30.5586 91.2181 112.797 188 209 255
108.463 122.237 110.333 242 242 255
146.671 83.4969 108.734 207 221 255
111.653 122.234 114.353 193 213 255
96.2939 89.3675 110.352 222 230 255
38.8067 68.5925 113.027 186 208 255
138.589 133.851 115.29 212 224 255
163.409 104.511 118.976 204 219 255
91.6778 160.957 119.939 225 232 255
160.41 25.3656 111.197 197 215 255
168.142 147.473 109.312 201 217 255
145.341 157.821 111.643 235 238 255
106.105 144.437 111.849 255 237 221
164.346 156.85 109.071 255 249 243
107.976 143.148 111.692 201 217 255
93.5212 173.441 110.858 195 214 255
121.389 136.118 107.095 255 215 183
82.5631 100.161 114.211 236 238 255
93.5235 173.427 110.857 255 245 236
153.028 134.922 109.828 255 255 251
96.3646 105.528 83.8484 248 245 255
111.875 149.023 109.232 206 220 255
92.7479 175.091 110.586 255 237 222
52.1663 28.2754 114.341 201 217 255
84.6508 8.60372 91.6529 222 230 255
97.7354 95.8887 109.663 231 235 255
106.893 123.058 106.829 226 232 255
140.044 188.002 108.893 182 206 255
130.577 146.801 112.888 206 221 255
93.4086 173.305 110.659 255 194 144
112.115 115.178 118.537 203 219 255
136.127 135.377 113.064 255 246 237
129.764 142.439 112.943 200 217 255
89.1834 127.652 107.589 255 245 235
107.436 26.8854 112.341 212 224 255
103.237 180.463 109.686 202 218 255
52.9214 71.3706 112.828 235 237 255
115.897 141.752 108.284 208 222 255
12.937 111.871 110.344 197 215 255
157.596 98.8623 110.891 223 231 255
117.826 64.976 116.186 211 224 255
12.5221 66.2998 114.881 186 208 255
140.44 73.4291 114.46 209 222 255
50.0292 105.054 111.589 221 229 255
51.3465 185.539 110.618 197 215 255
94.2661 148.919 113.591 205 220 255
95.7438 157.917 112.352 255 245 235
84.456 77.4244 111.921 196 214 255
178.357 40.1212 112.583 182 206 255
110.739 150.295 111.656 220 229 255
100.838 112.966 111.387 220 229 255
83.3716 62.3944 115.951 193 212 255
135.144 94.3144 110.456 255 237 221
105.677 87.9909 112.442 244 243 255
146.022 89.2318 111.73 205 220 255
181.678 48.9346 111.902 187 208 255
110.888 113.481 112.235 214 225 255
159.994 124.62 110.806 195 214 255
107.898 112.477 118.457 212 224 255
107.011 107.389 111.991 209 223 255
190.168 115.361 112.75 194 213 255
81.283 157.823 114.651 216 227 255
57.767 98.1036 118.626 195 214 255
134.033 24.3313 113.983 186 208 255
141.366 78.7372 108.875 201 217 255
81.8525 74.5719 112.476 194 213 255
79.4879 148.195 118.625 191 211 255
116.164 107.915 106.086 255 192 139
96.1942 176.924 108.745 232 236 255
119.461 64.9826 117.125 209 223 255
183.788 136.202 117.128 191 211 255
97.9237 159.216 108.12 195 214 255
65.3423 155.168 127.839 221 230 255
106.993 109.978 111.152 255 204 162
159.728 125.684 112.698 206 221 255
92.2429 53.5078 113.986 198 216 255
93.5118 173.485 110.849 235 238 255
93.524 173.455 110.856 231 235 255
110.385 117.535 109.627 255 213 180
82.3471 151.457 111.273 238 239 255
145.034 85.7116 107.807 206 220 255
101.286 13.2562 112.048 194 213 255
93.4782 173.334 110.881 255 205 165
152.878 114.135 111.368 196 214 255
106.572 110.43 111.836 219 228 255
120.332 67.4595 115.084 197 215 255
99.0628 88.1021 115.07 220 229 255
93.3671 173.108 110.039 255 246 237
158.113 83.3088 111.399 198 215 255
81.4375 133.024 109.656 227 233 255
116.978 112.554 104.333 255 232 213
61.2151 121.454 114.024 213 225 255
118.317 123.795 113.729 198 215 255
105.422 151.983 112.081 255 228 207
73.4708 51.5858 102.097 197 215 255
103.443 124.554 111.052 211 224 255
207.914 104.729 119.127 199 216 255
119.244 144.368 109.353 224 232 255
107.909 108.85 114.665 255 253 248
69.8454 38.0352 114.287 207 221 255
106.442 162.525 109.169 189 210 255
114.812 148.062 115.895 255 139 20
144.319 37.762 111.555 200 217 255
168.263 65.8643 110.279 190 211 255
211.459 142.857 110.885 206 221 255
159.859 68.8008 112.651 208 221 255
125.739 19.9934 115.451 198 216 255
136.886 78.1312 118.009 237 239 255
90.6511 118.935 116.086 214 225 255
90.1398 91.5235 114.116 212 224 255
159.672 97.1063 111.057 191 211 255
74.5591 49.6146 105.577 184 207 255
142.797 121.832 112.651 241 241 255
113.146 119.058 107.402 255 230 211
48.3809 112.699 129.029 193 212 255
163.974 175.047 97.626 187 209 255
118.886 134.72 113.694 255 249 243
97.2688 137.891 115.94 231 235 255
117.831 120.973 111.568 208 222 255
51.8215 92.1945 109.162 228 233 255
115.87 135.587 114.055 255 184 125
93.2165 89.4504 113.969 205 220 255
110.426 165.394 112.86 200 217 255
105.833 105.762 112.564 216 226 255
140.571 92.0449 113.298 255 254 249
80.1059 86.6739 109.02 205 220 255
81.3971 112.685 117.597 221 229 255
168.377 159.661 117.491 199 216 255
152.22 163.901 112.109 240 240 255
17.266 125.049 109.344 219 229 255
121.908 102.794 115.582 235 237 255
96.8668 88.6762 109.516 237 239 255
105.936 114.141 101.749 236 238 255
199.397 33.4779 110.782 203 219 255
126.901 84.0054 113.325 218 228 255
110.72 115.419 112.253 255 249 242
197.439 82.7576 111.882 214 225 255
110.303 114.169 111.43 255 203 161
75.9309 170.554 115.55 198 216 255
93.505 173.499 110.844 195 213 255
122.71 106.601 111.372 255 244 233
67.727 148.048 106.464 204 219 255
178.566 127.36 98.794 210 223 255
115.137 115.999 107.741 255 234 216
109.026 113.366 118.647 227 233 255
149.201 123.73 108.439 255 251 255
60.2894 121.358 105.184 200 217 255
162.871 144.103 109.343 203 219 255
183.142 42.273 114.128 202 218 255
110.151 115.38 114.354 222 230 255
124.432 117.445 113.709 215 226 255
93.5083 173.499 110.841 189 210 255
8.52789 84.169 116.542 204 219 255
56.2392 60.296 111.806 207 221 255
216.485 64.8473 109.547 197 215 255
81.5525 162.622 110.7 255 231 212
110.881 113.485 116.607 255 119 0
104.45 112.689 116.919 235 238 255
151.935 47.1082 112.057 201 217 255
190.956 137.817 92.5564 226 232 255
76.4273 145.853 106.111 200 217 255
88.8009 222.308 112.818 178 203 255
51.8201 65.0986 105.831 195 214 255
128.114 179.076 110.699 213 225 255
114.349 116.054 115.427 255 191 139
200.132 138.642 114.054 220 229 255
104.625 71.5889 113.678 225 232 255
95.8351 171.656 113.311 239 240 255
63.7084 125.709 119.636 187 209 255
145.607 116.148 107.279 226 232 255
115.487 19.6245 111.173 204 219 255
153.507 93.0295 118.672 255 249 255
61.2442 69.6401 117.625 212 224 255
184.49 65.4079 112.743 190 211 255
105.58 82.7163 118.544 245 243 255
107.032 171.007 109.319 215 226 255
93.4951 173.5 110.803 199 216 255
172.557 134.5 109.926 208 222 255
93.4903 173.557 110.812 192 212 255
144.838 181.785 111.259 196 214 255
160.08 143.285 113.745 208 222 255
93.1505 184.055 110.911 183 206 255
113.607 132.421 110.99 208 222 255
28.0012 138.002 109.836 207 221 255
103.208 98.3822 112.854 238 239 255
165.257 115.877 104.268 195 213 255
75.5886 131.133 110.131 255 252 247
61.2677 130.269 108.319 222 230 255
179.45 110.649 111.544 223 231 255
86.7925 209.377 118.893 200 217 255
166.568 124.189 113.791 189 210 255
116.944 142.815 113.185 255 248 240
97.7092 123.554 114.688 255 217 187
110.466 112.034 113.389 201 218 255
107.811 154.213 106.964 225 232 255
151.808 51.3509 114.459 191 211 255
167.772 139.423 111.291 200 217 255
80.7839 89.5346 110.707 213 225 255
96.958 91.4319 116.163 255 246 237
66.8372 134.392 119.633 205 220 255
113.037 111.494 112.864 209 222 255
93.4982 173.523 110.825 200 217 255
146.657 181.147 114.164 194 213 255
133.621 76.1934 110.848 255 249 242
93.3113 138.924 110.092 206 220 255
93.2219 161.908 110.314 234 237 255
107.919 110.434 117.199 200 217 255
81.7008 169.216 123.452 223 231 255
100.426 174.603 115.96 255 226 203
121.932 197.502 105.868 196 215 255
137.126 144.015 110.609 205 220 255
111.132 111.384 113.497 253 248 255
174.168 108.972 113.723 186 208 255
52.0712 68.2059 112.102 179 204 255
152.113 103.151 112.058 231 235 255
26.488 144.97 115.343 203 219 255
134.754 160.125 112.13 205 220 255
158.111 155.601 111.45 190 211 255
65.489 78.6254 113.092 206 220 255
127.619 53.9652 116.267 206 220 255
166.183 152.463 114.489 201 217 255
94.6636 99.5252 114.36 255 226 202
199.341 100 109.227 184 207 255
51.216 126.89 109.895 255 159 70
100.684 84.9921 120.746 255 224 199
48.5241 103.61 105.041 205 220 255
150.492 77.1187 113.684 227 233 255
206.099 66.8998 115.816 191 211 255
33.5534 53.0365 115.542 191 211 255
106.647 102.499 112.042 201 217 255
105.322 121.65 109.811 255 222 195
91.5452 111.511 109.802 198 216 255
26.5048 165.735 115.087 181 205 255
113.552 118.401 107.895 231 235 255
93.69 176.661 109.346 242 242 255
145.752 129.143 128.471 189 210 255
52.1551 79.2078 114.423 197 215 255
65.7307 86.6388 139.247 191 211 255
50.0423 85.6862 115.59 214 225 255
155.998 96.3138 112.149 255 251 245
97.4552 60.6684 117.151 184 207 255
79.2299 91.8807 115.23 198 216 255
22.7189 193.964 115.406 192 212 255
94.5411 155.123 109.202 255 250 255
98.8771 115.618 113.458 235 237 255
144.746 179.324 111.25 220 229 255
152.303 163.494 120.315 190 211 255
93.7935 152.151 106.066 214 225 255
36.6867 133.193 105.267 228 234 255
96.4179 168.923 122.225 217 227 255
33.9119 156.9 110.785 206 221 255
93.517 173.462 110.856 228 233 255
111.417 111.981 112.187 206 220 255
146.586 41.9022 111.244 187 208 255
65.7554 89.0437 114.977 196 214 255
90.2284 177.374 106.865 255 239 224
140.871 146.929 113.539 199 216 255
111.952 118.561 113.594 243 242 255
147.309 5.28369 107.992 183 206 255
71.7501 33.1469 134.082 209 222 255
119.878 14.2529 112.07 208 222 255
55.8434 48.8573 111.453 202 218 255
125.928 80.0837 114.664 224 231 255
13.4694 121.342 109.224 203 218 255
86.0943 210.097 106.773 180 204 255
117.452 112.816 112.592 213 225 255
93.4343 173.621 111.035 200 217 255
199.944 131.607 113.818 190 210 255
164.611 104.743 112.392 205 220 255
123.033 90.8018 116.366 255 244 233
136.767 31.5979 115.78 207 221 255
178.202 24.4676 111.83 193 212 255
122.541 130.256 106.283 251 247 255
163.137 135.74 108.948 197 215 255
55.5962 137.313 122.918 194 213 255
169.695 97.3362 87.0385 217 227 255
166.472 98.1336 111.749 214 225 255
101.522 78.3752 110.284 205 220 255
116.989 77.855 107.531 209 222 255
93.5281 173.803 109.927 202 218 255
176.698 161.953 117.001 191 212 255
83.0373 140.915 112.642 255 248 240
160.002 94.8046 110.815 190 211 255
174.685 48.8787 110.153 186 208 255
137.132 70.9377 114.576 210 223 255
142.99 60.0823 115.131 196 214 255
163.659 144.669 111.957 255 251 246
93.522 173.519 110.853 255 226 203
143.486 88.3391 115.704 200 217 255
112.538 175.094 111.498 211 223 255
96.0726 28.6425 123.791 182 206 255
172.144 178.685 114.731 186 208 255
80.715 4.54928 116.283 187 209 255
101.439 188.578 111.212 210 223 255
124.711 53.9466 109.987 255 215 183
113.932 107.946 107.675 255 238 223
93.49 173.53 110.815 225 232 255
110.737 112.446 113.645 255 246 237
124.195 55.8602 110.245 187 208 255
116.302 115.453 104.993 255 144 34
111.844 113.212 111.868 226 232 255
21.5267 120.396 114.651 205 220 255
95.5354 116.388 114.459 255 207 169
133.39 77.146 112.758 241 241 255
109.291 121.152 109.251 217 227 255
101.554 137.394 116.594 217 227 255
166.413 127.988 111.384 201 218 255
6.42304 119.798 115.127 197 215 255
55.0184 91.469 132.643 255 251 255
64.1866 98.4655 112.477 202 218 255
157.078 95.0754 113.602 255 182 120
108.727 109.65 111.66 234 237 255
4.26156 95.1114 107.251 187 209 255
79.2393 157.432 115.636 198 215 255
93.4776 173.269 110.877 255 250 255
214.358 151.457 116.98 185 207 255
110.792 128.024 113.772 214 225 255
121.124 176.444 111.668 193 212 255
160.35 41.7187 114.655 221 229 255
211 142.041 109.866 190 210 255
113.166 107.395 112.907 255 251 246
111.206 111.996 114.397 255 229 208
51.9222 39.4208 114.787 205 220 255
110.596 104.027 107.325 206 221 255
78.1807 135.472 113.546 255 237 222
50.1 98.6465 122.63 205 220 255
93.7942 174.62 110.647 218 227 255
50.503 64.9227 109.701 208 222 255
151.26 125.941 107.58 222 230 255
129.742 75.919 135.384 206 220 255
198.392 90.8763 113.064 198 216 255
59.0707 80.018 125.861 206 220 255
55.244 53.8486 120.516 213 225 255
93.5144 173.466 110.856 198 216 255
93.413 173.599 110.929 199 216 255
178.264 127.119 100.392 184 207 255
110.014 78.8883 115.306 228 234 255
64.5026 15.3344 106.973 192 212 255
165.217 105.203 117.849 255 221 194
114.222 116.196 113.094 233 236 255
77.9921 139.998 113.904 225 232 255
111.165 211.574 114.478 196 215 255
155.704 126.815 110.969 198 216 255
57.9153 219.866 106.621 190 210 255
155.482 92.3042 122.442 212 224 255
95.3849 173.053 109.642 212 224 255
107.038 157.422 111.111 233 236 255
182.256 189.018 117.316 180 204 255
110.16 113.244 111.346 255 226 203
114.831 119.521 108.585 217 227 255
161.704 95.1794 111.793 232 236 255
67.4609 115.234 114.205 226 232 255
150.978 71.6512 132.414 227 233 255
107.326 109.405 113.952 255 245 235
81.3455 140.846 114.834 207 221 255
170.904 155.486 107.154 238 240 255
51.2208 82.9189 112.572 209 222 255
167.608 61.5427 108.044 224 231 255
91.4499 100.461 111.127 255 206 167
95.9817 177.656 117.138 223 231 255
76.4757 92.1505 109.867 196 214 255
107.772 107.282 112.731 226 232 255
105.668 57.932 111.634 235 238 255
169.387 103.064 110.093 234 237 255
155.653 26.2293 113.642 181 205 255
119.575 108.395 113.339 255 204 164
150.018 87.2781 109.363 203 219 255
78.5485 110.057 118.898 255 228 206
76.1009 159.271 112.893 192 212 255
108.124 109.716 114.031 222 230 255
97.9857 133.057 111.108 255 225 202
150.356 72.7522 118.615 225 232 255
193.05 104.54 111.339 190 210 255
100.1 79.6846 111.97 255 214 182
164.286 112.121 114.133 248 245 255
95.1338 65.0997 117.184 194 213 255
130.417 85.0213 103.823 202 218 255
126.09 21.7735 111.052 189 210 255
38.0982 123.039 134.02 196 214 255
171.957 114.649 107.858 206 220 255
93.5192 173.453 110.857 255 250 255
179.945 113.844 109.593 231 235 255
92.4757 174.277 111.443 210 223 255
48.5358 113.361 110.103 213 224 255
62.6339 204.588 111.771 180 204 255
104.215 97.4442 100.301 244 243 255
42.0949 98.5039 118.12 229 234 255
93.5219 173.454 110.855 217 227 255
114.911 120.901 107.683 255 251 245
204.263 157.433 113.478 180 204 255
120.774 142.3 109.143 255 254 249
112.639 101.627 112.208 255 230 210
39.2601 119.051 110.435 199 216 255
79.2815 168.566 112.243 226 232 255
93.5305 173.163 110.98 255 224 200
66.9183 127.336 112.655 255 191 139
73.9097 170.709 119.354 205 220 255
70.2827 141.907 113.471 227 233 255
114.606 116.864 114.339 196 215 255
65.1758 24.2421 116.222 180 205 255
93.5383 173.402 110.845 197 215 255
190.07 180.555 112.757 189 210 255
101.053 49.3889 108.999 211 223 255
149.108 136.131 116.033 255 234 217
92.9697 109.34 112.008 255 243 233
93.74 173.247 110.911 255 166 87
159.023 96.7407 111.617 207 221 255
102.71 57.2314 110.406 194 213 255
48.0448 128.506 113.425 193 212 255
174.713 126.528 112.671 224 231 255
110.7 110.215 113.479 203 219 255
148.493 121.904 129.269 232 236 255
55.0876 53.0306 114.011 202 218 255
93.519 173.454 110.857 199 216 255
39.2059 99.3174 137.413 191 211 255
168.973 114.816 105.542 197 215 255
148.64 54.1107 113.598 206 220 255
89.3647 104.499 115.968 227 233 255
107.612 126.456 110.496 255 224 200
29.1986 147.905 116.806 184 207 255
128.601 74.1495 116.638 212 224 255
135.096 95.5746 114.297 215 226 255
93.4979 173.436 110.858 218 228 255
131.097 98.2396 110.685 255 212 178
72.6765 117.206 107.242 244 243 255
57.3412 50.1909 117.069 216 226 255
137.495 10.3157 111.39 199 216 255
73.3007 20.8998 114.669 229 234 255
103.497 173.976 109.834 187 209 255
122.573 169.517 110.638 255 251 246
93.5022 173.51 110.837 188 209 255
43.0851 86.4143 113.715 204 219 255
162.158 130.089 114.959 232 236 255
148.539 127.065 113.672 206 220 255
119.33 134.44 111.411 222 230 255
115.146 123.625 113.998 250 246 255
212.875 83.453 113.797 191 211 255
175.279 198.493 115.612 200 217 255
98.9546 82.7512 113.685 216 226 255
60.7245 69.3748 116.593 215 226 255
107.134 107.947 114.161 255 253 249
151.344 30.6232 112.778 200 217 255
110.961 105.761 112.108 255 179 114
192.167 123.425 115.041 200 217 255
65.2432 131.919 122.683 255 228 207
108.32 117.924 111.531 189 210 255
61.2892 151.925 111.717 209 222 255
101.724 52.0511 108.418 194 213 255
117.438 62.0715 117.095 198 216 255
106.302 113.193 114.41 255 209 172
61.7533 109.525 112.052 255 209 172
25.3964 54.0495 108.763 188 209 255
55.7634 112.981 105.365 211 224 255
114.063 145.038 109.747 255 186 129
139.99 94.6568 114.642 255 251 245
139.229 27.3727 108.611 205 220 255
107.257 110.003 116.26 255 242 230
165.636 112.116 116.676 216 227 255
177.054 98.1167 111 211 224 255
54.9918 99.2784 106.568 239 240 255
213.054 97.5882 117.839 183 206 255
166.61 39.5279 111.888 193 213 255
88.4419 40.335 108.585 196 214 255
93.5199 173.449 110.857 213 225 255
80.1909 131.406 108.617 240 240 255
139.838 99.5816 113.22 230 235 255
113.259 116.344 108.485 255 243 232
67.2867 53.6673 110.927 212 224 255
110.275 166.357 110.741 255 247 239
48.0297 64.0737 102.842 226 232 255
194.728 92.7265 115.437 186 208 255
56.8344 76.1212 105.853 200 217 255
149.925 83.7027 108.383 203 218 255
122.204 168.245 103.786 208 222 255
32.8157 137.125 113.51 196 215 255
96.14 175.104 113.005 187 209 255
110.799 113.834 112.436 255 221 194
115.988 95.9938 110.968 255 236 219
56.1928 118.834 115.947 210 223 255
115.042 118.002 109.42 255 183 122
138.769 102.055 111.213 255 238 223
97.1759 220.42 88.1819 193 213 255
93.5232 173.431 110.855 210 223 255
93.5193 173.452 110.857 227 233 255
17.5894 150.407 111.105 195 214 255
109.612 107.783 112.217 214 225 255
63.4599 73.6323 118.295 200 217 255
189.869 46.544 110.646 186 208 255
110.522 116.649 115.011 255 250 255
33.8345 57.9123 116.487 186 208 255
93.4678 173.562 110.808 205 220 255
110.89 125.119 114.1 215 226 255
109.578 113.88 117.942 255 190 136
125.762 100.77 112.437 221 229 255
130.378 57.3758 115.949 224 231 255
99.788 164.22 107.158 222 230 255
74.0938 52.9981 110.85 200 217 255
93.5111 173.482 110.85 187 209 255
126.567 85.3622 117.049 224 231 255
100.522 88.9936 110.344 235 238 255
130.09 44.8687 111.981 200 217 255
101.366 74.5995 104.301 206 220 255
71.9592 47.7441 113.827 199 216 255
128.851 182.96 112.401 203 218 255
47.52 147.921 116.224 222 230 255
132.683 124.408 112.08 196 214 255
102.961 40.6131 110.627 209 222 255
101.331 130.232 112.024 255 217 187
46.8237 188.232 110.752 188 209 255
