ply
format ascii 1.0
element vertex 1341
property float x
property float y
property float z
property uchar red
property uchar green
property uchar blue
end_header
65.6615 108.163 110.443 226 233 255
103.73 140.869 112.562 255 204 163
91.6322 26.5454 110.991 213 225 255
31.4954 161.145 115.795 186 208 255
105.923 205.135 110.981 181 205 255
58.1051 60.3841 111.202 187 209 255
99.7273 169.11 109.857 199 216 255
93.3951 175.684 110.975 185 207 255
121.378 96.1508 122.122 230 235 255
157.609 94.7978 118.041 255 249 255
164.31 60.3817 113.616 194 213 255
98.5555 169.643 113.979 255 250 243
21.17 162.682 110.043 183 206 255
117.828 82.7258 116.028 251 246 255
106.898 118.746 122.263 217 227 255
10.9789 143.468 109.705 186 208 255
53.9531 66.384 109.137 211 223 255
88.7477 176.158 110.092 207 221 255
114.931 128.261 114.222 255 242 230
60.0002 78.9115 111.534 218 228 255
144.828 65.4692 115.36 243 242 255
120.572 159.747 112.12 255 249 242
118.942 104.359 119.677 250 246 255
168.505 97.6752 112.754 197 215 255
54.8664 121.641 113.627 227 233 255
77.0304 131.287 119.963 255 241 229
88.5283 46.7234 114.086 193 212 255
93.2456 141.129 111.614 255 231 211
97.7566 166.089 115.287 209 223 255
67.5933 138.982 116.128 202 218 255
73.3187 185.125 110.024 217 227 255
71.1442 126.453 107.101 255 242 231
119.903 153.164 109.152 200 217 255
89.3451 75.0822 111.113 255 237 222
93.8846 175.632 110.7 212 224 255
76.3867 39.3478 112.664 209 222 255
122.919 112.876 109.654 255 182 121
145.211 28.3781 110.395 198 216 255
98.8505 47.1618 109.931 202 218 255
97.4687 106.394 117.923 220 229 255
148.316 166.797 112.074 238 239 255
10.6552 144.143 115.941 180 204 255
115.577 106.761 128.661 255 250 244
39.7713 145.948 108.843 208 221 255
102.207 104.986 114.392 248 245 255
28.6253 70.975 110.966 182 205 255
107.259 140.649 105.584 255 154 58
145.158 172.795 111.023 195 213 255
23.1539 140.155 112.956 183 206 255
155.265 31.0059 109.69 200 217 255
143.406 51.0725 114.484 199 216 255
149.794 147.695 118.341 218 228 255
169.765 60.3879 115.879 189 210 255
93.4003 175.916 110.67 200 217 255
89.3997 176.211 111.893 202 218 255
158.189 48.6351 116.072 189 210 255
79.1757 131.132 105.32 255 242 231
77.4282 46.1744 109.595 211 224 255
105.949 85.07 113.585 255 221 193
53.9722 69.1955 111.657 189 210 255
119.827 115.448 113.684 255 248 240
154.446 92.1304 112.895 200 217 255
18.4225 116.645 115.317 195 214 255
110.699 209.5 110.352 194 213 255
189.596 76.1561 111.686 216 227 255
69.5118 108.233 121.268 218 228 255
59.789 110.174 113.396 213 225 255
126.573 116.36 114.288 255 239 224
177.714 129.263 114.586 200 217 255
106.988 108.569 125.787 255 177 111
75.3187 195.596 114.495 255 252 246
213.343 116.651 112.168 188 209 255
79.2622 108.921 109.624 255 242 230
173.243 116.867 111.769 179 204 255
141.957 106.968 117.798 227 233 255
154.249 81.4876 113.12 208 222 255
170.556 67.9294 116.668 230 235 255
93.5876 141.816 109.047 228 234 255
96.3464 122.922 118.578 209 222 255
157.356 131.982 116.547 255 241 228
118.328 117.698 120.73 255 233 215
54.984 61.4452 112.198 219 228 255
122.693 92.4514 114.426 255 0 0
138.096 41.975 112.755 255 253 248
89.5207 18.3546 112.709 189 210 255
97.1064 150.19 117.465 214 225 255
96.5592 95.602 120.698 213 225 255
173.204 170.699 111.067 194 213 255
84.7826 172.648 113.594 184 207 255
102.29 144.812 106.265 200 217 255
76.3239 154.572 115.144 211 224 255
103.397 145.749 106.054 222 230 255
103.361 153.554 112.443 255 237 222
114.459 78.6521 106.599 206 220 255
109.341 87.8133 105.357 215 226 255
104.466 111.549 122.291 255 218 189
119.561 110.491 107.537 255 253 248
149.657 109.181 120.947 223 231 255
125.977 134.185 121.889 227 233 255
92.9782 68.9217 104.021 218 228 255
107.307 114.725 103.704 214 225 255
69.6497 106.692 115.041 188 209 255
118.16 102.121 108.569 248 245 255
106.157 117.512 122.978 240 240 255
57.7427 110.096 116.276 203 219 255
150.112 42.4256 115.857 210 223 255
150.306 125.695 118.804 214 225 255
115.987 82.2757 112.443 227 233 255
98.6942 173.113 109.47 255 246 237
61.2583 60.9798 110.64 193 213 255
109.229 140.066 103.882 255 205 165
117.559 123.339 107.15 255 244 234
203.079 152.164 113.908 194 213 255
97.8861 66.4152 110.675 196 214 255
93.3842 175.608 110.943 193 212 255
176.069 123.555 112.343 196 214 255
129.019 157.924 109.288 205 220 255
177.484 61.7537 112.09 218 228 255
81.3543 108.108 117.996 255 253 248
66.6857 120.3 110.653 201 217 255
107.771 181.153 111.14 190 211 255
174.085 110.24 113.101 192 212 255
215.711 88.9334 114.973 190 211 255
106.104 16.9552 108.098 195 214 255
58.5776 117.077 113.796 255 226 203
68.4403 108.258 121.002 202 218 255
159.632 207.673 109.88 189 210 255
103.071 50.2994 111.301 197 215 255
69.9341 213.323 111.993 182 205 255
126.514 176.615 113.272 192 212 255
94.4164 142.026 119.085 204 219 255
189.703 169.016 109.594 186 208 255
136.825 85.9396 105.805 255 200 156
106.98 98.9151 114.914 216 226 255
80.6158 141.529 112.449 255 238 224
113.327 75.0191 109.072 255 225 202
173.299 149.973 111.644 208 222 255
93.2367 175.618 111.188 196 214 255
109.926 198.979 109.995 188 209 255
69.9398 214.111 111.888 179 203 255
128.941 91.5899 120.775 255 251 255
93.1233 175.222 111.276 219 228 255
126.794 118.109 108.978 200 217 255
151.894 44.1907 118.072 212 224 255
116.341 116.131 98.7182 255 237 222
166.867 173.216 111.132 187 209 255
200.106 100.741 110.79 236 238 255
164.009 106.464 115.973 194 213 255
130.199 153.941 116.066 198 216 255
68.5181 19.9092 113.006 185 207 255
134.837 86.1483 115.482 255 250 255
120.462 142.273 112.364 255 220 192
153.939 134.647 112.83 204 219 255
46.321 164.743 112.411 201 218 255
7.85331 114.899 110.611 202 218 255
91.9406 126.138 110.245 219 228 255
58.9176 188.799 114.645 206 221 255
129.035 102.506 99.9699 244 243 255
161.498 97.8663 112.95 209 222 255
223.502 127.088 111.478 191 211 255
163.743 131.3 117.343 220 229 255
111.069 158.661 112.037 203 219 255
87.2787 41.779 109.827 204 220 255
32.0524 166.671 110.556 194 213 255
94.4112 157.341 125.963 208 222 255
119.612 68.6292 110.772 255 243 232
176.592 182.382 112.978 198 216 255
128.489 27.3358 114.57 197 215 255
194.361 172.572 112.993 189 210 255
100.444 112.899 102.591 255 244 233
175.997 108.704 112.755 207 221 255
130.193 129.143 112.068 216 226 255
184.991 76.98 115.997 210 223 255
142.128 52.2485 115.224 198 216 255
125.644 205.299 113.445 194 213 255
158.916 94.4494 112.1 195 214 255
107.53 53.4176 114.04 255 246 237
93.4025 175.726 110.874 196 214 255
129.268 93.6868 104.864 255 217 187
97.222 116.357 104.163 255 250 243
139.17 103.164 110.564 206 221 255
130.687 90.4104 102.795 255 248 240
209.274 137.577 110.276 193 213 255
115.002 92.2818 110.247 255 249 242
93.4068 175.749 110.854 194 213 255
126.196 116.396 119.893 204 219 255
120.595 164.612 108.568 203 219 255
82.3303 91.5782 104.414 255 218 188
141.538 145.274 117.619 255 234 217
198 107.003 116.112 200 217 255
149.469 38.9488 112.05 194 213 255
146.849 110.206 107.543 229 234 255
192.378 131.287 108.757 187 209 255
203.96 74.3834 111.167 215 226 255
134.672 131.471 106.333 255 214 182
37.8405 121.692 116.032 191 212 255
145.212 120.644 112.191 255 225 200
113.95 126.755 117.499 212 224 255
87.5502 119.653 108.244 255 246 237
116.881 194.679 110.419 188 209 255
81.1047 151.094 110.239 206 221 255
167.032 104.555 110.879 253 248 255
47.5505 96.3075 107.318 198 216 255
118.123 99.1163 113.329 222 230 255
164.349 91.197 110.104 214 225 255
113.872 107.696 102.18 208 222 255
102.848 162.357 110.283 201 217 255
115.665 65.3545 113.111 215 226 255
112.818 30.1263 114.804 194 213 255
109.925 125.169 100.824 255 249 255
152.598 70.6399 111.741 196 214 255
183.424 108.355 111.389 190 211 255
114.686 97.5679 116.261 255 231 211
55.7034 99.7331 113.852 243 242 255
122.818 109.409 111.787 214 225 255
120.147 100.549 124.013 226 233 255
113.5 206.718 111.727 203 219 255
66.6822 137.905 113.602 211 224 255
103.402 110.248 107.536 255 222 196
116.34 106.589 99.3585 255 236 219
93.3986 175.631 110.911 195 214 255
171.772 104.307 112.462 212 224 255
93.8888 175.838 110.668 184 207 255
88.217 79.0047 104.425 195 213 255
121.859 109.123 111.217 206 220 255
93.6386 175.624 111.105 209 222 255
20.8789 72.5469 110.717 195 214 255
141.404 50.7034 107.528 209 222 255
182.777 110.684 104.926 234 237 255
199.138 162.859 112.271 179 204 255
88.3281 80.706 104.231 209 222 255
159.825 72.3932 115.141 191 211 255
118.451 121.888 116.701 255 201 157
112.088 151.867 109.54 252 247 255
61.9547 102.563 105.568 219 229 255
136.856 140.645 115.883 255 248 239
75.3976 161.606 113.092 247 244 255
194.749 40.431 115.119 190 211 255
135.489 115.204 118.639 255 187 130
72.874 110.829 113.183 208 222 255
102.272 126.485 112.241 255 231 211
194.109 45.594 112.055 200 217 255
58.6497 127.984 109.347 219 228 255
99.138 157.6 112.562 203 219 255
27.5115 181.443 112.161 176 201 255
145.825 23.1676 114.669 196 214 255
62.3434 132.372 96.9367 200 217 255
217.365 108.31 113.736 191 211 255
153.532 172.315 110.668 197 215 255
107.85 121.864 114.212 255 165 84
132.848 128.883 113.757 226 233 255
166.983 153.652 112.443 204 219 255
93.35 176.355 110.014 200 217 255
25.717 117.113 110.618 211 224 255
94.0702 129.832 121.065 255 238 224
221.613 117.117 113.393 189 210 255
144.434 34.3258 115.216 207 221 255
133.25 78.9076 103.034 255 235 218
144.833 119.65 109.478 255 241 228
124.086 132.453 116.964 255 226 203
166.042 106.362 114.242 204 220 255
57.6946 124.437 112.046 217 227 255
110.16 184.888 109.567 197 215 255
99.5715 61.7543 108.707 255 255 252
128.243 132.999 111.142 251 246 255
93.1265 74.3714 114.994 255 191 138
97.4727 38.0541 114.668 220 229 255
179.346 54.5636 114.201 198 216 255
119.121 35.0861 111.57 185 207 255
71.7315 107.135 112.507 255 250 255
40.9583 143.612 108.535 204 219 255
110.646 110.956 98.0664 217 227 255
105.821 121.562 102.987 255 230 209
107.011 107.569 105.219 255 253 248
61.1094 47.6352 111.254 217 227 255
131.154 131.769 114.568 203 219 255
57.2875 104.714 108.751 206 221 255
16.7482 164.035 109.994 186 208 255
166.128 100.138 109.815 189 210 255
84.9516 54.582 108.691 202 218 255
96.4106 108.589 112.065 213 225 255
82.8528 48.3627 113.953 222 230 255
95.8681 142.823 106.289 255 251 255
170.842 111.19 115.565 211 223 255
63.5832 77.9999 113.737 255 254 250
145.167 111.76 109.926 217 227 255
161.724 59.3262 116.121 201 218 255
122.145 118.945 111.141 239 240 255
41.7225 152.651 117.238 207 221 255
127.4 197.757 112.386 217 227 255
114.466 56.2457 107.47 191 211 255
103.894 112.489 98.8827 255 219 190
92.4293 81.3662 115.126 255 235 218
93.396 175.654 110.954 202 218 255
103.015 137.594 104.404 185 208 255
178.04 134.111 112.815 200 217 255
104.602 79.2458 112.531 214 225 255
87.5091 26.2381 108.644 204 219 255
207.577 158.976 109.752 198 216 255
122.483 136.607 115.079 245 243 255
47.9695 91.3503 111.73 217 227 255
57.2523 175.483 111.17 212 224 255
102.097 115.805 107.726 234 237 255
108.602 156.899 111.911 227 233 255
159.721 87.6108 112.088 213 225 255
51.0179 109.416 110.929 216 227 255
44.3245 118.501 112.631 197 215 255
173.719 99.3251 120.598 196 214 255
40.4114 117.771 112.815 192 212 255
105.498 109.914 118.526 255 241 228
126.48 201.359 110.891 196 214 255
47.5979 120.064 96.1214 255 212 178
40.6384 196.982 114.149 188 210 255
152.176 185.675 113.272 205 220 255
170.702 107.767 112.196 190 211 255
120.118 177.412 112.333 196 214 255
201.855 110.209 115.287 192 212 255
17.3972 68.2672 109.658 208 222 255
50.2608 94.9168 108.689 219 228 255
72.9847 120.71 106.57 199 216 255
93.4611 175.602 111.005 199 216 255
71.2384 159.307 111.112 207 221 255
163.975 25.525 113.135 205 220 255
210.372 109.781 112.363 193 213 255
174.433 127.639 115.113 245 243 255
65.9019 63.521 109.196 255 246 237
136.668 196.084 112.963 216 226 255
141.012 76.4719 112.078 195 214 255
202.888 55.8676 111.024 188 210 255
125.966 82.8042 111.148 255 231 212
114.875 100.043 100.238 255 183 123
198.251 98.3234 111.242 205 220 255
58.3524 190.543 113.968 196 214 255
123.287 132.543 118.501 238 239 255
84.3945 70.9769 113.469 203 219 255
52.8971 101.2 115.226 187 209 255
81.137 115.782 104.371 224 231 255
80.0528 144.734 111.996 252 247 255
150.031 117.149 113.458 229 234 255
212.242 117.596 113.314 179 204 255
93.396 175.801 110.791 201 217 255
169.475 152.615 110.251 206 220 255
109.834 106.774 119.73 215 226 255
168.516 163.961 113.63 206 220 255
146.499 97.7184 121.715 219 228 255
108.744 12.6579 106.74 198 216 255
93.3945 175.81 110.815 187 208 255
130.708 62.8242 109.501 193 212 255
41.1791 67.7438 112.784 193 212 255
133.924 86.7258 122.506 206 220 255
87.3258 88.8387 108.334 222 230 255
207.03 74.5312 111.334 192 212 255
135.822 63.7452 108.563 251 246 255
52.9388 166.934 110.935 187 209 255
75.2005 69.7425 110.148 255 239 226
76.2061 88.8964 106.903 200 217 255
107.356 151.888 116.054 222 230 255
67.5589 71.659 112.334 218 228 255
212.334 97.9127 112.133 184 207 255
162.369 53.2356 110.038 196 214 255
135.497 108.569 115.637 255 239 225
204.944 51.8665 114.243 191 212 255
126.457 114.564 113.063 255 229 209
180.127 80.2001 109.819 189 210 255
111.517 98.6747 104.616 255 197 151
147.2 137.67 104.721 255 245 235
105.636 71.1923 114.932 255 253 249
100.689 180.558 110.263 185 207 255
121.726 111.993 100.341 255 206 168
166.332 107.322 114.52 255 246 237
115.204 156.648 115.773 210 223 255
123.371 146.574 114.033 215 226 255
115.394 100.619 115.177 255 169 94
166.516 64.3637 110.817 204 219 255
18.1994 130.002 111.04 193 212 255
100.874 174.739 110.308 241 241 255
93.1154 175.59 111.158 229 234 255
82.7246 53.6866 110.67 192 212 255
63.221 65.2065 111.223 183 206 255
117.953 106.183 124.431 230 235 255
84.7781 134.687 116.8 200 217 255
49.1114 183.093 111.313 183 206 255
57.6422 132.04 111.236 206 220 255
144.46 198.813 112.358 196 214 255
156.235 41.2211 109.092 209 222 255
98.4125 173.886 109.587 255 163 80
120.864 142.156 107.927 255 196 149
109.323 162.605 111.175 219 228 255
93.4038 175.698 110.896 191 211 255
94.7386 162.794 110.744 254 248 255
26.2634 123.172 114.38 181 205 255
119.594 147.675 111.256 240 240 255
71.7385 127.031 101.22 197 215 255
104.716 121.092 108.392 255 197 149
91.6199 91.0539 112.472 255 251 255
18.4659 131.437 114.617 184 207 255
124.213 61.121 107.665 222 230 255
166.133 106.781 116.194 249 246 255
47.9709 145.127 112.542 203 219 255
76.9428 67.8466 113.815 205 220 255
93.2064 175.419 111.011 214 225 255
113.447 105.116 120.299 255 207 169
140.431 41.6928 114.943 202 218 255
107.544 90.8569 119.297 255 221 193
127.932 123.499 115.405 216 227 255
58.3318 29.6434 114.039 210 223 255
183.446 14.4327 115.571 189 210 255
93.4699 175.713 110.844 198 216 255
55.8948 127.475 103.189 240 240 255
178.274 86.6126 113.125 200 217 255
48.3702 118.953 116.301 201 217 255
155.617 160.975 116.424 224 231 255
96.474 131.419 116.599 255 253 248
146.596 153.342 109.791 209 222 255
28.2253 107.438 116.366 193 212 255
80.6186 35.4157 112.928 205 220 255
206.45 102.325 113.155 197 215 255
141.543 186.213 112.906 192 212 255
145.592 156.802 116.984 213 225 255
95.7013 117.523 122.037 239 240 255
77.3829 107.936 118.614 255 232 214
139.426 57.6566 112.846 240 241 255
88.2913 112.724 114.045 255 241 228
13.1179 63.0881 112.675 203 219 255
166.81 8.70659 113.027 192 212 255
32.5975 134.265 112.029 201 217 255
86.5637 56.0565 113.923 194 213 255
172.707 108.436 112.408 242 242 255
93.4078 175.753 110.851 200 217 255
131.784 143.299 110.715 234 237 255
78.4991 116.071 106.291 255 244 233
136.458 155.171 114.149 198 215 255
114.148 133.242 108.592 216 226 255
89.66 72.2241 117.588 219 228 255
108.694 120.036 101.97 255 230 210
135.053 160.589 111.542 242 241 255
153.549 136.418 113.214 217 227 255
109.959 75.7045 107.559 228 233 255
50.3258 181.254 113.632 177 202 255
148.211 77.1363 113.639 255 237 222
168.029 90.7914 113.054 219 228 255
186.261 79.1845 113.013 188 209 255
154.589 115.67 117.131 213 225 255
139.587 135.34 111.978 214 225 255
186.619 136.47 114.154 202 218 255
161.179 88.6327 113.366 206 221 255
77.2681 87.4508 120.376 204 220 255
63.9789 105.773 118.312 200 217 255
131.377 131.849 111.069 221 229 255
93.2697 175.534 110.966 185 208 255
147.605 118.85 122.624 196 214 255
153.679 37.9683 112.15 182 206 255
22.0566 114.257 110.412 194 213 255
160.686 84.9714 110.856 219 228 255
108.566 72.1439 105.401 255 253 249
120.391 48.4791 113.585 206 220 255
145.281 207.481 113.757 200 217 255
104.149 126.517 102.468 255 217 186
111.84 159.458 111.496 255 252 247
155.29 32.159 111.97 205 220 255
131.713 125.788 111.44 210 223 255
51.9621 100.197 112.185 200 217 255
116.096 178.502 109.573 248 245 255
101.355 17.9062 112.633 199 216 255
89.017 42.6059 109.026 221 230 255
142.199 15.8512 111.837 196 215 255
46.1074 151.533 109.708 195 214 255
142.065 77.3327 114.804 203 218 255
92.1794 94.9974 117.423 242 242 255
139.422 74.9116 106.092 231 236 255
129.375 104.314 108.72 205 220 255
58.0009 156.54 113.881 196 214 255
178.144 130.062 112.017 190 211 255
147.119 63.1465 108.853 208 222 255
127.626 5.62787 111.433 192 212 255
125.626 88.1925 122.073 215 226 255
138.139 72.2228 120.102 195 214 255
124.416 114.36 120.652 226 233 255
161.704 52.6165 115.954 203 219 255
139.981 141.208 116.431 214 226 255
117.468 124.025 117.189 255 210 175
96.8539 85.322 112.149 212 224 255
158.165 174.374 105.082 199 216 255
115.073 74.5582 110.909 255 248 240
164.615 100.748 112.82 192 212 255
51.8339 84.8649 118.764 208 221 255
115.098 79.542 119.537 212 224 255
51.9416 168.663 114.285 200 217 255
123.366 115.856 103.345 205 220 255
147.923 188.759 104.142 195 214 255
140.78 79.5137 112.819 233 237 255
115.482 43.8104 116.887 245 243 255
49.7462 131.615 113.827 186 208 255
62.5941 164.601 116.509 191 211 255
136.089 7.64786 111.409 177 202 255
97.6139 174.093 110.616 201 218 255
23.7219 67.9578 109.633 184 207 255
221.418 128.968 114.221 199 216 255
92.9172 81.8311 105.708 213 225 255
101.391 172.004 109.957 202 218 255
110.38 126.599 124.001 212 224 255
148.093 27.9412 112.403 215 226 255
96.5491 57.4687 111.282 255 165 84
100.761 158.733 111.707 229 234 255
122.862 154.865 107.177 255 250 243
65.6405 69.2537 106.629 199 216 255
133.759 78.7594 106.852 218 228 255
120.872 116.053 113.144 224 231 255
188.648 164.31 112.283 199 216 255
157.058 81.9687 110.063 255 251 255
162.075 140.108 112.571 255 170 95
70.1684 141.55 115.613 238 240 255
132.038 78.3261 112 255 228 207
70.9339 121.212 116.431 210 223 255
158.523 76.8277 113.838 231 235 255
167.289 85.5319 111.422 211 224 255
129.961 141.802 115.487 255 205 165
74.2443 168.445 110.662 201 218 255
106.6 182.099 111.224 224 231 255
93.3947 175.854 110.794 213 225 255
54.1148 100.513 118.75 230 235 255
62.037 156.547 111.585 201 217 255
121.055 65.8407 115.462 195 214 255
153.107 100.399 105.03 255 228 206
103.228 34.1389 113.4 190 211 255
152.992 46.6881 108.953 204 219 255
87.588 95.4174 107.768 200 217 255
218.349 124.784 111.941 187 209 255
105.811 111.576 121.479 255 252 247
98.0056 200.993 112.044 186 208 255
107.766 142.482 104.902 195 214 255
161.061 103.172 107.656 203 219 255
93.7682 175.024 110.787 189 210 255
92.0478 44.6838 107.285 210 223 255
192.088 130.067 111.331 204 219 255
134.89 173.723 116.01 184 207 255
74.8246 138.172 117.487 255 221 193
106.258 80.7901 121.819 255 243 232
58.8774 71.6725 113.716 192 212 255
12.0878 123.358 112.037 189 210 255
152.965 139.075 114.311 240 240 255
124.771 79.0258 106.352 226 232 255
136.992 130.589 118.613 212 224 255
4.93504 118.456 113.771 192 212 255
92.5798 107.484 112.295 184 207 255
93.1228 175.749 110.795 212 224 255
116.578 110.622 123.64 201 218 255
121.327 119.532 120.219 255 237 222
130.862 42.8023 114.989 194 213 255
215.005 149.667 111.937 190 211 255
94.4518 52.5419 111.718 194 213 255
85.8046 94.052 118.983 255 230 210
139.086 83.379 113.269 217 227 255
98.8594 175.161 109.502 255 242 231
94.3075 200.267 113.351 196 215 255
167.594 103.949 110.729 218 227 255
82.1783 122.378 114.967 255 247 238
93.8063 175.071 110.692 229 234 255
117.067 112.101 127.383 255 255 251
55.9781 141.96 109.859 219 228 255
107.015 106.111 106.091 255 250 244
173.75 103.389 110.569 202 218 255
151.654 135.302 124.674 210 223 255
106.615 120.609 108.976 232 236 255
95.6478 46.0171 114.053 198 215 255
120.43 124.291 123.639 255 251 255
109.924 104.191 126.045 255 233 215
138.426 72.9012 120.761 255 239 226
136.399 148.213 114.652 206 220 255
177.6 119.122 113.908 252 247 255
106.781 103.989 116.645 255 187 130
121.982 107.586 111.928 209 222 255
154.302 162.957 115.76 198 215 255
68.047 148.289 111.108 194 213 255
75.1139 102.778 102.551 204 219 255
174.54 80.7444 113.54 190 211 255
91.459 62.6309 119.517 207 221 255
119.704 68.333 79.1116 247 244 255
78.5334 66.3339 117.344 212 224 255
97.2688 99.564 111.17 203 219 255
150.94 157.368 116.332 213 225 255
109.869 75.7522 107.92 255 242 230
182.324 94.5899 111.183 192 212 255
122.707 114.791 101.768 208 222 255
15.1235 98.1492 111.282 186 208 255
103.977 98.5687 113.476 255 233 215
103.305 52.5597 107.434 242 242 255
112.888 161.207 81.6437 194 213 255
107.564 176.211 109.801 193 212 255
88.4321 74.9744 114.898 219 228 255
33.7162 156.166 112.961 184 207 255
106.623 148.483 116.914 218 228 255
107.841 175.959 111.882 210 223 255
112.195 113.943 113.438 255 246 236
169.237 44.1649 114.645 190 211 255
121.683 147.143 110.555 215 226 255
173.104 127.13 116.177 247 244 255
85.4841 114.073 103.304 217 227 255
92.0682 115.195 102.638 204 219 255
130.853 168.183 108.249 184 207 255
125.883 191.942 111.481 184 207 255
63.6852 132.862 112.499 232 236 255
175.891 138.888 115.791 240 241 255
93.1987 120.411 120.381 245 243 255
50.1127 85.5695 110.879 186 208 255
113.924 120.552 115.848 255 197 150
102.848 22.8812 109.945 199 216 255
116.764 177.57 112.542 210 223 255
56.4606 60.4759 111.928 203 218 255
46.6306 115.596 112.274 210 223 255
144.345 74.4203 109.509 255 242 230
150.622 109.725 120.004 214 226 255
114.953 107.262 123.321 218 228 255
51.4142 21.7194 112.746 190 211 255
121.52 74.7054 107.965 206 220 255
141.004 182.977 110.613 208 222 255
155.983 122.914 108.081 209 222 255
88.9359 129.891 112.378 255 240 227
108.88 128.397 104.281 255 220 192
116.121 105.67 106.723 255 218 189
91.2206 71.908 106.84 225 232 255
89.5231 192.324 111.574 190 211 255
112.171 166.022 109.649 195 214 255
93.5049 175.821 110.964 187 209 255
150.379 47.2684 113.17 192 212 255
112.265 168.034 110.205 201 217 255
144.202 33.4788 114.924 181 205 255
36.7402 112.558 112.45 203 219 255
162.101 155.693 112.169 202 218 255
96.9526 106.696 124.373 237 239 255
74.6838 46.7401 113.595 189 210 255
94.6338 105.833 109.754 255 235 219
155.168 101.028 107.062 199 216 255
23.0486 173.063 113.587 200 217 255
75.5346 106.87 104.166 227 233 255
116.771 155.383 110.17 211 223 255
58.0552 127.813 110.701 207 221 255
129.752 77.9973 116.59 224 231 255
142.558 187.067 108.301 191 211 255
177.08 120.716 113.415 211 223 255
151.652 130.707 116.158 234 237 255
14.3661 152.635 111.508 212 224 255
65.9374 98.4519 105.119 255 247 239
100.69 83.9447 115.83 230 235 255
26.087 102.965 113.712 190 211 255
205.005 150.417 111.562 205 220 255
122.013 99.8309 116.645 215 226 255
127.457 142.817 114.46 255 205 164
202.101 174.777 112.126 195 214 255
16.195 125.402 111.672 191 211 255
59.4714 115.378 108.358 188 210 255
131.98 187.766 112.235 197 215 255
65.5295 64.0273 110.557 198 216 255
97.2327 134.301 120.107 255 229 207
105.026 52.8302 115.491 201 218 255
109.424 159.473 118.234 211 223 255
79.8573 94.1224 106.299 255 238 223
122.824 168.201 112.282 221 229 255
50.4786 67.5191 116.86 194 213 255
102.358 194.056 110.815 223 230 255
44.3406 31.8001 113.688 192 212 255
112.189 29.7593 111.065 199 216 255
81.66 20.3108 119.267 189 210 255
128.722 143.715 116.204 217 227 255
44.9304 108.894 113.755 220 229 255
93.4097 175.724 110.881 189 210 255
135.745 134.164 103.848 246 244 255
138.921 5.28266 110.913 191 211 255
162.694 118.592 113.3 198 216 255
78.3588 191.812 115.563 189 210 255
34.2142 118.266 110.354 186 208 255
150.382 106.545 121.268 202 218 255
169.349 156.095 120.208 188 209 255
152.166 134.158 111.168 203 219 255
38.5457 122.735 114.96 198 216 255
110.294 124.436 115.804 199 217 255
131.621 42.1119 118.492 245 243 255
105.915 82.4439 112.153 222 230 255
108.699 39.7176 111.144 233 236 255
23.6549 166.082 111.963 186 208 255
112.494 79.2434 114.514 210 223 255
87.2133 138.602 117.004 230 235 255
75.2075 98.1845 113.966 204 219 255
121.57 64.6704 112.652 223 231 255
93.8287 58.7758 113.058 191 211 255
33.9745 46.3081 116.474 185 208 255
119.438 113.15 100.629 202 218 255
124.82 199.122 109.993 218 228 255
93.4252 175.704 110.895 210 223 255
105.977 9.95123 110.023 186 208 255
51.2312 174.004 113.372 199 216 255
94.6026 109.037 114.474 255 250 255
121.022 30.0507 111.414 198 215 255
44.4447 142.712 112.009 228 234 255
115.96 111.503 117.95 255 157 65
88.2699 86.1143 114.931 232 236 255
77.1796 172.147 115.523 194 213 255
111.692 118.777 119.579 226 233 255
100.468 63.9277 117.849 225 232 255
171.938 110.87 110.389 240 241 255
96.1386 80.3109 106.838 218 228 255
121.112 103.483 120.809 255 237 222
162.661 105.458 115.068 191 211 255
114.077 145.892 111.856 197 215 255
136.391 26.7005 113.621 196 215 255
96.2203 121.528 102.85 255 228 206
104.37 138.007 107.702 248 245 255
72.1693 14.5204 111.092 197 215 255
194.921 70.7848 111.064 187 209 255
152.257 182.253 113.007 185 208 255
134.574 103.77 122.884 226 233 255
102.514 167.001 110.968 232 236 255
113.348 59.939 111.206 192 212 255
86.9975 129.358 103.003 229 234 255
153.837 103.368 112.385 208 221 255
170.337 106.579 108.79 255 253 248
105.457 142.602 114.598 253 248 255
144.997 87.5516 109.526 217 227 255
184.493 139.277 114.301 198 216 255
100.132 108.606 123.546 255 249 255
174.398 149.837 114.288 197 215 255
29.5924 95.2946 114.878 205 220 255
174.062 42.8251 111.534 202 218 255
34.4776 71.68 111.071 190 211 255
124.617 84.5496 110.761 255 207 169
93.4013 175.792 110.854 208 222 255
52.5478 123.73 111.121 191 211 255
7.25111 110.275 109.581 180 204 255
142.956 98.2206 118.724 205 220 255
136.388 32.4127 110.6 207 221 255
20.7793 173.878 111.03 194 213 255
123.577 43.9306 113.683 233 237 255
27.3441 118.599 114.488 188 210 255
48.9102 73.0702 110.466 197 215 255
32.9149 134.304 113.257 202 218 255
214.699 103.687 114.161 199 216 255
146.467 124.461 105.244 255 221 194
96.3152 156.14 115.739 225 232 255
59.6743 54.7432 107.817 208 222 255
7.23593 76.3533 112.265 193 212 255
128.081 0.847636 105.961 187 209 255
117.059 99.7162 118.309 255 210 174
74.1471 201.556 112.608 195 214 255
131.335 131.532 113.336 248 245 255
70.5161 135.779 119.415 203 219 255
124.385 84.889 108.7 205 220 255
93.0926 174.179 112.531 255 247 239
120.169 164.023 118.012 255 221 195
116.335 74.617 109.229 255 252 247
87.3304 117.742 104.716 251 247 255
191.918 87.2827 111.041 255 250 243
95.3144 178.027 111.113 204 219 255
145.922 103.824 108.575 220 229 255
142.381 105.349 107.358 255 254 251
129.722 128.365 112.081 255 208 170
115.177 44.5902 109.305 200 217 255
98.181 171.809 114.631 255 240 226
57.9132 123.138 114.043 225 232 255
165.712 135.172 110.95 200 217 255
22.4517 159.129 112.266 196 214 255
103.338 110.3 116.43 231 235 255
94.4789 117.5 117.647 202 218 255
150.282 128.562 107.193 255 236 220
114.504 126.927 101.269 255 158 68
93.3987 175.659 110.821 255 238 223
178.687 180.45 113.005 181 205 255
130.402 106.481 118.64 255 241 228
60.683 115.794 109.794 194 213 255
165.527 191.853 112.544 181 205 255
97.3263 118.59 111.673 255 185 126
95.5265 95.6834 119.852 224 231 255
150.945 121.895 106.647 198 215 255
160.6 95.3005 112.753 255 248 240
149.756 132.755 107.295 204 220 255
53.9309 126.528 113.463 213 225 255
92.141 171.425 111.111 209 222 255
85.4497 78.6864 117.774 212 224 255
81.704 34.828 104.761 196 214 255
103.533 103.355 120.624 255 255 251
192.901 114.665 112.896 187 209 255
171.222 62.9141 115.834 197 215 255
171.523 142.976 115.364 202 218 255
164.202 140.158 112.22 201 217 255
51.447 137.265 109.758 188 210 255
54.3246 132.227 111.953 204 219 255
108.516 126.153 105.894 255 251 255
71.7498 165.018 110.207 203 219 255
172.713 135.243 114.686 192 212 255
83.7393 92.125 116.497 198 216 255
135.801 173.914 108.242 255 252 246
98.0585 84.3519 106.41 196 214 255
61.3931 52.4981 108.795 226 233 255
167.77 97.4483 110.685 213 224 255
89.8313 70.5965 112.199 252 247 255
119.909 7.23304 110.348 204 219 255
90.7342 119.755 103.56 237 239 255
128.762 140.489 106.595 220 229 255
65.1485 125.273 107.983 219 228 255
117.987 120.096 121.768 255 244 233
85.2831 137.481 119.364 228 234 255
93.4 175.686 110.962 215 226 255
139.415 31.6491 111.896 191 211 255
130.737 188.552 112.328 194 213 255
73.5993 47.5535 112.278 203 218 255
126.538 172.711 115.196 193 213 255
53.6685 61.2663 108.123 206 220 255
50.982 115.429 111.994 219 228 255
17.2073 126.369 109.249 189 210 255
125.054 111.595 106.661 215 226 255
86.3056 149.447 118.274 255 242 230
182.231 189.356 112.419 189 210 255
84.3042 120.261 119.679 212 224 255
72.916 139.91 110.014 223 230 255
103.422 113.984 107.271 255 206 167
93.6852 173.428 111.664 187 209 255
165.873 126.021 118.751 213 225 255
117.851 117.58 117.078 255 234 216
128.749 138.424 109.716 250 246 255
114.474 85.5714 106.002 226 233 255
51.9238 25.7504 113.443 181 205 255
90.0536 161.552 114.968 255 250 255
121.583 203.178 113.742 186 208 255
126.078 119.483 113.569 210 223 255
81.2129 31.0587 110.363 209 222 255
85.3389 43.9381 107.646 198 215 255
112.224 113.507 103.333 255 237 221
67.9491 14.2719 114.181 186 208 255
34.22 161.519 108.841 189 210 255
118.74 111.346 115.222 255 242 230
86.0542 91.4768 114.249 209 222 255
25.1135 62.3326 110.092 189 210 255
127.266 56.3604 109.486 211 223 255
91.5472 141.127 112.58 215 226 255
138.098 201.78 115.47 192 212 255
112.62 77.9598 117.674 255 177 110
203.268 171.608 112.908 197 215 255
93.428 175.676 110.945 197 215 255
77.3231 24.9048 93.8985 194 213 255
98.3298 129.38 109.876 255 241 228
106.416 100.232 116.085 255 210 174
27.4306 68.3294 113.922 182 205 255
173.183 134.33 111.642 225 232 255
170.844 140.804 111.538 224 231 255
118.085 117.888 108.842 247 244 255
69.9348 64.7455 116.051 200 217 255
120.516 80.3669 115.74 255 251 245
102.768 107.906 117.304 255 234 217
141.776 64.3574 113.189 206 220 255
142.003 93.416 107.846 226 233 255
87.1011 81.6913 104.555 226 233 255
94.399 38.1288 113.038 255 244 233
87.407 152.608 113.31 253 248 255
152.945 143.369 116.244 206 220 255
156.005 139.784 117.131 245 243 255
173.917 179.979 119.897 184 207 255
68.7984 125.49 115.489 202 218 255
154.167 108.652 114.394 255 243 232
49.9476 148.417 116.848 198 216 255
121.822 168.919 115.617 255 247 239
148.844 86.8482 113.533 255 218 188
84.785 39.1669 111.531 188 209 255
99.7551 174.837 110.621 234 237 255
173.699 124.322 111.386 201 217 255
85.8428 115.92 109.484 255 245 235
155.924 85.4832 109.131 237 239 255
96.0524 176.093 110.198 212 224 255
103.531 113.161 123.508 240 241 255
99.1087 119.646 110.037 255 224 199
97.5838 173.553 109.428 205 220 255
113.785 66.6058 110.051 205 220 255
31.697 106.578 110.87 194 213 255
52.3959 164.788 112.966 192 212 255
78.4393 137.811 109.951 227 233 255
130.101 80.5192 119.146 255 226 203
101.736 28.9779 114.757 188 210 255
18.9027 152.624 110.193 185 208 255
221.78 104.743 115.773 201 217 255
101.502 186.254 111.6 207 221 255
109.839 141.35 103.58 242 242 255
111.93 129.003 103.938 255 212 178
154.195 118.537 111.99 227 233 255
118.764 102.417 114.92 255 246 236
92.5501 99.9683 103.39 255 230 210
55.1193 93.1045 109.099 255 230 209
127.556 109.231 109.889 196 214 255
206.549 64.415 116.592 192 212 255
116.259 43.4029 114.474 247 244 255
99.5746 173.853 110.724 198 216 255
129.527 127.488 105.566 255 228 207
111.622 177.947 110.985 246 244 255
144.013 121.041 108.893 187 209 255
110.006 86.8556 115.094 207 221 255
13.6113 94.6257 112.517 184 207 255
51.0963 25.5429 117.559 183 206 255
71.0985 116.3 107.933 215 226 255
51.3852 61.1518 102.626 200 217 255
101.506 87.158 107.02 239 240 255
146.047 147.826 118.91 198 216 255
101.849 28.4269 113.162 188 209 255
116.025 35.2129 109.784 196 214 255
110.57 157.283 118.725 255 227 204
55.0557 24.4876 110.509 210 223 255
68.437 98.8319 111.105 211 224 255
133.567 53.6388 108.588 208 222 255
144.763 64.8382 110.37 218 228 255
107.359 159.042 112.92 255 240 228
116.044 146.02 104.73 204 219 255
155.111 101.894 109.595 214 225 255
111.531 50.7873 108.769 216 226 255
121.063 117.671 123.543 255 211 176
96.3885 175.741 111.923 214 225 255
101.662 127.577 103.073 255 222 196
82.8697 209.224 111.799 196 215 255
202.225 56.3469 114.297 188 209 255
93.3974 175.673 110.921 197 215 255
116.402 113.623 104.412 225 232 255
145.506 143.014 111.529 202 218 255
48.9511 31.0472 110.67 231 236 255
179.31 89.0423 117.658 255 230 210
116.706 91.3919 122.676 196 215 255
207.48 160.662 108.607 188 209 255
78.0958 204.343 110.379 193 212 255
73.0874 113.668 107.51 206 220 255
100.836 151.347 111.517 248 245 255
166.108 161.447 108.465 184 207 255
148.881 10.7594 100.881 181 205 255
96.9652 164.013 110.664 210 223 255
163.469 119.177 112.165 243 242 255
67.5314 184.228 110.342 192 212 255
141.224 212.381 111.307 190 211 255
166.026 146.652 109.258 195 214 255
88.7979 214.541 102.459 187 209 255
45.3951 29.7104 109.754 195 214 255
100.451 169.13 112.846 255 240 226
142.526 91.0246 112.143 255 232 213
123.84 43.3841 110.082 226 233 255
93.3498 61.0915 108.139 197 215 255
114.372 95.0807 112.309 255 250 244
140.129 107.659 105.986 214 225 255
141.965 209.983 111.18 179 204 255
184.687 47.7789 111.577 191 212 255
116.437 123.742 111.867 255 193 142
46.4343 71.4017 107.489 186 208 255
97.113 133.012 108.524 218 228 255
211.397 126.601 110.273 202 218 255
60.2312 17.6039 108.202 186 208 255
49.0015 81.5616 108.613 211 224 255
151.883 94.6346 115.793 196 214 255
121.695 24.7852 114.815 192 212 255
80.4625 123.008 120.058 212 224 255
116.821 172.711 112.204 213 225 255
69.2824 143.72 112.168 226 232 255
129.848 86.4704 115.121 255 184 124
103.902 122.046 112.025 255 200 155
107.108 20.6542 113.381 191 211 255
129.497 129.1 117.952 231 235 255
53.6283 83.2552 113.687 255 240 227
147.536 23.366 114.733 204 219 255
88.2467 95.5225 118.235 217 227 255
154.683 70.0092 110.098 255 252 246
131.604 48.6196 116.258 217 227 255
116.565 126.177 119.735 232 236 255
116.594 110.108 122.87 246 244 255
93.7492 175.714 110.465 226 232 255
101.031 169.468 110.707 211 223 255
105.986 13.1879 109.615 185 207 255
129.418 9.29088 111.626 183 206 255
166.229 174.932 111.294 201 217 255
107.663 123.222 104.43 211 224 255
40.3449 120.602 108.225 188 210 255
162.333 69.1216 117.384 212 224 255
121.852 206.936 109.182 209 222 255
92.2048 83.0813 107.158 255 250 243
151.029 117.681 105.205 223 231 255
171.322 131.463 121.181 202 218 255
118.375 83.962 110.385 255 255 252
131.193 207.525 113.936 189 210 255
89.1643 28.451 112.975 214 225 255
20.9248 64.4535 114.981 191 212 255
51.5885 152.767 113.714 204 219 255
93.5344 175.684 111.168 220 229 255
85.6314 112.203 120.837 226 232 255
173.178 116.561 113.249 216 226 255
116.415 85.3791 104.928 203 219 255
137.138 19.4627 111.596 229 234 255
223.321 126.694 115.348 194 213 255
128.437 75.1871 114.01 210 223 255
137.968 71.4991 126.23 200 217 255
131.498 186.256 112.693 194 213 255
75.067 96.1387 112.614 255 220 193
23.1973 56.6973 113.548 182 205 255
123.024 122.209 117.691 204 219 255
125.659 103.696 119.712 236 238 255
73.9739 108.509 104.487 255 219 190
98.3933 45.0989 111.877 203 219 255
41.1737 32.4409 115.938 182 206 255
117.236 114.54 105.254 203 219 255
45.4109 112.241 109.53 198 215 255
109.095 138.142 118.31 255 242 230
73.8428 17.0377 111.631 190 211 255
218.649 106.444 112.923 197 215 255
26.1769 75.4258 112.539 192 212 255
119.278 102.958 108.374 222 230 255
107.967 167.199 111.034 235 237 255
107.479 153.768 113.667 255 235 218
155.814 67.1864 112.997 211 223 255
118.413 14.2064 112.665 186 208 255
21.3926 68.2772 115.048 187 209 255
98.9972 136.215 110.386 255 237 222
211.634 137.043 110.212 183 206 255
14.8456 110.321 110.323 209 222 255
67.6718 135.768 108.31 209 222 255
93.4153 175.748 110.849 201 218 255
51.683 109.789 114.093 216 226 255
155.351 121.448 103.942 255 233 215
112.195 108.734 120.347 255 223 197
155.502 93.7316 115.777 212 224 255
119.998 112.375 115.6 217 227 255
104.939 148.308 120.201 194 213 255
86.4857 111.289 119.707 192 212 255
123.445 76.0478 109.207 255 176 107
91.2851 69.7459 112.041 231 235 255
113.656 104.47 106.411 255 222 197
159.986 167.75 112.202 213 225 255
151.846 29.0996 112.266 181 205 255
44.5717 85.2802 113.31 198 216 255
69.0376 21.0978 110.068 190 210 255
95.7992 97.436 117.111 255 253 248
91.3732 160.594 113.757 241 241 255
150.127 114.398 115.657 225 232 255
134.858 102.624 112.157 224 231 255
124.597 6.90405 110.971 196 214 255
195.484 105.242 111.561 183 206 255
78.6738 94.845 104.638 255 225 201
123.584 131.8 112.84 255 185 126
61.5162 179.698 108.011 193 213 255
115.192 106.066 120.791 214 225 255
76.9419 79.8356 118.192 217 227 255
54.6256 52.0778 112.925 199 216 255
24.4973 59.2408 111.231 200 217 255
135.323 191.96 111.756 197 215 255
26.9263 51.2655 112.885 187 209 255
77.8352 124.522 103.315 255 237 222
163.855 27.98 111.176 183 206 255
100.496 131.229 119.083 255 179 114
124.982 89.0475 114.478 255 226 203
114.737 122.281 119.674 255 241 228
64.08 207.089 112.401 185 207 255
97.1528 173.252 112.046 214 225 255
124.18 162.412 114.996 213 225 255
73.4336 105.751 106.292 255 232 214
93.415 175.766 110.842 207 221 255
125.806 122.891 114.94 249 246 255
118.146 31.9473 107.719 191 211 255
116.253 94.9126 113.233 226 233 255
34.9747 152.496 112.977 212 224 255
99.2186 196.463 110.198 182 205 255
213.082 149.761 111.242 188 209 255
73.8919 174.091 112.482 193 213 255
93.4284 175.537 110.826 204 219 255
146.352 125.007 110.451 201 218 255
113.577 74.0423 115.157 206 220 255
95.563 124.535 104.465 255 238 223
77.6292 70.3589 108.719 255 245 236
123.531 116.771 104.935 234 237 255
184.279 73.6622 110.987 211 224 255
93.3507 175.765 110.784 190 210 255
68.2003 153.206 115.66 207 221 255
131.275 58.0887 112.539 255 222 196
49.7386 128.248 127.013 197 215 255
108.191 127.872 113.3 207 221 255
63.3859 164.649 112.302 210 223 255
52.0762 184.773 110.787 212 224 255
69.2085 76.9143 106.407 213 225 255
118.041 128.35 110.961 255 127 0
202.303 41.307 113.195 182 206 255
103.895 30.8492 113.41 199 216 255
179.217 184.491 125.055 190 210 255
120.017 54.5967 110.211 211 224 255
99.3501 92.008 116.829 217 227 255
37.7416 101.324 114.397 197 215 255
29.4513 152.842 113.31 191 211 255
129.787 108.437 122.583 229 234 255
118.219 151.049 114.158 255 250 244
46.6636 186.53 109.306 186 208 255
162.493 133.515 107.362 191 211 255
154.694 181.579 111.696 211 223 255
72.54 106.821 112.291 255 249 255
109.266 116.022 120.371 255 250 255
125.822 81.6169 110.982 255 255 252
41.2605 158.439 110.771 200 217 255
166.595 88.4764 114.639 218 228 255
180.259 49.0138 110.743 186 208 255
130.088 107.557 108.891 218 227 255
180.462 113.709 112.539 197 215 255
114.18 94.5804 117.55 233 237 255
47.4409 82.4316 111.222 255 234 217
88.0794 101.333 105.918 255 226 202
148.549 123.793 112.84 191 211 255
92.4704 46.0194 108.685 188 209 255
117.631 47.6482 116.244 222 230 255
167.231 128.235 115.551 210 223 255
168.806 49.2392 112.691 216 226 255
112.012 151.146 118.378 217 227 255
139.965 27.4481 113.132 203 218 255
173.399 116.135 113.653 217 227 255
57.1252 122.903 122.627 211 223 255
161.742 168.835 115.32 196 214 255
53.2136 28.7325 108.267 182 206 255
103.737 91.7944 121.475 255 204 163
142.844 59.6513 113.965 251 247 255
131.585 82.7665 122.862 187 209 255
76.8165 170.923 109.713 182 206 255
40.0754 116.472 114.72 200 217 255
161.134 122.605 112.209 237 238 255
204.916 58.4061 111.978 195 213 255
51.4871 112.955 120.241 193 212 255
59.4893 77.3729 112.294 232 236 255
178.289 118.13 120.403 237 238 255
171.295 150.836 109.651 196 215 255
115.991 110.793 116.524 255 251 255
51.3709 112.367 116.243 193 213 255
126.174 100.591 105.437 237 239 255
57.9057 121.965 115.347 252 247 255
131.468 109.758 122.75 219 228 255
162.927 40.2441 111.874 185 207 255
96.7492 213.955 107.888 181 205 255
99.8558 82.0709 114.043 218 227 255
108.984 119.958 99.8733 255 209 172
115.427 85.3372 106.501 255 103 0
121.421 57.9577 112.149 192 212 255
157.577 71.1225 113.615 214 226 255
128.828 137.526 120.023 194 213 255
107.673 120.666 106.915 215 226 255
72.9562 174.741 113.512 200 217 255
128.312 128.786 121.131 239 240 255
53.6687 108.12 113.823 193 212 255
98.0994 73.88 114.851 221 229 255
94.3983 98.9155 107.134 225 232 255
81.4306 148.164 117.215 204 219 255
175.341 93.0673 105.387 204 219 255
95.8874 146.032 108.394 192 212 255
44.0401 99.4593 114.376 201 218 255
127.207 146.591 117.706 223 231 255
114.902 118.314 108.796 255 231 212
145.706 81.5275 112.514 220 229 255
98.641 32.8157 116.955 204 219 255
57.764 103.78 117.769 255 249 255
109.025 69.9627 112.702 203 219 255
64.6331 41.6745 105.782 192 212 255
112.197 101.65 106.344 255 243 233
128.806 121.752 107.715 247 245 255
136.509 75.8671 108.038 255 245 235
98.8732 172.055 113.603 255 239 225
170.571 110.123 113.262 227 233 255
159.726 3.82699 109.385 177 202 255
93.4364 175.551 110.883 223 231 255
83.9242 72.8515 105.389 198 216 255
172.344 112.717 110.203 218 228 255
50.9281 104.558 108.986 186 208 255
187.238 127.486 109.885 215 226 255
30.8875 123.107 114.656 188 209 255
153.079 182.492 113.937 207 221 255
78.3141 98.4594 121.479 209 223 255
104.174 157.684 108.184 203 219 255
126.603 95.5217 104.498 211 223 255
172.373 151.156 111.614 218 228 255
121.667 104.811 122.213 200 217 255
127.897 45.8575 109.299 201 217 255
90.6237 178.982 113.242 191 211 255
37.0126 166.684 109.43 193 212 255
112.396 145.84 114.332 255 244 233
65.5958 37.7012 109.819 192 212 255
60.7587 62.2129 114.627 200 217 255
176.223 177.814 123.402 190 210 255
124.097 140.586 119.097 236 238 255
142.101 109.422 112.286 218 228 255
93.432 175.847 110.758 255 218 189
123.506 72.5646 112.224 247 244 255
186.034 137.574 113.468 190 210 255
91.7168 87.7792 106.486 226 233 255
206.177 66.8261 111.753 191 211 255
142.189 74.7199 113.431 216 227 255
96.2972 157.867 114.96 255 235 218
194.255 136.343 111.6 211 224 255
93.4677 175.641 110.911 193 213 255
20.1141 91.6954 113.636 193 212 255
58.8274 56.388 108.835 255 249 255
82.8547 143.931 104.701 208 222 255
107.54 71.2907 116.94 255 245 235
202.117 124.743 110.308 187 209 255
102.607 116.898 107.119 255 237 222
162.17 167.743 113.187 207 221 255
49.0967 78.3909 106.068 206 221 255
90.9352 117.66 104.802 255 221 193
130.554 72.8117 114.161 221 230 255
4.29056 118.061 109.71 210 223 255
50.7169 77.5978 112.439 205 220 255
86.9737 95.2092 103.073 209 222 255
82.2598 78.9817 113.872 236 238 255
108.05 147.29 115.008 255 254 251
107.409 209.894 108.541 192 212 255
89.6164 91.2806 112.138 233 236 255
149.331 30.7783 114.517 189 210 255
143.991 138.029 113.133 210 223 255
100.64 81.9015 112.126 210 223 255
109.993 99.5734 106.869 212 224 255
128.451 105.047 109.561 229 234 255
171.04 136.773 111.345 199 216 255
49.0228 75.7858 114.421 191 211 255
123.947 151.437 104.313 202 218 255
164.899 150.332 118.034 192 212 255
93.3484 175.677 110.908 219 228 255
109.19 124.707 116.252 226 232 255
200.088 159.635 115.012 198 216 255
82.6527 147.894 112.8 255 232 213
71.5329 148.445 112.642 255 247 238
159.065 172.479 107.5 197 215 255
74.0419 52.729 111.582 191 211 255
114.213 120.13 108.826 255 233 215
51.2697 49.7384 113.284 198 216 255
93.4221 175.598 110.927 204 219 255
137.233 66.2205 107.148 201 217 255
137.905 117.823 107.084 232 236 255
127.033 19.0752 111.785 212 224 255
50.9174 114.404 111.482 196 215 255
154.08 129.371 117.879 201 217 255
56.2445 176.498 112.35 209 222 255
114.409 45.8103 112.465 199 216 255
119.288 75.3783 113.861 197 215 255
171.991 57.6934 111.869 200 217 255
119.803 113.55 106.668 255 155 61
124.699 191.798 111.246 188 209 255
116.569 122.655 120.446 255 240 227
93.4454 175.627 110.903 255 250 244
93.4403 175.688 110.928 207 221 255
117.63 114.528 105.836 255 215 183
148.184 123.437 109.51 255 248 240
120.942 132.152 121.949 233 236 255
163.777 131.659 116.471 209 222 255
161.571 167.159 110.447 219 228 255
113.706 120.12 124.313 227 233 255
72.228 112.015 106.621 237 239 255
100.495 102.756 116.303 255 227 205
97.8775 172.947 114.076 224 231 255
21.5571 117.679 110.523 188 210 255
117.775 112.013 117.447 255 232 213
29.7487 152.798 112.333 192 212 255
183.159 175.612 116.604 185 207 255
62.1341 124.829 110.666 221 230 255
43.5886 83.5757 111.832 202 218 255
93.2449 16.2738 114.129 197 215 255
178.919 120.932 102.718 187 209 255
128.133 142.658 113.577 199 216 255
162.321 88.1377 109.823 255 249 242
113.81 108.575 123.601 255 247 238
168.014 129.271 106.222 220 229 255
51.7151 113.944 107.977 203 219 255
149.046 42.1904 109.523 210 223 255
93.4079 175.727 110.863 236 238 255
65.9449 129.159 111.922 214 225 255
106.108 168.008 110.877 255 209 172
139.237 85.3223 110.05 255 225 201
103.892 128.313 121.162 255 245 235
96.3975 62.2561 110.196 255 255 251
76.9786 118.454 109.464 255 212 179
145.969 92.8242 112.066 197 215 255
94.6946 73.7644 107.945 234 237 255
105.654 137.598 106.085 255 237 222
128.079 56.1706 106.964 255 249 242
137.806 123.411 115.827 202 218 255
161.163 198.662 113.002 199 216 255
178.634 109.013 107.15 219 228 255
57.3819 59.1 111.67 199 216 255
102.771 169.194 111.412 215 226 255
168.826 120.567 114.798 193 213 255
209.638 141.575 114.893 194 213 255
171.473 156.164 115.2 196 214 255
130.752 70.6678 107.648 206 221 255
76.0304 158.169 117.516 208 222 255
73.0519 37.8985 112.636 204 219 255
165.053 98.4201 115.594 255 250 244
129.865 78.6815 105.227 213 225 255
151.342 97.7575 118.351 196 215 255
198.531 63.5185 111.488 189 210 255
153.111 139.977 118.717 224 231 255
59.388 49.0441 118.693 202 218 255
93.3737 125.807 107.913 219 228 255
64.4693 44.4674 107.812 194 213 255
39.9338 82.7142 111.421 191 211 255
111.236 70.8971 109.675 228 233 255
105.582 133.298 107.248 255 254 250
194.098 64.5684 112.651 187 209 255
173.449 120.719 111.983 202 218 255
142.35 140.981 111.137 200 217 255
104.515 117.328 101.554 255 251 255
93.4157 175.766 110.849 197 215 255
170.508 128.627 113.75 196 214 255
133.235 83.429 122.06 217 227 255
93.5113 176.051 110.8 205 220 255
137.67 71.9627 116.091 204 219 255
111.027 51.2334 117.904 213 224 255
58.5148 56.5554 103.494 189 210 255
131.772 130.785 118.516 255 251 246
172.009 173.304 114.4 190 211 255
91.8046 180.036 111.853 190 211 255
124.35 102.56 105.836 255 224 199
146.673 26.8643 111.864 194 213 255
99.4081 162.2 111.404 225 232 255
160.915 193.211 109.673 193 212 255
144.768 73.1056 114.351 240 240 255
107.097 128.674 101.718 255 241 228
192.412 175.105 109.871 194 213 255
125.778 145.17 110.071 250 246 255
81.0701 124.487 116.953 199 216 255
94.1914 147.414 118.257 223 231 255
172.316 117.044 109.636 196 215 255
91.3258 99.7943 104.949 220 229 255
113.812 49.5177 117.135 192 212 255
179.59 155.329 112.343 189 210 255
145.282 63.4796 109.491 197 215 255
28.2326 75.4407 114.204 211 223 255
106.799 168.667 110.092 196 214 255
86.1604 123.454 113.163 235 237 255
162.342 144.741 112.105 194 213 255
118.425 93.7336 119.49 255 226 203
168.813 127.016 104.45 222 230 255
5.43506 123.837 116.269 182 206 255
113.335 124.302 105.744 255 245 235
103.899 77.3647 111.802 205 220 255
69.1013 184.688 111.612 191 211 255
143.514 170.848 109.317 195 214 255
100.706 27.3738 114.423 197 215 255
52.8064 122.434 116.526 219 228 255
123.946 131.486 120.629 255 237 222
140.149 93.3321 105.737 255 250 244
138.975 106.524 117.976 223 230 255
47.267 119.323 112.048 204 219 255
127.433 143.568 113.864 197 215 255
170.556 57.9959 113.628 205 220 255
130.152 72.482 121.343 201 217 255
