ply
format ascii 1.0
element vertex 1341
property float x
property float y
property float z
property uchar red
property uchar green
property uchar blue
end_header
126.725 121.395 122.117 255 243 232
49.7517 118.403 120.933 231 236 255
122.497 217.223 105.291 186 208 255
167.743 172.627 118.642 191 211 255
159.1 72.1988 138.681 206 221 255
108.94 109.474 115.582 224 231 255
157.542 120.143 113.368 208 222 255
73.9572 142.498 99.1034 197 215 255
196.994 100.167 113.722 188 209 255
108.654 105.876 112.763 243 242 255
48.2234 196.515 110.857 214 225 255
89.4438 75.8345 113.683 222 230 255
109.127 100.186 112.332 254 248 255
93.9465 174.319 110.534 255 235 218
93.8781 174.249 110.584 189 210 255
71.6191 126.053 107.867 192 212 255
81.1393 130.754 109.505 255 246 236
96.2866 155.49 108.761 202 218 255
121.906 51.1219 116.566 198 216 255
172.768 84.369 111.712 209 223 255
86.1823 134.187 110.033 255 248 240
102.664 125.887 110.372 255 242 230
64.9706 122.451 112.084 202 218 255
61.5199 132.674 101.159 190 211 255
73.9108 165.065 112.658 207 221 255
107.754 180.066 113.734 200 217 255
94.7016 118.115 106.208 218 228 255
70.9184 156.138 116.708 187 209 255
114.908 127.573 105.728 213 225 255
93.9251 174.311 110.543 216 227 255
155.059 79.9541 93.0897 219 229 255
147.178 41.9062 111.157 218 228 255
60.7027 9.83109 138.202 200 217 255
99.6377 155.688 102.127 255 221 194
122.633 159.03 106.972 208 222 255
109.838 222.99 131.522 183 206 255
117.356 100.437 115.806 201 217 255
114.2 94.286 95.8012 215 226 255
100.576 134.796 105.992 255 245 235
83.0573 149.834 106.662 255 234 216
91.6738 122.419 107.368 255 244 233
131.415 76.4429 129.658 213 224 255
75.9084 135.406 124.046 190 211 255
133.967 70.8469 102.519 233 237 255
115.137 110.178 115.755 216 226 255
116.876 116.725 114.914 209 222 255
82.8538 215.255 115.031 187 209 255
104.3 115.39 121.644 207 221 255
108.949 123.776 132.806 255 253 248
138.741 146.034 110.391 201 218 255
93.9836 174.334 110.514 195 213 255
145.092 10.977 117.469 182 205 255
93.2563 174.207 110.89 207 221 255
96.6116 93.0345 99.2765 223 231 255
156.012 123.31 109.837 202 218 255
114.492 136.395 105.71 205 220 255
108.549 106.447 114.79 255 228 206
115.61 130.386 105.243 255 231 211
74.807 112.846 113.363 249 245 255
103.34 106.387 97.9442 255 247 238
93.9373 174.316 110.538 224 231 255
41.6221 182.19 111.362 226 232 255
113.65 134.834 118.098 235 237 255
65.8583 177.794 113.47 194 213 255
56.8751 36.7328 116.435 217 227 255
78.1296 142.66 133.675 207 221 255
104.965 143.707 111.385 199 216 255
93.9528 174.322 110.531 190 210 255
94.0154 174.356 110.499 238 239 255
133.732 139.633 114.055 206 220 255
117.957 142.971 113.612 255 248 240
122.475 116.334 100.725 255 247 238
60.7024 146.386 115.933 255 147 41
104.158 38.9688 111.728 222 230 255
176.201 84.447 108.934 183 206 255
96.4117 34.3341 109.189 208 222 255
112.976 129.889 131.963 255 243 232
121.07 74.4823 125.95 198 216 255
22.7207 106.172 117.463 189 210 255
93.2887 173.651 111.196 196 214 255
103.235 77.4739 100.791 255 244 234
89.8949 64.0258 115.784 175 201 255
55.2419 204.364 125.018 188 209 255
103.339 167.587 125.286 246 244 255
93.9759 174.331 110.519 195 214 255
96.2017 132.921 109.742 235 238 255
123.196 128.601 109.517 255 251 245
82.0169 141.764 119.93 213 225 255
107.771 123.258 103.16 255 224 200
204.976 69.9849 109.828 181 205 255
38.907 97.087 109.972 196 214 255
93.9696 174.328 110.521 197 215 255
157.178 104.673 101.122 193 212 255
159.523 118.092 104.031 221 230 255
101.356 103.211 101.505 255 248 240
58.1052 71.017 112.22 255 246 238
155.173 111.553 73.8057 207 221 255
106.498 100.021 110.784 255 252 247
29.2585 52.5627 112.21 190 210 255
102.216 38.0908 118.831 202 218 255
167.116 72.0662 115.746 194 213 255
108.995 110.636 113.236 215 226 255
101.4 172.277 131.973 239 240 255
100.595 81.3707 119.171 204 219 255
134.827 133.663 109.385 216 226 255
63.4225 23.988 125.329 184 207 255
93.9421 174.318 110.536 199 216 255
171.08 136.034 108.26 250 246 255
93.831 174.337 110.661 255 233 214
97.2344 153.29 118.428 219 228 255
113.519 124.244 99.8225 255 186 129
94.0455 174.367 110.451 213 225 255
127.419 181.127 115.419 192 212 255
132.725 68.849 110.812 255 204 163
5.53317 87.0558 110.629 198 215 255
184.981 145.464 112.36 210 223 255
114.52 123.461 121.168 255 218 188
93.9748 174.445 111.386 194 213 255
100.254 98.5907 116.073 251 247 255
127.184 172.343 111.13 196 214 255
120.34 147.803 118.533 225 232 255
11.2925 196.325 121.741 185 207 255
33.6793 214.857 113.168 190 210 255
167.178 159.857 99.34 200 217 255
108.824 104.197 109.566 223 231 255
111.465 97.7008 109.4 255 248 240
106.514 102.361 109.759 217 227 255
144.186 181.858 116.402 192 212 255
108.261 104.01 112.22 255 131 0
144.293 168.504 112.04 210 223 255
104.863 37.4133 113.295 201 217 255
40.3894 120.462 112.354 220 229 255
149.529 98.6547 123.126 201 217 255
89.9743 135.462 110.676 240 240 255
112.844 104.33 112.482 255 229 207
97.6058 25.783 114.184 194 213 255
115.988 109.098 118.298 223 231 255
114.631 131.919 108.291 236 238 255
127.272 91.2691 116.522 215 226 255
5.62212 114.509 108.646 185 208 255
138.734 81.4707 108.906 231 235 255
93.9649 174.326 110.525 224 231 255
112.958 139.284 106.109 191 211 255
112.946 102.911 109.936 255 238 223
80.2298 140.572 99.9574 210 223 255
114.288 149.649 113.269 206 221 255
89.6547 149.314 104.271 191 211 255
93.9525 174.322 110.531 217 227 255
138.491 48.8293 112.455 195 214 255
67.185 216.715 118.811 193 213 255
116.78 113.035 113.31 219 229 255
108.757 94.825 105.418 255 223 198
21.256 106.6 110.62 193 213 255
107.588 146.841 117.987 255 222 195
127.903 105.878 97.3406 212 224 255
108.585 106.701 113.648 255 189 135
25.9555 70.4353 104.851 207 221 255
117.414 128.711 104.894 255 223 197
113.379 137.168 91.6328 255 188 133
80.5717 189.002 111.734 189 210 255
108.671 115.653 104.678 240 241 255
93.9678 174.327 110.523 226 233 255
87.3787 176.977 111.118 182 206 255
93.9379 174.316 110.537 190 210 255
131.981 144.845 114.159 187 208 255
188.009 2.03446 112.78 193 212 255
93.9377 174.315 110.537 255 254 250
111.832 106.342 117.914 249 246 255
116.666 125.568 111.705 215 226 255
195.619 93.9024 107.742 184 207 255
93.9071 174.305 110.549 232 236 255
119.636 139.112 108.1 220 229 255
87.3575 23.742 119.267 198 216 255
113.3 113.573 98.2028 255 227 204
19.45 217.741 108.308 195 214 255
60.4157 69.5128 104.32 197 215 255
109.428 113.219 111.917 255 250 244
93.9448 174.319 110.534 183 206 255
93.9686 174.328 110.523 202 218 255
123.635 54.6909 114.001 212 224 255
101.801 134.666 115.106 209 222 255
93.8799 174.332 110.588 255 240 226
108.249 174.624 114.82 228 234 255
41.5104 145.996 110.747 205 220 255
101.605 125.494 112.684 203 219 255
88.561 98.8199 110.143 180 204 255
185.56 26.4464 118.007 194 213 255
78.2199 53.8048 116.292 179 204 255
195.234 92.9157 116.401 186 208 255
99.3708 124.368 114.111 213 225 255
97.406 173.886 107.056 194 213 255
148.853 121.31 136.742 255 250 255
137.114 88.1929 113.837 193 213 255
141.343 176.512 116.469 205 220 255
135.804 74.3716 100.202 204 219 255
115.685 161.354 104.045 192 212 255
90.1604 128.441 112.758 216 227 255
65.7055 93.4477 113.679 225 232 255
93.9563 174.323 110.529 191 211 255
116.101 80.1111 119.751 228 233 255
141.21 93.7462 111.328 255 233 216
100.837 121.093 106.829 206 221 255
32.2378 121.685 148.305 188 210 255
112.408 125.272 109.708 255 142 29
134.899 118.027 109.004 255 231 212
113.512 119.063 104.884 255 48 0
123.301 151.222 112.501 184 207 255
96.7762 212.246 105.518 182 206 255
108.823 59.6492 114.879 214 225 255
48.3158 45.4615 139.693 199 216 255
93.1444 111.538 106.132 198 216 255
93.9489 174.32 110.532 202 218 255
131.357 63.2387 116.886 203 219 255
137.377 17.9777 110.842 184 207 255
121.474 66.1764 122.859 191 211 255
144.498 6.43698 130.663 189 210 255
130.882 75.0292 107.034 255 243 231
88.6144 120.278 137.738 198 215 255
68.4664 96.7744 114.033 203 219 255
98.9717 178.143 113.004 217 227 255
120.417 155.286 107.929 207 221 255
57.4102 65.819 110.743 194 213 255
143.136 30.7897 111.721 198 216 255
115.753 86.5096 132.892 210 223 255
12.9166 46.3391 146.734 223 231 255
165.238 18.1406 119.873 184 207 255
93.9303 174.279 110.498 200 217 255
92.3792 173.76 111.319 255 249 255
119.576 110.848 110.231 248 245 255
93.9522 174.322 110.531 233 237 255
88.7585 10.0465 81.1116 192 212 255
113.19 162.437 119.151 237 239 255
77.6467 167.981 104.968 222 230 255
116.787 127.335 105.88 255 249 255
200.936 24.5752 112.539 189 210 255
92.9334 173.052 111.702 194 213 255
121.278 79.9491 129.704 217 227 255
203.979 117.424 116.922 225 232 255
100.431 106.047 122.427 247 244 255
217.227 40.8286 108.146 220 229 255
176.354 79.1173 109.807 214 225 255
110.947 89.5662 109.594 219 228 255
66.4367 116.874 112.205 219 228 255
134.431 121.067 103.094 255 240 227
120.798 126.344 98.7637 182 206 255
113.696 113.777 100.25 255 238 224
113.07 124.072 100.475 215 226 255
130.635 81.6134 117.543 221 229 255
172.162 207.679 122.543 207 221 255
101.792 106.775 111.925 255 246 237
103.117 97.3767 110.027 211 224 255
106.004 38.2254 114.032 199 216 255
82.1152 217.751 128.092 196 214 255
53.55 73.3468 92.8707 196 215 255
108.174 109.897 116.426 197 215 255
110.946 95.9589 119.297 241 241 255
124.191 121.246 118.83 255 254 249
93.9594 174.324 110.528 249 245 255
130.369 118.531 108.071 201 217 255
130.091 112.76 114.031 202 218 255
95.2013 103.887 112.784 210 223 255
129.511 75.7284 133.509 228 234 255
93.9675 174.327 110.523 255 236 220
123.851 124.175 102.444 255 244 234
93.9667 174.327 110.524 208 221 255
108.644 52.9166 116.219 212 224 255
124.586 122.868 115.275 198 215 255
92.24 173.435 112.968 219 228 255
109.58 98.3711 106.502 221 229 255
31.8447 180.309 111.364 224 231 255
143.801 110.015 92.7321 191 211 255
93.949 174.32 110.533 193 212 255
121.978 125.168 94.8666 255 186 128
110.428 132.028 118.446 210 223 255
112.384 148.04 116.455 255 213 180
93.9497 174.321 110.532 200 217 255
109.17 91.7685 108.505 194 213 255
89.4807 167.616 110.769 254 248 255
63.3584 135.825 115.67 198 216 255
93.1799 119.703 125.894 210 223 255
112.832 86.8379 117.18 212 224 255
130.818 138.091 112.892 233 236 255
124.938 124.803 107.515 191 211 255
56.2691 118.111 110.243 198 216 255
113.925 111.619 115.717 231 235 255
93.9356 174.315 110.538 197 215 255
171.795 106.903 97.218 255 228 206
213.039 41.4492 11.2463 200 217 255
62.5139 29.2222 106.043 186 208 255
93.9128 174.307 110.546 199 216 255
93.9492 174.32 110.532 205 220 255
106.812 163.281 115.365 190 211 255
93.9862 174.308 110.513 216 226 255
208.146 127.606 112.621 184 207 255
93.9352 174.316 110.539 224 231 255
91.1746 159.919 112.127 255 236 221
124.797 115.802 111.251 255 216 184
106.841 194.815 103.88 184 207 255
139.873 151.333 107.891 209 222 255
93.9384 174.319 110.536 182 206 255
86.7064 144.037 115.75 202 218 255
98.8911 129.936 105.31 225 232 255
105.309 141.733 105.888 215 226 255
84.4491 191.347 101.19 188 210 255
108.327 108.749 116.713 213 225 255
89.054 108.231 113.923 251 247 255
186.718 167.643 119.311 197 215 255
109.513 100.353 99.382 229 234 255
132.543 122.479 115.046 255 203 162
77.2751 153.957 114.157 203 219 255
42.8417 77.8693 116.836 183 206 255
117.334 181.885 92.9631 202 218 255
103.296 165.809 109.206 255 254 250
93.9989 174.339 110.505 215 226 255
127.082 173.799 113.894 202 218 255
108.539 105.769 114.347 188 210 255
88.9268 119.133 116.018 202 218 255
140.162 54.4662 113.085 215 226 255
14.0494 97.7052 113.158 184 207 255
141.363 85.487 106.979 191 211 255
110.879 110.879 112.924 255 185 126
93.8944 171.79 111.362 209 222 255
33.8894 89.3032 109.224 203 219 255
158.235 155.747 119.068 211 224 255
106.928 119.235 104.157 231 235 255
90.1741 106.087 106.381 255 237 221
69.5965 77.5911 111.926 212 224 255
151.232 107.828 154.131 201 217 255
116.779 118.189 109.988 255 226 203
110.823 134.652 117.749 236 238 255
61.5942 58.8254 106.704 199 216 255
133.121 66.3535 116.976 190 211 255
89.9169 158.468 105.952 213 224 255
95.8295 158.836 107.454 208 222 255
93.9545 174.322 110.53 193 213 255
177.991 100.414 132.409 207 221 255
93.9716 174.321 110.527 192 212 255
89.825 16.4808 105.653 188 210 255
93.9448 174.319 110.534 214 225 255
128.988 125.22 115.211 233 237 255
135.534 44.0577 111.267 200 217 255
159.843 117.791 107.629 207 221 255
93.1947 126.123 94.4247 244 243 255
147.479 11.378 110.278 198 216 255
89.197 124.005 111.706 251 247 255
207.106 98.677 109.498 198 216 255
129.342 98.5469 112.498 231 235 255
146.898 163.034 115.196 184 207 255
140.505 84.6723 100.774 214 225 255
67.9227 123.285 115.873 198 216 255
35.9453 56.0876 129.66 194 213 255
99.6496 120.332 117.335 255 197 150
66.2864 169.283 110.26 189 210 255
60.1486 24.8852 103.821 183 206 255
175.498 131.88 116.674 216 226 255
93.9671 174.341 110.533 205 220 255
118.384 113.217 109.592 255 174 103
138.874 69.4635 123.7 245 243 255
154.827 126.103 113.723 191 211 255
102.612 89.8902 110.146 212 224 255
109.212 46.1903 112.938 247 244 255
200.298 124.07 114.308 192 212 255
118.297 106.914 116.315 255 114 0
162.41 1.31591 95.4765 199 216 255
99.998 116.262 103.938 221 229 255
93.9598 174.324 110.527 194 213 255
119.377 95.5302 138.395 252 247 255
93.9283 174.312 110.542 220 229 255
128.353 81.48 124.53 255 254 250
117.171 124.545 104.238 238 239 255
45.9068 88.532 143.47 194 213 255
92.1629 138.146 110.564 255 255 252
108.295 100.833 122.741 227 233 255
137.024 148.547 113.378 255 255 251
103.267 164.305 105.442 255 246 237
143.12 80.5075 109.529 193 213 255
127.891 80.8915 109.436 198 216 255
206.045 73.7804 116.257 194 213 255
18.949 181.497 111.958 195 214 255
108.354 105.758 112.674 255 240 226
120.625 118.187 111.876 255 199 154
93.9831 174.333 110.514 255 255 252
71.2293 60.8179 109.186 201 218 255
129.097 191.756 80.0257 184 207 255
111.327 95.6473 139.072 225 232 255
62.6467 133.191 112.699 200 217 255
108.477 99.6986 110.907 255 231 212
97.1715 209.865 107.325 201 218 255
87.2416 141.107 112.622 255 252 246
103.757 21.0831 122.451 189 210 255
105.031 102.507 102.617 226 232 255
66.2278 46.2323 98.2793 218 228 255
100.328 188.021 112.18 197 215 255
103.257 136.349 114.114 205 220 255
126.361 120.3 113.42 255 180 117
24.4949 47.6195 118.78 190 211 255
110.359 113.603 113.006 217 227 255
77.7809 135.486 110.608 228 233 255
137.068 75.3694 138.135 207 221 255
109.379 156.538 98.9091 208 221 255
96.7181 97.4619 111.738 255 215 184
94.3407 171.227 113.679 206 220 255
103.333 124.469 108.881 255 250 243
152.186 92.7343 104.427 187 209 255
123.776 122.841 114.982 223 231 255
6.74709 199.848 129.473 199 216 255
98.0768 182.996 112.163 225 232 255
60.299 91.8225 110.25 204 219 255
74.2349 137.005 101.053 198 215 255
86.1742 183.971 108.809 234 237 255
62.5753 118.487 108.564 191 211 255
125.788 116.566 119.201 255 243 232
217.163 19.6731 104.042 183 206 255
184.869 122.061 89.9215 203 219 255
93.9666 174.327 110.524 215 226 255
127.367 77.7205 108.492 201 217 255
172.142 35.0315 111.871 188 209 255
119.009 29.4596 110.61 189 210 255
121.887 122.858 97.8076 255 229 208
93.9507 174.321 110.532 255 246 237
75.1664 220.232 121.523 201 218 255
93.9078 174.305 110.549 192 212 255
131.76 138.29 112.847 190 211 255
31.3006 197.95 115.169 204 220 255
75.5317 68.3685 106.729 175 201 255
164.815 18.3752 100.588 255 252 248
107.786 104.188 107.875 221 229 255
93.9879 174.335 110.512 194 213 255
20.2868 172.701 113.738 210 223 255
118.359 119.106 120.917 249 246 255
75.4789 60.2917 107.194 204 219 255
93.8757 174.288 110.562 201 218 255
93.8557 174.315 110.577 228 234 255
81.5981 136.505 110.535 232 236 255
63.7287 115.334 112.028 194 213 255
157.087 93.2334 112.789 248 245 255
104.574 69.0383 112.907 198 215 255
74.6185 110.252 111.754 255 177 110
105.258 109.458 106.682 192 212 255
58.307 105.603 117.929 187 209 255
62.7567 107.954 114.697 255 251 245
89.5298 124.489 113.769 197 215 255
103.425 106.541 126.642 255 206 167
88.8122 158.417 109.343 214 225 255
70.7253 122.875 115.362 255 215 183
70.1942 13.1372 166.375 196 215 255
143.452 64.6071 157.336 229 234 255
16.4783 79.9829 109.313 196 214 255
21.6876 96.925 111.906 201 218 255
154.779 145.862 103.591 195 214 255
173.51 113.081 122.59 196 214 255
145.396 53.9302 111.814 212 224 255
137.722 84.9257 107.44 255 246 237
93.9523 174.322 110.531 213 224 255
129.897 99.8331 114.519 253 248 255
105.647 134.991 119.57 210 223 255
93.9466 174.32 110.533 212 224 255
142.096 109.033 36.9146 187 209 255
98.7715 175.283 109.409 228 234 255
107.798 168.152 111.486 228 234 255
93.9718 174.329 110.521 206 220 255
54.8802 211.057 114.652 191 211 255
92.2897 112.332 116.572 255 247 238
176.241 122.269 111.664 210 223 255
156.523 66.247 94.7614 255 233 214
93.9448 174.319 110.534 186 208 255
93.9501 174.321 110.532 204 220 255
141.47 95.5813 110.053 223 231 255
83.6592 91.3457 110.506 214 225 255
22.2874 195.227 109.663 180 204 255
130.078 123.114 118.663 255 156 64
93.6669 174.416 110.686 179 204 255
33.1994 135.226 149.752 211 224 255
60.8886 108.195 112.688 214 226 255
83.9131 145.478 107.877 229 234 255
179.845 0.330085 96.4085 196 214 255
118.442 173.983 115.255 199 216 255
88.7372 188.463 108.129 255 242 231
89.2192 131.387 113.621 205 220 255
50.8294 42.7401 110.362 176 202 255
119.368 83.1773 113.716 233 236 255
42.6857 94.0233 109.512 203 219 255
96.4501 126.933 102.693 219 228 255
112.499 115.945 105.538 255 231 212
119.754 139.614 111.496 248 245 255
59.4089 62.1457 96.5932 189 210 255
86.2333 140.521 109.612 191 212 255
93.9491 174.32 110.532 205 220 255
111.41 102.558 120.821 255 251 245
70.4981 47.4057 106.517 219 228 255
90.4212 177.439 113.477 226 232 255
7.81518 65.8555 106.374 184 207 255
68.2552 140.773 109.926 183 206 255
106.676 24.4593 89.1635 183 206 255
113.604 103.792 128.414 255 255 251
101.562 128.855 103.072 213 225 255
117.024 101.691 111.423 229 234 255
113.454 107.965 108.172 214 225 255
131.253 162.494 113.887 196 215 255
51.3645 109.432 106.785 208 222 255
126.375 127.259 107.306 220 229 255
203.928 57.341 111.623 203 219 255
94.527 174.339 110.418 193 213 255
62.3361 88.334 113.705 255 233 215
132.458 102.811 113.075 207 221 255
204.612 37.8018 113.359 236 238 255
9.43105 133.339 115.887 193 213 255
63.9247 120.397 99.8767 207 221 255
126.277 77.2753 106.835 255 250 255
93.9156 174.308 110.546 194 213 255
114.845 116.963 118.863 235 237 255
94.7938 174.782 110.16 194 213 255
101.9 144.732 109.393 246 244 255
130.263 106.294 115.639 243 242 255
93.9337 174.309 110.54 255 245 235
147.43 97.4204 114.316 233 237 255
125.748 185.746 110.189 181 205 255
93.9512 174.321 110.531 206 221 255
114.385 124.669 114.816 220 229 255
48.5596 66.333 109.162 188 209 255
94.0035 174.341 110.503 254 248 255
90.5652 200.07 110.351 195 213 255
122.676 119.448 109.76 255 255 252
125.361 84.3658 107.971 190 211 255
93.9871 174.335 110.512 255 205 165
103.255 106.892 125.34 210 223 255
120.281 84.5099 129.163 255 243 232
99.0325 138.54 112.653 201 217 255
100.011 163.14 113.543 203 219 255
93.9233 174.309 110.543 190 211 255
84.5464 201.011 107.465 194 213 255
116.501 66.4027 119.552 209 222 255
100.649 178.211 103.28 211 223 255
90.3867 135.422 112.216 187 209 255
119.96 173.602 111.565 255 249 255
60.275 122.001 114.061 205 220 255
93.9524 174.322 110.531 201 217 255
94.0026 174.349 110.499 219 228 255
43.5633 72.5287 120.429 207 221 255
152.293 116.338 112.421 202 218 255
44.2343 115.404 97.3523 205 220 255
42.0974 86.054 117.622 239 240 255
93.6146 173.98 110.641 255 253 248
114.316 117.669 111.356 255 235 219
52.6679 102.898 112.81 201 218 255
31.645 187.74 112.362 193 212 255
93.9396 174.317 110.537 255 249 242
111.842 135.235 98.6609 255 238 224
119.643 70.2818 115.051 222 230 255
121.653 60.8317 118.453 216 226 255
101.239 149.545 133.826 206 220 255
187.914 71.9108 108.173 212 224 255
105.13 171.349 106.153 255 251 255
119.768 109.873 106.796 241 241 255
139.905 39.6059 116.065 186 208 255
110.973 118.91 105.408 255 242 231
65.8123 49.3005 112.263 183 206 255
56.8281 108.526 109.772 255 255 252
93.9302 174.313 110.541 255 238 223
99.0463 152.724 115.343 217 227 255
99.9914 128.205 117.392 205 220 255
78.7215 185.115 100.153 255 255 252
68.7169 27.3776 108.399 203 219 255
128.434 94.8756 117.342 255 218 189
37.3358 109.489 173.161 214 225 255
93.6926 172.969 110.954 216 226 255
161.878 101.616 125.528 199 216 255
112.243 184.82 113.431 191 211 255
133.492 163.006 111.182 211 223 255
181.368 176.938 87.1397 230 235 255
93.9483 174.323 110.547 238 240 255
93.9575 174.323 110.528 255 252 247
81.4372 115.97 106.924 220 229 255
138.443 90.6803 123.974 252 247 255
49.3675 90.8357 103.118 210 223 255
128.947 75.6438 112.115 255 207 169
66.916 85.64 107.413 183 206 255
129.848 70.506 109.015 199 216 255
134.006 70.17 116.787 199 216 255
105.615 126.35 111.115 255 246 238
113.457 14.6041 106.696 194 213 255
100.783 124.776 104.049 255 243 233
110.078 131.608 110.258 206 220 255
63.3655 87.6057 110.598 232 236 255
77.5421 143.113 113.308 191 211 255
94.0281 174.417 110.792 208 222 255
75.0181 181.931 108.944 226 232 255
156.67 120.783 109.647 185 207 255
162.182 61.6723 117.052 199 216 255
81.8173 185.424 94.4259 224 231 255
121.05 118.723 108.377 231 236 255
133.102 87.3291 114.496 198 215 255
125.857 111.104 107.623 255 250 244
98.2024 125.573 115.881 255 217 186
115.716 67.2492 118.643 255 228 206
103.373 96.4122 116.002 232 236 255
77.1264 111.353 110.237 206 221 255
106.63 131.52 122.075 198 216 255
105.751 134.423 103.511 255 221 194
95.1763 81.7601 115.502 255 254 250
140.558 179.262 100.041 200 217 255
100.367 100.975 108.667 228 233 255
118.872 116.048 117.942 255 207 168
109.92 104.528 106.373 255 252 247
154.74 181.921 118.475 211 224 255
97.0741 114.34 114.683 255 230 210
31.984 168.344 116.22 194 213 255
167.849 140.128 131.933 201 218 255
149.292 94.0181 108.574 208 222 255
95.8997 97.4797 114.224 211 224 255
158.443 104.788 110.227 199 216 255
105.463 115.836 114.29 255 235 218
68.774 11.7689 101.494 186 208 255
99.213 66.2985 112.157 240 241 255
81.3736 139.39 110.076 228 234 255
121.596 120.74 110.985 255 250 243
147.231 100.258 107.216 205 220 255
115.796 95.6275 120.209 255 208 170
113.426 79.9935 119.441 225 232 255
93.9995 174.331 110.525 240 240 255
140.766 139.871 110.768 200 217 255
16.6499 210.051 120.361 204 219 255
126.067 52.7838 118.514 212 224 255
84.9992 44.4865 112.017 196 214 255
103.409 158.356 132.162 255 202 159
93.9036 174.292 110.544 200 217 255
55.0499 71.3617 102.934 199 216 255
151.525 102.232 118.021 206 221 255
106.33 124.14 112.375 255 236 219
118.394 0.38966 102.684 194 213 255
208.622 83.4878 115.228 201 217 255
114.289 133.784 107.158 231 236 255
65.2486 53.013 99.5046 207 221 255
93.6594 121.219 109.169 255 240 227
93.7897 173.935 110.503 255 236 220
104.676 66.294 125.509 255 216 184
220.729 42.7218 96.0271 188 209 255
174.034 122.883 105.912 211 224 255
158.444 60.9499 116.108 188 209 255
93.9657 174.327 110.524 203 219 255
119.918 112.3 95.3531 255 214 182
125.925 77.637 129.64 204 219 255
61.5712 159.74 110.428 202 218 255
161.377 113.955 112.015 197 215 255
208.442 31.7464 111.292 191 211 255
219.339 45.3997 105.809 200 217 255
178.629 206.965 134.597 182 206 255
94.0108 174.343 110.498 193 212 255
187.188 108.088 118.211 205 220 255
92.732 168.65 103.715 185 207 255
47.844 221.449 92.6466 208 222 255
102.655 99.4216 119.582 255 244 234
131.752 173.227 110.455 255 202 160
145.769 50.3631 117.007 209 222 255
4.2991 56.348 26.9839 198 215 255
93.9875 174.335 110.512 210 223 255
94.1514 189.603 113.574 250 246 255
93.834 174.331 110.594 210 223 255
110.568 164.646 106.499 199 216 255
160.889 50.0783 111.707 182 205 255
93.9917 174.334 110.528 206 221 255
88.7914 181.941 111.191 255 249 242
93.9476 174.32 110.533 255 251 255
108.334 129.983 101.562 255 141 26
93.9548 174.322 110.53 199 217 255
121.957 118.957 105.373 255 247 239
18.8929 191.456 114.091 238 239 255
127.214 68.169 122.072 209 222 255
87.2867 183.41 104.377 190 211 255
73.4915 164.866 116.719 209 222 255
103.002 122.306 117.12 232 236 255
49.5014 100.76 119.928 207 221 255
104.443 119.091 112.493 255 244 234
93.8469 174.298 110.573 255 247 238
122.159 123.378 120.422 214 226 255
93.9029 174.298 110.548 233 236 255
93.9121 174.404 110.666 204 220 255
46.5392 193.613 112.781 197 215 255
55.1407 88.0198 95.5676 201 217 255
97.8436 31.3271 125.909 187 209 255
62.5337 34.2101 113.976 203 219 255
9.07213 85.4165 120.735 196 214 255
119.364 133.774 127.819 255 238 224
145.133 105.687 112.547 224 231 255
206.584 106.261 109.842 195 213 255
104.314 109.369 112.832 231 235 255
145.835 140.176 107.763 194 213 255
28.2005 102.294 118.1 220 229 255
153.628 66.0172 126.137 221 229 255
87.9502 101.075 127.045 188 209 255
115.539 123.206 94.2845 255 235 219
93.9554 174.323 110.529 241 241 255
94.1959 173.891 109.451 255 211 175
83.2278 146.044 120.447 221 230 255
57.8055 139.456 109.642 255 230 210
162.331 148.218 110.783 200 217 255
42.9562 45.7735 147.506 195 214 255
108.788 123.364 98.2896 255 227 205
137.291 20.7337 108.352 206 221 255
133.168 207.264 65.6245 193 212 255
93.9542 174.275 110.493 216 226 255
158.198 145.749 113.515 194 213 255
128.596 107.264 134.026 199 216 255
78.0017 24.862 112.565 190 210 255
118.473 48.7139 119.494 255 253 248
110.674 116.026 116.171 255 237 222
105.834 158.477 112.598 219 228 255
101.587 131.199 101.006 255 92 0
93.9411 174.317 110.536 208 222 255
93.9497 174.321 110.532 255 185 126
26.954 68.8235 115.368 198 216 255
93.8904 174.297 110.551 187 209 255
103.189 107.452 100.909 231 236 255
107.238 97.2084 118.309 255 202 159
186.356 1.90623 140.474 199 216 255
147.608 195.491 133.087 227 233 255
147.166 126.141 109.823 216 226 255
158.12 198.12 103.143 200 217 255
75.692 106.44 112.405 196 215 255
105.11 101.478 109.19 255 232 212
161.489 100.515 113.81 255 231 212
111.831 92.1458 109.696 255 241 228
119.049 111.729 111.589 255 192 140
67.2376 211.362 112.257 193 213 255
99.5147 133.615 100.874 192 212 255
64.8608 178.657 112.401 206 221 255
108.085 27.8968 109.445 198 216 255
103.556 117.413 122.68 212 224 255
94.0021 174.34 110.503 199 216 255
131.975 118.276 116.136 203 218 255
109.637 115.939 112.789 240 241 255
99.1634 60.3974 113.433 200 217 255
65.9179 91.8358 116.101 222 230 255
127.234 93.5691 136.125 250 246 255
101.278 106.792 124.594 215 226 255
93.9695 174.328 110.522 233 237 255
105.556 122.361 103.507 228 234 255
101.982 75.6493 115.263 194 213 255
123.879 121.206 105.795 255 255 251
47.273 145.57 112.462 216 227 255
112.335 101.24 125.577 255 238 223
177.729 119.159 106.591 244 243 255
104.625 107.023 116.224 215 226 255
60.4826 120.716 110.25 255 231 211
67.3161 47.8321 122.932 203 219 255
187.209 171.387 116.859 178 203 255
93.9451 174.319 110.534 217 227 255
96.7254 139.995 108.138 219 228 255
98.9026 126.402 115.38 255 220 192
53.432 129.775 102.561 198 216 255
74.1694 18.6324 97.9395 203 219 255
112.077 84.4078 121.244 219 228 255
55.8776 81.5722 116.989 200 217 255
108.549 111.955 118.753 255 227 204
129.615 122.825 110.975 255 235 219
168.28 134.594 108.626 206 221 255
151.355 82.0119 121.065 234 237 255
168.996 152.448 112.081 189 210 255
120.951 113.654 98.0713 224 231 255
117.024 127.416 103.756 255 244 234
107.277 176.945 117.581 237 239 255
60.3898 121.487 101.167 195 214 255
54.6046 74.5367 115.773 255 249 255
146.866 88.7181 107.305 208 222 255
101.352 123.918 108.432 255 255 251
93.961 174.325 110.526 255 236 219
93.9676 174.323 110.507 215 226 255
84.243 169.336 116.862 206 220 255
98.0822 129.276 120.405 201 218 255
62.6226 95.8352 110.064 199 216 255
124.558 126.697 112.406 255 241 229
77.1109 116.746 111.348 196 214 255
115.791 111.595 100.857 255 243 232
93.9211 174.31 110.544 187 208 255
95.2285 158.604 105.721 224 231 255
129.083 54.0872 116.11 197 215 255
123.653 127.564 111.062 208 222 255
124.221 117.746 106.787 252 247 255
144.09 81.017 110.857 255 234 217
93.939 174.317 110.537 194 213 255
92.1713 174.411 112.259 187 209 255
92.0788 127.965 108.553 255 241 229
108.423 143.065 112.495 255 221 194
179.222 51.3164 114.498 235 237 255
108.511 118.411 115.376 210 223 255
100.283 132.898 110.943 253 248 255
107.94 129.314 116.97 255 226 202
112.484 106.613 107.796 255 253 248
94.0385 174.326 110.468 222 230 255
144.096 57.2261 115.78 193 213 255
154.571 111.88 106.634 189 210 255
100.963 156.891 122.106 193 212 255
122.867 117.894 97.1649 255 235 219
125.896 119.741 101.354 206 220 255
113.145 50.8872 114.536 190 210 255
159.216 143.895 112.793 197 215 255
152.496 71.8144 116.234 185 208 255
93.9516 174.321 110.531 220 229 255
164.226 176.705 146.015 198 216 255
93.9654 174.327 110.524 207 221 255
115.146 83.5696 106.534 221 230 255
127.788 118.514 103.514 255 226 203
103.917 129.414 108.035 255 234 216
173.042 133.928 113.45 180 204 255
72.3637 124.751 113.515 209 222 255
92.5706 143.288 112.466 241 241 255
106.431 116.398 106.129 255 180 117
137.345 70.2386 101.873 224 231 255
123.061 33.8253 114.208 192 212 255
85.4686 142.232 120.083 192 212 255
93.9519 174.321 110.531 195 214 255
120.002 213.499 117.191 207 221 255
148.716 88.2795 102.416 207 221 255
122.412 105.66 97.7194 255 189 135
83.3407 63.0268 111.962 198 216 255
98.78 104.573 111.759 228 233 255
103.717 101.886 117.1 255 207 169
116.4 96.946 115.847 255 102 0
110.819 100.179 107.325 231 235 255
93.9877 174.328 110.515 255 234 217
102.636 166.333 107.985 190 211 255
109.414 107.382 116.004 255 231 212
111.449 152.69 127.386 209 223 255
56.6263 203.199 107.611 198 215 255
127.777 117.787 112.763 197 215 255
90.713 205.59 113.1 249 246 255
93.957 174.323 110.528 255 219 190
94.1512 174.469 110.29 216 226 255
115.79 121.97 106.094 255 28 0
93.9257 174.31 110.484 255 250 255
65.1616 119.644 110.913 254 248 255
106.156 107.369 104.761 229 234 255
87.0747 118.404 115.678 191 211 255
114.904 100.022 93.1085 212 224 255
187.847 86.5616 117.929 210 223 255
177.276 109.781 113.219 204 219 255
48.718 106.177 107.523 202 218 255
96.4027 180.132 109.069 224 231 255
101.128 68.564 113.772 204 219 255
12.9756 158.574 112.638 199 216 255
93.9502 174.321 110.532 188 210 255
119.387 108.526 116.827 255 247 238
129.976 48.6947 115.636 201 218 255
158.22 47.3372 115.714 197 215 255
95.5251 41.7197 110.643 218 228 255
172.375 165.176 115.944 188 209 255
91.5277 112.515 127.966 236 238 255
89.912 105.769 116.358 220 229 255
79.033 111.369 112.797 209 223 255
102.8 108.877 105.278 233 236 255
131.637 103.953 110.854 201 218 255
90.8893 141.183 97.8042 188 209 255
164.519 200.886 132.491 202 218 255
161.436 149.113 112.282 255 243 232
103.834 103.479 117.606 232 236 255
117.908 76.2683 125.426 187 209 255
116.412 111.624 130.087 255 225 202
103.066 158.218 100.013 211 223 255
137.868 115.176 129.684 204 219 255
94.0049 174.342 110.502 202 218 255
90.1288 178.197 113.851 255 252 247
78.957 183.724 103.498 207 221 255
126.678 83.5653 113.912 255 202 159
193.469 65.8447 111.963 195 214 255
141.234 20.1903 116.758 214 225 255
64.2052 93.3696 108.506 220 229 255
93.9452 174.319 110.534 193 212 255
121.833 151.415 114.814 201 217 255
12.0033 64.0214 117.247 182 206 255
97.9519 55.839 115.342 224 231 255
72.1285 164.862 113.359 198 216 255
176.347 46.1498 113.017 185 208 255
125.951 73.7838 125.105 207 221 255
105.745 99.2857 114.066 255 228 206
56.8777 179.673 114.842 205 220 255
6.04585 185.214 109.528 176 202 255
102.837 127.668 115.609 255 245 235
57.3996 42.8014 105.571 213 224 255
210.654 23.4227 107.521 200 217 255
149.88 133.958 114.319 195 214 255
47.7336 34.1786 116.141 190 211 255
59.447 210.811 108.511 214 225 255
130.091 76.0544 103.476 237 239 255
57.12 95.5615 107.676 199 216 255
112.942 90.5895 117.871 255 233 215
110.302 194.416 98.4119 200 217 255
160.412 118.252 99.563 204 219 255
76.4761 59.408 109.082 200 217 255
91.8488 39.9799 112.048 203 219 255
121.113 124.901 110.092 207 221 255
72.3354 47.3305 107.238 182 206 255
60.4345 84.6771 127.484 255 250 255
151.118 98.3343 133.348 195 214 255
111.558 109.575 116.076 255 219 191
119.97 114.261 102.378 255 235 219
119.397 165.949 121.421 190 210 255
112.225 99.628 105.52 248 245 255
39.5792 173.433 111.873 177 202 255
142.156 85.0584 111.557 197 215 255
82.3309 124.862 113.308 255 143 31
114.194 85.572 120.47 205 220 255
136.321 90.4252 105.503 204 219 255
73.1944 192.039 113.001 210 223 255
93.8782 174.298 110.567 255 191 139
85.8251 168.435 119.693 255 243 231
118.123 116.538 109.771 255 250 255
151.094 119.438 105.184 208 222 255
120.429 112.633 102.239 230 235 255
130.503 69.0859 109.992 201 218 255
182.599 71.0617 116.482 211 223 255
123.665 102.305 120.177 222 230 255
173.338 46.2677 115.675 202 218 255
93.9132 174.245 110.528 240 241 255
56.436 121.891 120.378 219 228 255
125.704 164.466 121.996 203 219 255
102.892 168.43 114.017 208 222 255
90.7704 165.154 111.963 211 223 255
96.8116 95.9184 117.528 204 219 255
129.275 77.9789 110.178 203 219 255
113.241 116.156 116.754 221 230 255
97.2629 70.8781 80.6246 224 231 255
115.195 124.77 115.502 255 245 235
93.9094 174.243 110.534 221 229 255
125.039 183.857 133.996 180 204 255
93.9472 174.32 110.533 201 218 255
101.118 107.981 116.087 219 228 255
48.0353 97.4886 133.81 205 220 255
105.036 121.014 120.337 252 247 255
94.3667 173.736 110.894 194 213 255
164.522 70.7433 111.752 194 213 255
76.7432 177.982 116.205 191 211 255
116.029 67.8639 123.763 234 237 255
121.148 127.695 110.244 255 247 238
62.4679 147.633 108.534 212 224 255
118.527 156.155 108.771 193 213 255
24.0306 199.31 110.459 181 205 255
107.389 106.72 120.652 216 226 255
87.8025 101.108 120.835 229 234 255
81.3295 110.549 109.785 255 247 238
60.3266 50.8567 108.838 188 209 255
147.082 94.366 110.711 255 210 174
131.125 117.108 114.495 220 229 255
94.2175 174.843 110.398 250 246 255
129.965 76.7745 129.18 236 238 255
93.9783 174.331 110.519 185 207 255
108.689 107.306 118.753 239 240 255
123.597 158.659 113.852 187 209 255
141.928 83.5097 87.4466 223 230 255
120.877 185.688 116.284 192 212 255
102.932 160.86 114.331 195 214 255
92.3501 175.447 109.751 255 224 199
197.526 163.019 113.764 179 203 255
73.1599 31.8797 148.877 189 210 255
93.9585 174.326 110.536 255 244 233
93.4227 167.207 118.141 255 245 236
128.939 74.8044 110.672 255 230 210
136.368 69.0388 114.444 221 229 255
112.242 112.464 119.227 243 242 255
101.853 91.1167 130.574 237 239 255
94.0471 178.412 112.591 255 253 248
125.58 128.274 117.298 255 250 255
196.231 28.5347 117.159 187 209 255
163.979 125.791 110.437 232 236 255
101.92 102.505 110.699 255 240 226
127.652 85.1235 105.227 255 181 118
165.378 123.973 69.5656 191 211 255
93.9793 174.332 110.517 239 240 255
93.9535 174.322 110.53 229 234 255
113.084 106.854 129.734 221 230 255
87.055 35.4625 108.912 244 243 255
163.902 136.237 109.576 238 239 255
157.03 107.628 101.106 195 214 255
106.614 140.82 108.857 252 247 255
64.5684 46.7032 75.4848 255 240 228
17.7055 61.0794 116.901 189 210 255
154.755 132.919 109.338 251 246 255
65.6715 26.3285 108.236 184 207 255
41.4877 61.5576 112.206 205 220 255
93.9363 174.316 110.538 218 228 255
119.939 80.8794 127.823 242 242 255
67.696 74.6567 101.72 206 221 255
44.6412 88.6474 111.11 193 212 255
123.731 108.373 99.7832 216 227 255
131.573 112.652 137.477 205 220 255
111.975 169.421 120.406 212 224 255
114.704 110.44 115.842 255 182 120
42.8513 84.1177 115.866 187 209 255
185.211 76.5201 109.704 198 215 255
132.86 77.9553 133.423 255 246 236
93.6203 156.563 112.199 229 234 255
155.615 11.2634 112.257 187 209 255
114.617 25.1769 113.515 205 220 255
106.176 214.738 101.262 192 212 255
117.738 81.5659 124.206 189 210 255
185.035 24.3728 106.008 188 210 255
85.2575 135.48 110.314 237 239 255
195.756 14.2722 110.587 204 220 255
62.5175 95.0279 111.11 212 224 255
116.553 108.793 112.371 229 234 255
149.044 109.161 98.506 239 240 255
78.9851 119.651 108.781 216 227 255
100.088 40.3863 121.63 186 208 255
46.4085 137.584 118.175 220 229 255
106.532 104.094 115.57 242 241 255
168.968 82.9392 113.91 196 214 255
98.5688 132.308 122.859 205 220 255
89.2554 157.259 107.564 228 234 255
145.046 99.8905 120.151 239 240 255
120.008 113.653 131.548 192 212 255
135.89 86.4105 109.942 240 241 255
121.263 122.452 126.687 255 225 201
49.8527 92.1265 105.873 250 246 255
103.786 172.518 120.796 187 209 255
93.8511 174.186 110.606 206 220 255
82.5383 116.288 111.199 214 225 255
203.132 11.9834 127.853 178 203 255
104.873 107.167 113.758 225 232 255
182.919 124.936 129.982 212 224 255
93.4387 71.1981 112.134 213 225 255
94.0197 174.345 110.494 255 250 255
157.197 96.1846 116.408 187 209 255
102.245 164.328 108.946 191 211 255
94.5358 27.8089 103.748 219 228 255
48.5835 60.9787 104.061 190 210 255
106.311 115.747 124.953 235 238 255
58.1913 103.005 113.193 212 224 255
54.3584 125.967 126.975 255 245 236
143.421 91.0966 121.356 186 208 255
95.0326 191.43 109.688 205 220 255
115.289 100.282 117.244 255 221 194
55.3875 113.724 99.9722 192 212 255
77.7731 69.8112 113.93 199 216 255
57.7612 113.327 113.804 215 226 255
148.609 93.9846 113.425 219 228 255
124.845 170.806 111.507 204 219 255
90.7824 191.485 104.117 255 206 167
116.478 114.708 109.502 255 249 255
95.1985 137.263 110.619 202 218 255
152.727 101.146 120.708 204 219 255
105.919 126.8 104.838 221 229 255
108.282 96.4579 117.967 213 225 255
183.847 171.392 114.913 181 205 255
93.8908 100.905 97.5113 255 250 244
121.472 146.561 109.052 215 226 255
83.6475 175.044 112.646 200 217 255
94.0481 174.216 110.483 215 226 255
133.079 119.127 113.959 255 254 251
121.847 165.945 108.89 188 210 255
49.7232 133.452 65.8535 213 225 255
146.928 145.471 115.492 193 213 255
62.2655 133.462 105.49 214 225 255
116.487 118.101 110.649 223 230 255
136.676 121.891 113.894 197 215 255
74.4564 115.62 120.13 224 231 255
136.903 92.7365 81.366 228 234 255
119.991 136.737 103.3 250 246 255
121.674 124.164 101.415 208 222 255
93.9423 174.318 110.535 200 217 255
116.361 26.2076 113.198 201 218 255
143.858 85.8842 124.493 213 225 255
107.479 98.9689 117.838 255 198 151
93.9725 174.329 110.521 190 210 255
151.831 144.62 146.596 189 210 255
93.9494 174.321 110.532 240 241 255
114.026 120.651 108.23 255 253 248
120.126 128.669 112.084 225 232 255
148.22 139.923 115.41 215 226 255
46.1026 79.4112 115.252 195 214 255
103.515 102.523 104.726 255 233 215
111.326 103.34 115.447 185 207 255
36.2916 126.115 115.873 244 243 255
74.1087 12.6169 149.916 199 216 255
104.824 106.683 110.944 210 223 255
103.722 159.745 114.581 224 231 255
149.432 112.73 107.187 187 209 255
161.875 97.2 107.587 206 220 255
93.9516 174.321 110.531 245 243 255
199.999 72.6687 114.889 190 211 255
109.24 102.725 115.182 255 220 192
93.8882 174.307 110.558 203 219 255
63.2212 139.289 96.3252 205 220 255
50.7286 18.8011 81.5751 194 213 255
122.375 125.318 106.092 217 227 255
108.111 94.8143 112.499 203 219 255
182.084 4.94901 109.437 195 214 255
152.407 30.331 113.376 196 214 255
165.167 171.859 100.793 201 217 255
119.601 99.8152 110.85 227 233 255
118.474 118.901 114.844 255 212 178
67.8248 69.4156 111.014 199 216 255
93.5206 187.137 110.43 181 205 255
181.58 11.491 130.925 189 210 255
59.1687 110.891 113.175 221 229 255
103.249 132.244 113.554 255 203 161
115.473 120.425 104.82 220 229 255
83.4957 143.761 112.819 199 216 255
104.041 97.7187 113.637 255 226 202
124.838 123.543 114.366 209 222 255
117.917 120.754 117.236 198 216 255
51.7555 110.519 94.3687 212 224 255
92.4187 138.413 137.326 217 227 255
183.157 200.651 103.481 195 214 255
109.88 101.655 95.9466 255 249 255
85.7648 93.8462 110.212 204 219 255
30.2647 120.278 105.722 255 240 227
149.567 76.904 117.962 247 245 255
93.945 174.319 110.534 197 215 255
115.233 84.4567 120.252 248 245 255
67.7418 100.084 111.894 232 236 255
117.028 148.449 113.74 232 236 255
157.371 95.9625 115.772 197 215 255
68.1543 118.491 122.444 193 212 255
123.45 44.5022 119.082 186 208 255
168.855 131.591 100.935 207 221 255
76.8384 53.2465 106.743 193 212 255
128.556 79.6988 109.925 255 251 244
57.8395 99.3917 97.2689 197 215 255
93.962 174.325 110.526 196 214 255
94.4482 52.8042 111.503 212 224 255
166.478 109.181 115.285 197 215 255
116.117 90.5569 109.562 223 231 255
71.2608 70.6567 112.922 193 212 255
175.712 28.4621 109.096 191 211 255
104.009 83.5418 113.955 218 228 255
202.274 65.6466 109.765 197 215 255
113.648 90.4442 120.668 255 194 144
108.636 101.952 105.259 248 245 255
47.3034 41.5446 140.76 212 224 255
107.939 109.705 123.391 255 199 154
90.1562 149.173 122.467 255 204 164
68.3083 124.351 113.64 204 220 255
154.903 149.301 133.76 205 220 255
93.8992 174.322 110.531 214 225 255
64.112 134.831 107.891 217 227 255
102.219 104.049 107.096 226 232 255
65.207 76.2293 113.375 255 226 203
51.2184 128.942 92.2278 241 241 255
107.786 123.799 114.533 255 250 244
180.486 36.4761 113.333 204 219 255
93.9478 174.32 110.533 231 235 255
121.515 114.467 102.962 255 234 216
94.761 12.5771 98.5244 255 249 242
113.974 91.934 118.302 239 240 255
128.574 111.508 108.445 230 235 255
138.464 73.0496 124.826 255 253 249
93.9501 174.321 110.532 194 213 255
32.9962 78.3279 110.875 200 217 255
93.9575 174.324 110.528 255 243 232
120.042 81.609 122.38 255 250 243
67.0182 136.744 115.434 194 213 255
219.742 127.956 122.195 183 206 255
65.7111 132.758 99.3781 255 248 240
163.768 152.075 113.469 215 226 255
107.489 102.217 113.195 219 228 255
117.561 111.171 96.2454 234 237 255
107.123 113.9 109.045 205 220 255
128.346 81.2503 123.463 186 208 255
115.415 118.157 131.677 255 226 203
78.9184 59.3236 113.885 255 242 231
103.578 108.558 126.159 214 225 255
109.099 154.322 113.353 201 218 255
72.9023 79.0937 112.659 210 223 255
119.128 216.887 121.268 206 220 255
126.116 17.1399 108.606 180 204 255
129.042 28.4427 112.772 195 214 255
83.6298 121.079 115.001 255 238 224
152.651 99.059 87.4483 225 232 255
178.61 183.496 107.765 182 205 255
215.78 17.3498 116.444 183 206 255
164.265 105.347 91.3524 202 218 255
18.5178 199.941 113.416 188 210 255
113.275 158.999 121.027 255 252 247
94.0397 174.35 110.473 236 238 255
93.9504 174.321 110.532 227 233 255
115.701 133.069 106.436 209 222 255
93.9448 174.319 110.534 217 227 255
98.1452 137.057 108.421 246 244 255
93.7974 174.193 110.578 194 213 255
134.397 26.2936 111.69 208 222 255
110.481 42.5942 112.302 219 228 255
113.418 80.4493 122.66 255 254 251
130.952 79.6819 103.399 218 228 255
68.1944 123.771 111.086 212 224 255
81.3289 55.1153 112.371 208 222 255
120.182 110.322 111.45 214 226 255
70.2466 11.3843 89.8186 201 218 255
115.039 86.3549 125.176 207 221 255
148.126 40.6336 113.207 193 212 255
93.952 174.321 110.531 202 218 255
135.128 101.783 110.573 255 250 255
214.89 81.1098 107.344 185 207 255
168.747 89.8604 109.603 186 208 255
93.95 174.321 110.532 216 227 255
149.745 11.8504 96.0549 190 211 255
109.914 93.6843 107.004 255 129 0
54.7245 90.8683 112.414 187 208 255
102.392 99.2948 118.12 255 250 244
94.6302 131.814 115.632 217 227 255
95.7016 97.3833 119.254 255 251 245
13.9166 174.348 110.96 177 202 255
76.8462 158.162 109.364 219 228 255
93.9921 174.337 110.509 212 224 255
130.944 0.03608 105.942 203 218 255
108.096 154.092 111.873 232 236 255
95.2549 54.4856 111.57 209 222 255
69.6368 133.358 107.191 197 215 255
57.5387 35.8906 121.817 206 221 255
101.459 121.074 110.482 197 215 255
94.2642 174.649 110.385 225 232 255
144.638 86.3076 101.597 241 241 255
93.9662 174.327 110.524 255 251 245
125.74 133.475 108.236 207 221 255
119.977 80.432 121.863 255 219 190
94.471 84.0757 114.29 213 225 255
147.999 30.1061 112.373 193 213 255
108.389 121.404 110.933 210 223 255
93.9519 174.321 110.531 193 213 255
113.74 100.188 116.436 218 228 255
46.3775 65.2138 108.849 208 222 255
92.8346 173.497 111.685 222 230 255
113.018 99.2318 116.564 255 234 217
216.671 80.3882 113.491 207 221 255
108.921 93.3414 114.128 216 227 255
167.576 146.607 111.088 217 227 255
66.9669 110.922 136.022 220 229 255
146.803 36.3664 114.383 193 212 255
96.1751 152.521 115.451 230 235 255
140.761 115.008 113.336 195 214 255
168.053 101.148 121.188 255 239 226
93.999 174.339 110.505 195 214 255
112.444 79.4115 111.953 202 218 255
94.9322 182.535 100.207 210 223 255
17.3052 75.2104 114.331 185 207 255
94.5118 173.809 109.98 193 213 255
220.255 47.2789 101.644 194 213 255
103.308 82.6375 131.54 255 207 169
69.4518 128.131 123.109 200 217 255
210.464 57.0784 110.875 192 212 255
113.317 186.568 103.771 204 219 255
91.3755 169.182 113.159 195 214 255
55.5533 91.6098 114.471 255 211 176
94.018 174.345 110.493 208 222 255
106.181 100.831 111.939 255 249 242
93.7727 174.308 110.592 244 243 255
119.631 175.596 113.211 194 213 255
145.846 158.735 115.012 196 214 255
95.2489 143.119 111.591 202 218 255
203.158 37.658 113.84 198 215 255
201.406 32.5323 107.286 200 217 255
114.25 90.1756 123.472 192 212 255
136.216 123.336 110.254 194 213 255
132.456 118.465 113.878 183 206 255
93.9925 174.337 110.509 205 220 255
186.852 63.0155 112.208 193 212 255
106.355 10.3927 119.277 186 208 255
107.969 108.493 110.284 255 235 218
28.8195 142.375 108.978 197 215 255
222.028 106.896 106.95 219 228 255
107.668 108.814 96.7446 255 247 239
177.209 2.72992 104.75 199 216 255
143.533 94.9694 110.464 210 223 255
121.094 111.937 102.453 255 249 241
93.9783 174.347 110.502 212 224 255
120.844 118.141 103.731 211 223 255
122.822 121.371 107.193 200 217 255
97.5792 116.535 106.051 204 219 255
152.031 131.186 119.315 203 219 255
108.705 21.1976 106.7 192 212 255
98.8024 145.045 115.08 211 223 255
93.8962 174.306 110.546 188 209 255
69.0223 18.0328 118.802 184 207 255
93.9549 174.323 110.523 255 249 242
93.975 174.333 110.519 255 251 245
95.2163 165.856 119.271 255 229 209
122.828 86.459 117.322 191 211 255
113.87 99.349 117.087 255 227 204
45.5572 93.106 97.9393 196 214 255
114.173 132.263 108.338 241 241 255
95.269 221.852 103.891 194 213 255
127.396 118.913 110.328 255 243 232
79.9359 136.214 110.622 204 219 255
171.065 128.617 123.049 188 209 255
93.9565 174.323 110.529 246 244 255
84.7874 34.7706 97.856 204 219 255
94.011 174.341 110.501 255 249 242
116.8 122.067 108.368 255 159 70
85.2135 69.3887 120.721 190 211 255
93.8099 174.323 110.528 255 193 143
105.816 129.13 106.246 255 199 154
143.757 10.3429 114.211 181 205 255
60.6732 131.262 88.217 200 217 255
125.487 84.5584 116.205 196 214 255
125.244 119.725 112.428 255 217 187
167.608 25.5778 116.2 192 212 255
137.278 5.11482 104.157 204 219 255
137.386 7.92249 123.086 193 212 255
146.17 84.358 102.843 255 206 167
76.6523 178.984 112.326 237 239 255
109.147 119.251 108.453 209 222 255
134.954 145.583 112.076 197 215 255
121.476 138.857 117.849 229 234 255
138.855 79.7353 128.026 188 210 255
150.745 18.0742 113.17 215 226 255
50.6461 61.2131 101.775 255 252 247
95.1376 137.406 117.203 201 217 255
114.063 132.132 123.204 255 249 242
128.879 124.598 109.949 255 201 158
137.495 120.452 115.006 194 213 255
101.395 115.647 123.244 230 235 255
110.747 126.138 106.716 250 246 255
71.1525 138.868 106.147 200 217 255
63.5283 115.157 112.192 221 230 255
166.139 77.2997 116.007 193 212 255
80.9504 168.791 126.571 255 220 192
156.697 74.7883 123.344 193 212 255
170.701 145.091 110.896 205 220 255
147.229 103.106 106.602 197 215 255
37.0516 182.901 111.716 220 229 255
125.48 85.7921 112.926 252 247 255
100.607 122.177 114.059 211 223 255
66.6403 122.197 95.163 218 228 255
113.104 134.831 101.344 212 224 255
98.5489 112.8 119.03 255 228 206
135.588 98.9562 112.371 213 225 255
106.417 159.908 108.52 201 217 255
32.927 56.5924 55.0704 244 242 255
177.811 130.011 105.389 255 250 255
83.2797 51.7646 114.146 198 216 255
67.7243 121.319 121.106 255 203 161
76.4504 41.7217 105.027 182 206 255
109.28 109.521 112.356 197 215 255
91.0838 178.317 110.473 213 225 255
52.4448 80.4966 135.027 189 210 255
56.6788 90.7703 109.722 255 252 248
94.0604 174.353 110.478 205 220 255
61.6529 128.978 126.458 204 220 255
107.103 31.8194 113.987 198 216 255
123.745 14.7646 112.801 195 214 255
119.685 30.5743 111.726 205 220 255
33.0357 128.717 107.032 203 219 255
123.538 116.513 126.658 210 223 255
