ply
format ascii 1.0
element vertex 1341
property float x
property float y
property float z
property uchar red
property uchar green
property uchar blue
end_header
98.5126 67.5751 117.31 232 236 255
53.723 96.0572 110.328 225 232 255
113.66 128.596 110.65 255 250 255
171.526 113.034 119.723 211 223 255
115.121 112.316 113.612 255 250 243
119.404 29.4111 113.769 203 219 255
109.964 99.4557 113.996 224 231 255
74.7213 143.304 107.997 198 216 255
101.567 138.519 115.901 214 225 255
195.109 178.795 112.258 190 211 255
121.156 18.1824 111.509 191 211 255
169.04 133.279 113.841 209 223 255
103.792 174.701 112.065 212 224 255
145.719 13.9137 112.366 184 207 255
50.7382 124.316 111.786 182 205 255
169.533 103.047 107.91 255 242 229
109.088 116.623 105.944 221 229 255
152.816 169.66 111.972 190 211 255
36.1982 118.759 109.998 192 212 255
144.563 74.1296 127.874 205 220 255
87.7149 112.456 118.905 255 255 251
112.998 120.331 103.84 199 216 255
168.12 131.683 112.531 213 224 255
94.6074 174.524 111.413 234 237 255
114.769 133.998 115.931 196 214 255
115.167 159.439 110.781 250 246 255
55.9581 94.1627 113.255 221 230 255
97.6465 114.893 107.376 255 218 189
135.824 98.8699 105.456 199 216 255
157.849 108.792 110.48 214 225 255
32.62 113.831 119.472 193 212 255
119.001 117.48 117.568 255 233 215
101.866 77.1708 112.122 255 252 248
204.675 72.9767 114.731 189 210 255
108.736 74.8492 112.019 255 212 178
175.701 30.4313 110.757 187 208 255
116.438 107.858 111.857 255 225 202
134.257 110.38 117.238 219 228 255
75.7675 96.0843 113.31 200 217 255
20.6027 174.302 115.275 192 212 255
78.2744 85.8668 108.863 255 236 221
84.0014 141.169 110.351 251 246 255
61.959 80.9727 115.716 217 227 255
75.534 211.58 118.49 199 216 255
43.7576 103.779 113.296 187 209 255
18.0047 171.638 114.033 187 209 255
42.463 131.427 110.902 182 205 255
190.464 132.355 110.518 189 210 255
57.5797 145.857 110.981 247 244 255
95.9778 165.648 111.281 255 229 207
107.246 117.974 105.363 196 214 255
111.168 114.608 110.771 224 231 255
146.514 186.598 115.698 211 223 255
151.593 7.45987 101.814 180 204 255
78.952 154.127 124.812 191 211 255
70.9037 122.786 113.985 254 248 255
119.755 108.652 107.022 204 220 255
89.8271 99.8564 112.168 230 234 255
114.579 42.3743 116.492 198 215 255
175.053 127.788 111.014 201 217 255
56.3011 73.9839 112.755 196 214 255
120.981 91.284 113.938 222 230 255
105.798 15.8262 107.106 181 205 255
142.383 27.3848 112.16 189 210 255
91.6453 135.116 113.848 255 227 205
121.162 74.4296 115.118 222 230 255
52.8483 90.4263 112.236 214 225 255
108.277 110.646 115.926 202 218 255
55.1157 64.7533 109.654 190 210 255
92.3664 175.379 109.896 235 238 255
192.13 176.644 114.046 204 219 255
134.674 82.9099 106.935 255 220 193
125.707 180.457 112.16 198 216 255
153.069 117.555 109.173 219 228 255
124.287 160.872 114.124 255 240 227
21.0743 128.158 116.868 208 222 255
55.2841 111.252 116.866 196 214 255
115.57 151.077 114.928 235 238 255
59.3649 119.083 115.873 208 222 255
126.463 45.8786 117.391 195 214 255
116.163 152.257 109.915 254 248 255
158.012 92.0773 107.354 201 217 255
99.7016 109.359 106.249 253 247 255
115.125 115.962 110.53 255 250 244
143.245 111.68 106.735 209 222 255
127.857 148.72 114.163 216 227 255
166.82 108.623 109.355 255 228 206
127.122 115.883 109.366 255 231 211
105.452 46.3752 111.574 194 213 255
111.238 93.3366 116.467 255 200 156
178.211 100.11 114.404 199 216 255
177.903 134.725 113.382 187 208 255
111.658 115.347 117.553 255 204 164
91.932 98.7488 104.747 235 237 255
150.442 66.1872 114.262 205 220 255
173.535 13.3514 112.423 197 215 255
159.432 126.067 113.198 255 253 249
154.736 3.09995 111.714 186 208 255
103.095 167.347 114.876 247 244 255
88.1669 152.913 114.839 224 231 255
158.861 86.8538 111.198 205 220 255
181.272 43.929 110.327 190 211 255
34.244 120.424 110.221 193 212 255
97.5728 88.8003 103.677 201 217 255
94.5774 174.511 111.394 197 215 255
141.331 101.719 105.468 241 241 255
51.4278 105.966 112.26 205 220 255
94.6873 174.523 111.453 191 211 255
146.074 86.1216 111.829 203 219 255
130.233 122.945 111.123 251 247 255
112.534 135.112 107.126 255 202 160
97.0654 171.113 110.642 192 212 255
94.3866 174.583 111.351 255 252 247
146.189 107.442 116.628 201 218 255
63.3155 103.759 108.021 200 217 255
86.9706 30.8821 111.564 197 215 255
64.3889 136.749 125.349 206 220 255
106.276 25.2708 106.182 190 211 255
94.9091 174.553 111.165 247 245 255
110.213 138.167 115.367 255 195 146
112.293 118.478 107.371 210 223 255
94.6203 174.521 111.414 211 223 255
94.5633 174.507 111.377 190 211 255
107.892 75.5171 115.21 227 233 255
96.3959 36.2165 115.444 182 205 255
103.222 72.4669 111.906 255 254 250
125.424 116.686 110.443 255 187 131
157.86 171.327 103.188 201 217 255
116.102 100.702 112.999 205 220 255
89.6568 161.807 118.184 255 231 211
113.479 48.7836 115.667 186 208 255
146.78 121.662 113.713 255 247 239
161.801 48.4817 108.939 199 216 255
162.961 106.637 109.087 211 223 255
71.6203 142.947 109.222 210 223 255
130.498 40.6147 116.231 203 219 255
72.6943 73.3331 122.831 196 214 255
202.964 156.231 116.184 196 214 255
117.711 103.778 113.908 255 243 232
56.2618 103.778 110.995 201 217 255
121.441 49.3317 116.007 211 224 255
160.23 84.1851 113.737 209 222 255
164.656 101.794 108.575 214 225 255
148.016 71.1361 115.102 185 207 255
117.707 133.898 111.639 255 216 184
48.2595 84.2985 107.708 188 210 255
174.441 166.935 107.359 193 212 255
89.5785 76.4547 106.982 205 220 255
117.934 101.565 110.599 204 219 255
150.008 116.246 106.264 255 215 183
115.405 123.811 120.04 235 238 255
94.6773 174.521 111.445 219 228 255
149.779 21.135 107.335 183 206 255
82.4741 97.8361 114.368 255 253 248
126.763 103.763 113.556 255 238 224
49.8685 101.386 111.53 255 252 247
108.632 9.27825 94.1354 184 207 255
75.1104 62.6675 115.978 197 215 255
146.307 114.768 111.636 200 217 255
125.494 75.6397 114.037 216 226 255
155.893 114.891 110.26 203 219 255
88.0147 102.09 113.796 211 224 255
155.059 38.7699 110.361 193 213 255
223.681 95.6973 109.673 185 207 255
108.827 114.498 111.727 255 216 184
89.3814 107.725 110.211 236 238 255
133.796 99.9177 119.154 207 221 255
128.224 90.3362 116.619 255 213 179
184.97 48.4482 115.892 192 212 255
126.279 86.4978 111.494 212 224 255
113.856 115.863 108.957 232 236 255
108.57 106.637 108.001 255 217 186
147.947 54.9729 107.763 218 228 255
105.635 110.076 114.205 255 225 201
4.46245 125.027 115.876 184 207 255
156.317 102.209 111.394 203 218 255
115.552 83.2173 111.273 255 245 235
91.5501 109.114 113.604 212 224 255
119.852 116.23 113.92 196 214 255
57.7037 128.135 108.669 255 248 240
192.57 187.847 115.037 186 208 255
57.0773 108.567 120.788 201 217 255
116.817 103.103 115.262 255 249 242
126.865 148.741 117.023 237 239 255
94.5957 174.509 111.406 209 222 255
129.054 79.3031 110.642 210 223 255
136.211 87.6696 120.15 203 219 255
28.6826 82.3142 112.105 180 205 255
62.1824 152.93 110.705 217 227 255
149.514 112.645 106.486 239 240 255
118.974 109.266 114.596 255 239 224
114.494 111.369 113.782 255 162 78
162.418 139.152 115.606 206 220 255
108.119 131.227 110.558 255 227 205
166.962 91.619 110.215 188 210 255
76.9717 126.101 117.796 211 223 255
158.616 175.34 123.483 217 227 255
216.335 86.1452 114.13 195 214 255
14.9525 102.916 111.256 185 208 255
128.248 94.3123 112.039 255 202 160
58.8748 125.368 117.072 206 220 255
159.761 142.47 110.894 255 249 243
101.013 108.688 109.548 228 234 255
156.987 145.29 111.836 200 217 255
52.6632 21.5371 108.353 190 211 255
101.004 84.0693 111.829 204 219 255
81.612 50.5107 109.887 203 219 255
114.317 107.88 116.574 255 251 245
139.416 181.747 111.373 189 210 255
156.866 123.393 117.253 214 225 255
117.36 100.161 116.224 255 237 222
42.4943 108.185 107.12 199 216 255
25.0625 186.481 113.366 194 213 255
94.9676 173.871 111.424 255 249 255
16.0376 61.8523 114.035 193 212 255
121.579 165.425 111.211 255 228 206
97.4575 60.262 110.135 199 216 255
171.741 141.048 109.854 198 215 255
117.38 125.4 114.655 255 253 249
154.486 31.8362 114.368 207 221 255
51.6972 177.329 112.256 184 207 255
116.484 101.45 108.014 255 238 224
203.362 103.403 107.782 177 202 255
117.652 125.48 112.15 201 217 255
147.318 79.756 111.314 242 242 255
130.05 174.751 113.419 195 214 255
212.976 160.579 112.056 183 206 255
116.464 108.524 112.215 211 224 255
165.609 153.555 111.702 216 226 255
26.4915 152.78 110.89 182 205 255
94.7724 109.689 109.251 242 242 255
68.8574 131.032 116.372 210 223 255
116.78 123.156 109.008 255 241 229
100.816 117.138 107.351 255 242 231
160.672 188.538 111.237 183 206 255
94.1285 173.591 110.496 218 228 255
114.237 110.114 113.016 254 248 255
86.3429 150.837 114.126 239 240 255
96.8205 146.094 110.781 214 226 255
92.1961 85.1184 107.693 219 228 255
97.3461 167.451 122.984 222 230 255
130.146 114.227 119.359 255 196 148
69.2232 70.3813 109.21 188 209 255
118.438 113.64 111.168 255 238 224
94.5983 174.525 111.399 255 213 181
156.644 89.1133 116.536 203 218 255
64.1965 127.562 117.859 187 209 255
94.6072 174.52 111.407 223 231 255
97.7332 157.764 109.431 224 231 255
91.8041 109.927 119.013 215 226 255
109.513 103.827 114.206 210 223 255
84.4621 100.12 113.485 212 224 255
208.875 166.314 112.928 177 202 255
139.109 57.1115 103.216 221 229 255
121.009 116.191 115.853 255 246 236
88.7463 102.678 112.969 209 223 255
120.25 134.361 111.047 209 223 255
170.544 144.99 111.848 255 253 249
149.926 65.8541 110.211 205 220 255
143.368 110.854 105.404 213 225 255
122.751 113.748 115.245 255 246 237
105.896 104.412 108.624 255 223 198
180.173 20.7939 117.17 190 210 255
102.718 171.354 112.773 255 250 244
103.193 95.1499 114.548 255 244 234
161.154 44.6964 116.49 193 212 255
23.4114 65.1648 113.491 209 222 255
202.625 53.5979 115.305 187 209 255
140.665 78.8102 117.521 195 214 255
108.483 122.357 105.045 228 233 255
90.5488 194.876 112.116 187 209 255
94.4913 174.465 111.358 237 239 255
112.321 104.634 114.242 255 225 201
95.0252 186.638 110.936 255 251 246
169.556 126.478 116.457 201 217 255
108.342 82.6517 112.36 240 241 255
120.238 168.433 110.214 202 218 255
54.3801 60.0384 110.075 208 222 255
68.2992 163.741 112.067 252 247 255
107.422 161.178 114.384 243 242 255
18.5655 57.3255 110.576 175 201 255
207.382 102.218 113.918 204 219 255
121.526 99.1411 110.289 255 187 131
147.63 6.79128 110.416 188 210 255
26.8453 112.794 112.768 225 232 255
145.504 69.5365 115.951 198 216 255
131.157 187.851 110.245 203 219 255
112.789 108.827 104.431 231 235 255
112.661 80.7419 113.334 255 227 205
186.53 107.432 112.237 201 217 255
145.181 94.8297 109.2 255 196 148
140.875 26.0074 114.85 204 219 255
71.2191 49.7657 114.759 205 220 255
109.613 151.665 110.27 255 220 192
69.3456 126.153 118.921 202 218 255
16.3523 85.7293 115.894 187 209 255
175.657 63.6575 113.733 212 224 255
144.194 178.102 112.871 215 226 255
170.621 118.236 111.509 223 231 255
108.657 168.876 110.779 247 244 255
94.6005 174.519 111.402 214 225 255
181.05 67.7431 111.786 212 224 255
20.0299 174.267 115.273 187 209 255
94.3931 174.527 111.255 209 222 255
136.568 71.6869 113.163 211 224 255
102.094 38.8429 113.808 198 216 255
140.92 128.52 108.212 225 232 255
61.1369 132.387 109.712 189 210 255
184.656 103.26 115.407 187 209 255
99.1828 173.642 111.259 194 213 255
89.6058 218.347 107.229 181 205 255
110.4 144.692 111.538 225 232 255
94.5692 174.059 112.036 255 244 234
122.219 94.8658 105.13 246 244 255
133.916 79.37 110.717 231 235 255
37.961 123.955 114.243 198 215 255
174.445 126.798 112.055 198 215 255
116.046 93.9537 106.27 255 252 246
73.268 122.959 115.661 200 217 255
191.592 42.653 114.84 190 211 255
106.096 108.886 113.844 218 228 255
54.0824 62.7433 108.139 190 211 255
120.38 123.848 116.907 255 239 225
118.122 121.855 113.274 255 225 201
91.3023 160.962 111.184 201 217 255
107.513 45.0522 108.005 199 216 255
110.606 123.055 117.001 255 211 175
113.379 115.733 116.197 211 224 255
213.449 155.746 116.444 199 216 255
166.95 61.3768 113.337 255 249 242
113.489 153.88 114.003 248 245 255
117.087 115.127 112.666 255 243 232
35.4356 83.7045 109.407 209 222 255
176.342 170.87 114.092 187 209 255
67.2323 69.9988 108.827 255 252 246
5.46579 94.3896 109.057 199 216 255
168.099 153.872 120.41 201 217 255
96.1741 129.299 116.347 212 224 255
88.7681 150.336 112.631 185 207 255
41.5926 85.4496 110.728 255 253 248
78.6856 117.881 116.733 243 242 255
110.179 126.628 108.695 224 231 255
99.7994 6.22051 116.302 186 208 255
3.3422 137.624 113.419 192 212 255
76.8134 189.114 110.567 200 217 255
74.3167 98.1794 116.201 255 253 248
134.368 192.483 106.699 188 209 255
63.8567 121.618 111.775 211 223 255
209.729 146.349 115.522 185 207 255
94.9695 174.311 111.358 200 217 255
3.1037 126.802 110.879 186 208 255
79.417 140.994 111.395 255 251 246
114.527 143.897 111.526 255 249 255
69.1866 142.551 116.44 206 221 255
111.155 123.049 118.961 255 231 212
113.482 156.825 111.692 234 237 255
112.27 148.075 115.019 255 230 210
114.404 121.43 110.902 255 233 215
168.704 14.8396 113.078 180 204 255
94.646 174.523 111.432 229 234 255
48.322 211.37 111.085 194 213 255
69.0242 106.546 115.661 210 223 255
136.816 72.9546 115.224 213 224 255
78.7733 181.598 112.409 192 212 255
52.3457 207.032 111.817 182 205 255
180.478 115.297 103.669 255 237 221
134.67 182.345 113.893 191 211 255
113.999 118.647 109.738 255 251 245
115.145 111.74 113.231 214 225 255
60.0804 128.386 114.39 191 211 255
172.444 66.173 114.324 186 208 255
118.52 114.719 106.944 214 225 255
85.6006 171.035 110.676 255 251 245
103.136 153.596 112.057 224 231 255
135.312 107.343 107.428 205 220 255
151.596 176.974 111.392 189 210 255
73.5575 77.0084 119.226 192 212 255
173.404 134.785 108.228 184 207 255
109.178 117.697 108.123 243 242 255
143.737 129.959 108.076 202 218 255
163.527 103.081 105.619 214 226 255
109.719 13.7293 101.566 181 205 255
110.74 6.68909 112.833 180 204 255
108.489 153.637 111.126 217 227 255
44.5004 197.664 113.9 205 220 255
113.891 67.9033 112.475 222 230 255
113.062 133.041 110.298 241 241 255
46.7856 146.291 108.344 198 216 255
118.791 104.962 115.937 218 228 255
28.4347 116.296 114.325 218 228 255
17.1724 105.993 113.172 209 222 255
113.589 108.167 115.557 255 244 234
183.062 117.275 116.431 207 221 255
168.14 186.319 111.339 196 214 255
104.188 116.714 104.045 221 230 255
118.07 127.932 112.891 255 230 210
154.185 92.6518 115.964 205 220 255
81.8515 70.8551 109.461 217 227 255
63.6765 133.639 115.772 255 248 241
105.254 114.431 121.075 186 208 255
116.828 103.034 109.308 212 224 255
84.9031 150.103 112.19 194 213 255
119.362 140.386 111.441 209 222 255
109.451 95.4873 116.568 211 223 255
112.351 128.408 117.433 255 249 241
115.278 152.729 112.413 198 215 255
89.2081 168.016 121.236 210 223 255
135.174 80.5067 111.1 255 250 255
124.216 195.788 107.417 182 205 255
71.541 93.5821 107.969 255 253 249
183.454 124.719 113.65 191 211 255
50.0932 95.2349 103.292 255 243 233
141.834 152.974 109.805 228 234 255
215.757 135.741 111.364 199 217 255
102.879 212.944 103.591 200 217 255
167.793 105.509 117.754 210 223 255
97.9631 104.609 109.536 237 239 255
144.634 96.6826 113.024 235 238 255
115.63 113.505 104.762 246 244 255
152.462 159.508 113.156 211 224 255
114.924 112.36 113.054 255 232 212
151.39 63.9674 111.53 214 225 255
75.3806 138.197 109.504 228 233 255
105.728 102.366 115.22 255 225 202
163.676 173.157 131.754 207 221 255
138.864 115.303 104.175 219 228 255
108.503 105.186 113.01 203 218 255
86.3488 178.623 114.279 189 210 255
35.7409 153.516 115.526 189 210 255
131.139 75.675 118.93 210 223 255
134.917 0.29568 88.5096 185 207 255
84.6246 111.837 113.444 255 250 244
22.141 133.943 112.082 203 219 255
155.891 184.893 113.593 177 202 255
119.864 60.5121 117.715 214 225 255
71.7194 113.722 117.075 227 233 255
59.4248 49.6353 112.557 204 220 255
192.833 72.465 114.517 179 204 255
79.9479 139.233 115.434 214 225 255
140.113 12.087 112.878 187 209 255
59.502 215.538 103.967 189 210 255
85.4925 79.6718 115.418 218 228 255
88.4075 58.7275 109.949 255 253 249
112.584 115.293 111.646 255 238 223
83.4697 142.801 110.303 255 253 248
103.728 119.453 104.525 204 219 255
111.879 115.836 109.035 255 247 239
100.805 167.717 108.823 255 243 232
136.079 79.7424 119.961 245 243 255
161.945 38.1928 115.228 194 213 255
85.8891 112.444 119.158 203 218 255
101.469 111.36 114.283 252 247 255
123.052 118.088 110.579 255 195 147
96.3176 172.805 110.446 210 223 255
93.9775 160.597 119.619 227 233 255
115.554 110.403 118.297 229 234 255
101.03 89.4882 108.44 197 215 255
164.688 98.5047 110.611 217 227 255
87.7985 146.529 111.012 255 221 194
64.8596 180.198 113.079 188 210 255
107.059 163.886 110.877 204 219 255
110.252 108.653 108.297 255 231 212
160.365 92.1477 112.727 198 215 255
41.2647 162.156 108.862 179 204 255
100.128 118.843 113.577 255 240 227
57.6102 113.219 108.762 204 219 255
118.099 118.054 117.737 207 221 255
139.72 92.0999 108.786 193 212 255
34.4147 169.043 112.227 196 214 255
94.6209 174.523 111.417 231 235 255
94.5199 174.515 111.375 196 215 255
114.215 117.094 105.583 231 235 255
88.8226 139.355 109.879 255 185 127
113.993 178.115 110.415 205 220 255
126.463 80.9898 107.101 255 222 195
94.5687 174.512 111.37 194 213 255
86.7762 94.4116 110.13 214 225 255
162.001 2.20494 111.837 177 202 255
199.169 86.3845 110.143 188 209 255
83.8947 104.258 105.532 215 226 255
106.212 108.284 116.542 255 214 182
90.2956 94.0803 112.014 255 234 217
127.073 119.138 116.535 255 240 226
104.982 87.4295 107.776 232 236 255
40.3986 208.21 113.681 187 209 255
118.106 135.853 112.164 255 234 216
163.067 104.86 109.425 199 216 255
187.782 180.776 114.738 185 207 255
104.721 78.2253 114.988 199 216 255
182.22 143.58 113.045 221 229 255
154.092 152.254 116.953 192 212 255
111.58 115.06 107.618 255 233 215
114.446 120.653 112.422 255 216 185
133.106 102.567 118.877 255 240 227
85.9687 113.378 110.224 255 239 225
133.854 97.1044 109.933 255 251 245
195.733 101.644 112.59 209 222 255
73.6168 46.837 111.289 182 206 255
75.9319 107.766 104.42 255 193 141
114.54 100.114 117.301 255 252 246
203.607 148.828 115.307 184 207 255
138.155 137.356 106.643 208 222 255
168.282 119.606 113.537 211 224 255
119.534 2.9778 111.3 186 208 255
146.059 106.469 114.531 255 248 239
87.3526 108.02 121.815 255 255 252
111.808 49.632 115.958 207 221 255
160.472 26.85 108.939 186 208 255
110.668 168.963 111.569 208 221 255
112.85 156.429 111.067 206 221 255
16.5268 181.075 114.286 184 207 255
79.3482 26.5291 131.876 184 207 255
90.5281 106.709 110.265 255 241 229
114.178 131.505 114.681 255 211 176
89.3519 146.874 112.354 203 218 255
114.815 81.0551 108.589 255 153 57
35.668 140.911 113.824 198 216 255
155.995 192.641 111.724 185 207 255
182.121 30.4286 113.562 185 207 255
107.699 204.124 100.706 191 211 255
126.511 111.167 117.97 255 166 87
94.5122 151.339 116.855 255 253 249
127.192 184.128 111.315 181 205 255
71.333 158.042 111.786 206 221 255
103.951 72.4423 108.941 213 224 255
162.934 145.062 107.276 204 219 255
120.865 86.7444 115.656 242 242 255
134.02 68.6693 118.45 215 226 255
156.734 171.235 108.634 202 218 255
78.6926 31.2381 112.585 194 213 255
80.2941 78.4943 113.039 203 218 255
94.5404 95.5848 114.316 255 212 178
69.2344 52.5516 106.739 183 206 255
95.1749 84.2255 108.415 234 237 255
41.0914 123.303 108.595 199 216 255
110.93 78.4109 115.294 255 213 181
114.813 212.332 117.136 205 220 255
128.037 184.794 104.468 198 216 255
114.131 118.017 110.619 255 239 224
94.5379 174.564 111.601 255 216 185
119.015 109.227 109.186 255 227 205
140.304 164.664 109.311 188 209 255
111.797 108.817 106.213 255 185 125
178.505 104.352 113.318 223 231 255
192.145 179.926 112.275 178 203 255
60.5882 82.2671 110.902 184 207 255
77.3872 131.529 111.492 212 224 255
114.419 115.503 105.994 255 126 0
110.125 156.642 114.12 255 251 255
27.3864 41.6722 112.697 189 210 255
23.8905 104.003 109.536 192 212 255
84.2614 142.233 114.78 255 244 234
77.9876 209.967 111.858 185 208 255
186.635 126.184 110.398 196 214 255
167.197 107.938 116.469 191 211 255
115.393 112.333 112.95 242 242 255
185.623 77.3467 114.149 183 206 255
134.716 61.0887 108.207 233 236 255
72.7222 122.327 104.401 255 243 232
158.986 158.059 110.096 255 247 238
160.754 159.184 110.243 199 216 255
113.299 117.353 107.046 242 241 255
95.9034 103.736 111.62 242 242 255
56.2088 117.559 113.163 215 226 255
91.6674 95.1142 111.177 218 228 255
98.9738 80.2564 113.425 221 230 255
80.2591 146.991 110.962 255 207 169
134.229 133.365 109.018 255 244 234
171.438 114.169 108.608 201 217 255
80.8606 183.377 112.3 186 208 255
53.1315 24.6938 110.27 185 207 255
115.12 110.469 116.637 255 233 215
115.091 132.298 122.716 211 224 255
87.9719 129.848 109.017 209 222 255
118.75 115.127 117.385 255 212 178
55.8223 124.001 112.773 255 230 210
79.6037 112.414 107.732 200 217 255
117.871 186.687 106.302 188 209 255
180.438 54.7041 110.954 224 231 255
52.2229 110.327 112.382 202 218 255
99.6191 35.2613 109.75 198 216 255
54.4975 164.702 114.533 227 233 255
172.765 199.612 113.28 176 202 255
105.022 20.4782 108.512 192 212 255
146.382 179.585 112.627 206 221 255
83.1871 177.035 114.887 208 222 255
118.797 132.717 117.578 255 240 228
86.3573 115.963 117.306 228 234 255
124.085 169.081 109.55 215 226 255
149.407 116.73 119.318 247 244 255
115.107 118.263 112.952 201 218 255
113.009 147.003 110.917 242 242 255
118.261 152.432 112.28 211 224 255
155.339 96.3311 118.528 225 232 255
30.5295 40.631 116.095 191 211 255
139.923 130.667 119.024 236 238 255
43.5599 145.457 110.253 195 214 255
220.371 126.345 114.368 190 211 255
94.5858 171.534 111.323 228 233 255
127.568 188.699 108.854 185 207 255
80.0539 52.2576 110.051 201 218 255
51.0634 147.816 114.756 203 219 255
110.163 88.3175 113.652 255 241 229
20.6902 153.34 115.198 206 221 255
94.6228 174.522 111.418 205 220 255
128.899 158.854 111.871 210 223 255
6.48618 139.24 109.359 188 210 255
76.244 22.1259 112.175 190 210 255
99.5168 89.6167 111.744 219 229 255
136.258 71.8424 124.29 226 232 255
99.0746 87.7965 112.071 255 249 241
71.3823 141.395 107.944 210 223 255
210.144 48.7332 110.715 185 207 255
52.002 109.365 112.169 217 227 255
127.712 144.548 109.679 255 239 226
19.795 94.2114 108.227 192 212 255
87.9271 141.231 113.684 220 229 255
116.167 114.038 113.788 255 232 213
63.2211 49.4562 110.711 200 217 255
127.141 136.056 107.117 224 231 255
112.956 105.064 116.835 216 226 255
98.256 176.269 116.183 231 236 255
126.97 133.624 110.893 219 228 255
154.16 40.8515 116.624 206 221 255
114.032 101.655 114.947 255 251 245
158.478 92.8526 117.836 196 214 255
112.109 98.7762 117.783 237 238 255
117.67 74.2364 114.172 214 226 255
90.2392 48.3627 111.382 255 212 177
106.33 121.637 104.718 210 223 255
59.6869 119.158 115.25 190 211 255
94.5979 174.518 111.404 202 218 255
53.1601 41.2408 113.636 204 219 255
128.029 146.061 108.475 202 218 255
59.6895 46.0092 110.96 210 223 255
111.269 88.2093 112.715 255 226 203
94.2918 119.336 111.33 209 223 255
120.454 128.448 108.43 223 230 255
94.2001 174.51 110.822 206 221 255
101.218 72.4651 112.847 194 213 255
146.73 146.797 110.903 208 222 255
63.1379 184.599 108.023 198 216 255
125.135 113.564 107.723 207 221 255
111.686 119.747 108.872 255 229 208
151.738 89.6565 107.669 220 229 255
142.259 81.4018 116.95 204 219 255
91.7695 133.743 108.465 246 244 255
14.0865 79.1732 110.926 192 212 255
180.5 130.297 119.833 215 226 255
115.019 112.262 113.003 255 245 236
64.64 130.558 108.938 212 224 255
188.525 85.8461 111.845 189 210 255
204.051 126.356 113.563 191 211 255
182.61 24.0341 111.817 204 220 255
111.382 153.662 115.05 216 226 255
178.073 105.219 109.489 189 210 255
132.722 198.597 111.485 194 213 255
220.164 110.427 115.185 190 210 255
137.994 151.537 114.972 187 209 255
93.0732 177.555 111.062 196 214 255
105.967 111.49 108.367 255 240 226
122.165 105.343 114.448 241 241 255
200.862 33.7987 111.295 181 205 255
168.837 106.331 115.759 209 222 255
165.784 153.925 111.821 192 212 255
60.9397 109.287 117.16 255 229 209
101.57 117.59 113.08 231 235 255
108.989 189.168 119.393 205 220 255
149.844 93.1593 111.563 255 249 242
94.8793 174.262 111.728 234 237 255
140.126 165.455 109.338 194 213 255
40.0504 138.288 114.501 195 214 255
94.394 162.229 111.71 249 246 255
171.825 99.5925 111.212 195 214 255
71.7867 148.202 113.453 193 213 255
97.8537 90.7985 109.447 255 249 255
193.14 53.7324 111.181 185 207 255
40.6676 81.8639 118.262 214 225 255
170.318 48.5395 112.968 189 210 255
138.434 148.538 107.736 212 224 255
116.565 125.07 112.999 223 231 255
153.438 75.2468 108.946 196 214 255
154.233 102.482 118.797 203 219 255
55.7568 129.121 110.668 196 214 255
195.455 109.944 113.445 199 216 255
129.393 76.3894 115.594 215 226 255
94.8624 92.3489 118.25 227 233 255
61.0178 38.007 105.95 191 211 255
94.7249 174.468 111.607 212 224 255
144.491 189.045 100.15 202 218 255
23.3698 124.627 114.971 255 209 172
41.5044 105.149 108.052 198 216 255
107.626 151.702 116.921 229 234 255
100.547 108.922 107.971 255 245 235
98.2562 76.6706 115.324 220 229 255
61.7356 116.857 110.07 240 240 255
104.909 100.847 109.717 255 244 233
172.858 119.395 111.463 203 218 255
116.817 39.0942 117.627 189 210 255
66.4928 98.5239 117.219 196 214 255
106.854 78.7222 109.042 224 231 255
165.678 109.368 104.624 255 228 207
133.599 16.7207 111.821 192 212 255
138.422 197.436 113.085 192 212 255
127.506 35.4223 110.008 195 214 255
40.1495 45.8802 115.522 196 214 255
83.8643 92.1525 117.885 203 219 255
140.887 169.177 111.624 255 252 247
94.5933 174.536 111.417 193 212 255
87.1725 155.122 111.754 238 239 255
95.706 91.1156 110.277 216 226 255
194.561 27.5498 111.858 190 211 255
114.883 184.251 110.774 187 209 255
88.7372 55.3078 115.952 221 229 255
124.991 113.361 113.983 243 242 255
112.422 116.614 111.564 223 230 255
111.619 115.509 107.996 255 245 235
78.0973 139.148 110.973 255 235 218
48.1782 189.763 113.341 187 209 255
140.707 121.625 105.916 208 222 255
135.411 158.391 110.591 195 214 255
138.86 17.4302 111.687 196 214 255
121.491 117.929 110.281 255 224 200
97.4495 123.823 105.58 224 231 255
142.104 73.3643 114.136 210 223 255
111.606 94.1756 114.984 214 225 255
66.8328 111.615 111.879 198 216 255
138.145 98.7212 110.597 211 223 255
79.7466 118.019 106.115 214 226 255
104.443 169.454 112.299 255 234 217
106.461 108.9 109.412 255 254 250
103.415 139.457 114.408 255 234 217
173.229 105.215 116.616 211 224 255
117.2 118.672 116.477 255 236 220
55.1586 96.3143 116.464 202 218 255
122.536 33.3712 112.047 192 212 255
72.8154 135.053 112.343 255 238 223
5.79831 89.5184 115.535 203 218 255
133.877 102.887 104.92 207 221 255
213.919 83.9615 112.145 191 211 255
114 114.416 110.615 246 244 255
101.659 139.253 113.434 255 229 209
79.0143 143.076 115.929 255 226 202
133.305 101.614 107.899 230 235 255
63.3733 80.6267 112.386 255 223 197
59.6447 95.1155 116.436 197 215 255
33.0254 130.643 113.18 204 219 255
94.6281 174.523 111.421 193 212 255
145.642 116.466 108.499 255 255 252
94.5353 174.504 111.397 214 225 255
148.471 81.024 111.925 237 239 255
38.043 90.9129 112.808 196 214 255
125.981 113.01 111.025 255 235 219
163.107 122.589 114.603 255 255 251
97.1898 101.662 104.421 255 251 245
130.724 121.913 114.612 232 236 255
91.7118 85.8143 111.427 255 250 255
118.323 105.754 116.646 255 218 189
131.865 78.3841 113.126 255 216 185
123.247 126.621 115.751 225 232 255
45.9403 125.305 112.917 203 219 255
108.095 197.735 112.021 209 222 255
137.788 161.635 116.211 255 252 246
113.245 46.1119 111.097 204 219 255
112.308 113.691 113.426 255 241 229
64.5766 143.951 117.327 208 222 255
55.441 112.517 113.371 255 241 228
91.6187 129.933 113.298 220 229 255
142.696 193.502 113.857 215 226 255
67.1956 131.32 108.583 187 209 255
87.7065 95.2574 108.433 255 219 190
48.0587 105.742 111.161 205 220 255
94.6187 174.523 111.416 208 222 255
57.8973 124.708 111.687 197 215 255
88.9483 131.063 117.685 224 231 255
110.258 105.199 117.901 250 246 255
190.459 30.9144 115.008 195 214 255
121.467 192.005 110.673 200 217 255
81.9762 37.5095 112.323 227 233 255
84.2731 108.812 116.858 188 209 255
147.431 111.34 110.297 234 237 255
94.5206 174.647 111.585 216 227 255
62.2641 65.7406 111.616 194 213 255
98.4242 92.375 108.677 255 243 231
148.644 114.542 114.4 255 232 213
89.4178 123.189 108.657 255 233 215
86.9196 34.5613 112.184 201 217 255
44.806 134.647 110.822 193 213 255
72.7385 54.4137 111.001 210 223 255
182.61 88.1827 111.156 209 223 255
113.108 116.174 110.703 255 241 229
72.2708 31.2394 89.1397 177 203 255
65.8962 65.1255 116.998 201 217 255
107.825 105.68 111.397 235 237 255
115.827 118.506 116.222 255 231 211
116.376 111.176 112.962 255 243 231
171.606 49.626 112.316 202 218 255
114.071 150.34 114.286 255 250 243
131.532 120.662 113.894 255 218 188
183.665 66.8617 110.935 180 205 255
89.7574 45.1367 111.94 205 220 255
87.4502 110.838 103.846 254 248 255
113.255 117.736 106.98 255 233 215
97.4494 150.701 111.917 222 230 255
92.5155 145.213 110.775 239 240 255
108.638 93.7931 115.175 255 81 0
128.589 103.869 112.763 255 251 255
189.275 43.9344 111.686 192 212 255
4.21284 145.423 108.583 184 207 255
51.2208 84.9852 110.637 229 234 255
138.608 134.386 117.13 255 253 249
128.761 135.351 113.029 255 248 241
95.1383 174.409 111.716 191 211 255
156.715 166.825 101.412 198 216 255
95.8273 145.519 113.184 255 250 243
94.5578 174.487 111.318 197 215 255
112.008 125.173 112.365 223 230 255
217.136 81.6769 115.216 201 218 255
49.7268 76.5183 106.401 234 237 255
182.58 112.377 114.291 192 212 255
94.6218 174.523 111.417 200 217 255
114.143 116.863 119.327 255 244 233
101.164 130.21 107.484 237 239 255
159.133 43.8152 110.316 196 215 255
146.382 118.954 118.652 229 234 255
156.382 164.385 108.365 190 211 255
94.8666 173.934 111.253 200 217 255
134.309 73.0369 115.947 192 212 255
109.239 82.9182 111.135 215 226 255
94.6324 174.524 111.424 206 220 255
63.9312 73.6929 113.808 230 235 255
120.186 122.998 111.012 255 170 95
120.281 26.2403 112.376 210 223 255
88.9697 63.9731 116.819 239 240 255
178.429 135.092 124.738 207 221 255
109.75 118.323 107.974 201 217 255
169.966 147.144 113.163 243 242 255
57.6849 95.011 109.741 193 212 255
33.7734 145.61 113.013 187 209 255
111.744 162.437 112.114 192 212 255
94.5988 174.519 111.405 255 252 247
84.9986 166.951 124.855 210 223 255
136.828 100.173 114.652 211 223 255
79.963 73.3886 113.992 196 214 255
87.4006 118.657 118.869 222 230 255
109.879 87.7478 112.986 255 244 233
121.199 137.654 116.341 198 215 255
121.496 176.561 111.034 222 230 255
91.1051 78.4188 107.257 217 227 255
203.601 163.296 114.862 174 201 255
138.592 151.649 115.483 221 230 255
87.7692 76.99 105.509 194 213 255
71.9118 59.9223 112.71 212 224 255
151.276 92.6015 115.229 209 222 255
94.7505 174.477 111.487 255 247 239
137.508 81.8752 126.416 214 225 255
127.891 75.4747 114.672 199 216 255
94.63 174.523 111.421 205 220 255
184.221 20.2992 112.886 182 206 255
91.2712 107.131 107.011 239 240 255
74.7395 15.6992 115.042 189 210 255
158.147 93.8854 107.575 213 225 255
169.165 128.188 108.987 255 218 189
104.559 151.087 106.911 215 226 255
126.007 127.744 110.421 221 229 255
81.1126 130.984 111.956 204 219 255
204.506 152.493 112.311 214 226 255
140.972 170.686 110.534 196 214 255
138.134 75.0296 115.816 208 222 255
110.821 113.479 114.012 207 221 255
115.91 132.619 111.08 195 214 255
111.904 108.796 114.282 255 252 246
104.153 100.46 104.322 193 213 255
61.9886 103.613 108.871 220 229 255
46.9691 131.733 112.126 212 224 255
121.229 40.8757 117.204 194 213 255
170.667 22.0314 112.862 194 213 255
149.099 45.3118 111.453 205 220 255
138.776 110.571 114.293 247 244 255
85.8845 34.5444 102.309 203 219 255
162.401 108.16 114.825 255 251 246
116.964 53.589 115.815 192 212 255
94.892 174.27 111.497 202 218 255
150.025 101.41 118.11 222 230 255
184.374 55.0546 115.988 190 210 255
51.2486 87.6902 111.768 200 217 255
77.4527 153.636 113.106 196 214 255
136.526 73.9981 113.944 225 232 255
175.861 148.393 108.116 203 219 255
125.526 89.9899 112.773 218 227 255
160.934 31.6343 111.792 201 217 255
105.906 116.272 120.613 255 129 0
113.372 111.15 113.79 255 218 189
96.6732 80.0963 111.503 199 216 255
53.4835 100.429 105.116 194 213 255
184.393 69.4633 111.98 207 221 255
61.9468 129.087 106.933 209 222 255
222.955 124.782 109.052 179 204 255
94.4858 174.389 111.378 255 210 175
52.4461 109.601 112.443 217 227 255
109.677 90.4735 111.258 255 253 248
96.7081 159.014 106.394 188 209 255
79.0398 74.3533 117.901 190 210 255
112.848 145.509 110.883 219 228 255
125.377 127.89 112.908 251 247 255
90.2301 25.301 113.111 183 206 255
110.473 119.476 107.752 255 241 229
141.818 78.9304 114.302 221 230 255
160.651 37.3156 114.584 192 212 255
112.719 98.6613 108.925 255 179 114
119.131 103.621 112.5 228 233 255
97.6832 117.384 110.835 242 242 255
114.178 171.058 110.495 202 218 255
143.176 64.0781 119.256 195 213 255
55.7784 92.3901 112.537 198 216 255
50.5421 57.8288 108.09 200 217 255
126.94 87.3744 116.059 200 217 255
85.6739 105.668 110.803 255 219 190
141.118 76.7393 110.53 255 228 206
94.7689 174.479 111.49 194 213 255
94.5707 174.511 111.395 205 220 255
95.2813 164.652 108.722 197 215 255
85.3888 180.36 110.672 193 213 255
96.4486 73.311 116.967 255 230 210
95.4081 37.455 109.172 195 214 255
94.5645 174.507 111.375 225 232 255
94.9329 174.879 111.355 203 218 255
124.973 75.966 111.994 205 220 255
57.8721 120.696 111.374 192 212 255
58.901 175.551 110.665 196 214 255
184.031 98.0857 113.815 207 221 255
131.516 153.717 107.737 213 225 255
153.607 81.3387 113.628 208 222 255
146.725 71.8398 115.756 202 218 255
75.4537 111.976 109.104 223 231 255
94.6323 174.521 111.422 255 239 226
70.6921 115.775 115.915 218 227 255
160.114 103.856 116.208 229 234 255
106.105 149.747 112.239 255 218 189
132.629 95.8952 117.465 237 239 255
89.9695 162.269 111.593 195 214 255
21.3421 56.0181 116.001 184 207 255
94.8843 174.308 111.302 216 227 255
111.133 195.404 111.443 200 217 255
170.243 98.2622 110.888 187 209 255
70.7368 42.8828 112.806 203 219 255
98.5765 115.569 116.255 255 234 217
136.341 108.82 111.048 255 228 206
159.189 58.0811 115.508 203 219 255
167.946 145.928 110.593 218 227 255
72.6257 116.446 105.114 220 229 255
33.1603 38.1388 107.878 172 199 255
113.862 113.14 116.524 255 177 109
75.1823 130.003 115.614 222 230 255
115.162 111.378 114.521 223 231 255
159.838 91.4739 109.996 252 247 255
208.485 159.85 111.395 189 210 255
3.02469 129.166 114.72 194 213 255
94.6259 174.523 111.419 255 254 251
136.155 137.376 111.764 239 240 255
168.464 131.438 116.153 201 217 255
44.3505 212.966 107.452 185 208 255
108.231 102.429 123.442 255 148 45
95.548 41.5684 111.21 193 212 255
64.8368 78.1111 112.925 204 219 255
45.4059 92.7903 116.647 213 225 255
114.947 139.215 118.369 253 248 255
74.9039 106.048 107.282 203 219 255
100.826 149.674 116.42 255 230 210
101.946 24.9131 101.881 187 209 255
158.503 110.351 117.001 255 250 243
145.14 134.811 109.28 239 240 255
64.5155 133.888 107.256 199 217 255
67.002 133.001 110.528 192 212 255
180.945 66.1035 110.637 191 211 255
120.847 123.068 111.499 255 228 206
106.906 111.944 121.667 227 233 255
196.439 176.897 111.848 198 215 255
57.1486 25.2537 110.533 201 218 255
119.629 149.514 113.154 240 240 255
111.835 114.887 107.043 255 250 244
115.711 213.462 127.006 193 212 255
152.819 86.401 97.7401 208 222 255
49.8424 97.1841 113.839 196 214 255
101.339 30.4519 109.758 211 224 255
74.6032 102.693 116.065 255 244 233
81.1953 35.7923 110.742 186 208 255
213.133 158.479 115.234 183 206 255
172.947 142.769 114.624 207 221 255
200.297 133.925 114.182 193 213 255
125.72 21.5324 53.1594 191 211 255
110.77 108.194 104.78 210 223 255
55.8825 101.988 109.813 183 206 255
112.414 107.601 102.917 230 234 255
58.6928 98.5839 112.683 201 217 255
162.343 111.346 111.329 255 251 245
109.812 107.102 105.206 211 224 255
100.112 171.316 106.431 246 244 255
127.709 125.19 111.963 228 233 255
95.8254 115.431 118.704 255 240 227
204.407 141.55 115.655 197 215 255
157.96 125.895 109.324 207 221 255
206.23 107.695 112.16 200 217 255
206.9 92.1984 111.268 204 219 255
104.972 182.443 110.615 194 213 255
112.676 110.738 107.946 255 211 177
33.1284 87.6704 112.848 193 213 255
171.927 128.141 106.1 201 218 255
116.926 148.281 110.451 205 220 255
149.103 83.1959 117.23 203 218 255
112.274 114.063 100.847 255 252 247
96.8419 174.271 111.679 224 231 255
149.013 125.144 116.098 255 241 228
167.842 19.2394 111.93 198 216 255
98.3438 86.8044 110.955 255 254 250
89.729 143.627 107.903 233 237 255
171.501 122.932 108.506 195 214 255
31.2458 137.63 110.949 189 210 255
157.162 108.403 115.534 204 219 255
172.652 136.803 111.462 216 227 255
133.522 114.224 118.678 255 225 201
47.5473 109.664 100.57 200 217 255
111.682 49.6743 110.292 255 228 206
120.122 144.729 116.092 255 246 236
158.442 132.23 110.357 242 241 255
114.838 102.672 105.567 255 248 241
141.527 77.9524 115.491 202 218 255
78.3327 36.3225 107.218 231 235 255
168.57 77.3341 109.496 245 243 255
47.3768 96.1162 116.441 197 215 255
103.899 88.6226 115.285 255 193 143
125.093 96.0819 108.572 255 207 168
94.5974 174.517 111.401 199 216 255
141.696 49.5204 113.038 204 220 255
207.042 132.368 112.656 182 205 255
138.997 178.85 111.637 186 208 255
134.538 154.276 117.648 213 224 255
30.5364 122.438 113.41 186 208 255
215.064 90.3723 109.189 196 214 255
114.927 111.446 113.88 255 153 56
128.577 165.788 109.063 190 211 255
184.473 173.683 116.421 188 209 255
72.937 108.32 110.28 255 243 232
89.8628 156.761 113.823 255 239 225
94.8242 174.527 111.316 195 214 255
224.162 92.8181 115.616 189 210 255
68.0101 74.9715 105.634 202 218 255
118.472 109.26 117.085 255 253 249
121.429 87.9006 119.186 255 248 240
111.32 144.343 108.625 255 211 176
112.476 132.519 111.959 215 226 255
80.6212 95.5346 115.454 250 246 255
92.0764 148.945 116.101 255 238 223
68.0598 85.1123 114.89 246 244 255
84.3647 53.136 116.549 200 217 255
175.452 115 121.473 227 233 255
112.526 115.278 121.355 255 198 152
198.43 149.274 117.958 189 210 255
140.872 123.037 111.843 255 252 246
125.443 20.7657 111.705 201 217 255
66.397 139.866 108.454 205 220 255
120.472 137.05 113.911 216 226 255
150.478 156.424 116.149 203 219 255
156.453 69.2 114.237 225 232 255
105.558 114.896 106.713 255 243 232
168.407 107.174 112.029 194 213 255
120.294 144.009 113.6 210 223 255
149.851 82.0536 110.619 217 227 255
100.867 212.636 103.007 182 205 255
126.609 113.16 111.705 204 219 255
41.7759 41.7655 108.665 201 218 255
110.887 145.783 111.607 255 222 195
93.0657 86.936 116.562 255 253 249
161.26 94.6157 108.955 245 243 255
79.0124 142.507 116.398 204 219 255
126.46 133.423 110.594 255 210 175
85.1396 115.845 116.994 205 220 255
105.396 98.6765 110.601 204 219 255
139.29 208.878 110.705 188 209 255
101.614 197.545 107.432 209 222 255
162.542 140.358 109.066 200 217 255
95.9937 113.234 104.873 222 230 255
90.1661 99.4967 114.108 225 232 255
157.557 108.954 107.302 198 215 255
117.916 149.317 110.287 255 249 242
51.426 85.7208 108.515 207 221 255
115.428 152.611 117.171 255 235 219
120.375 91.1415 116.731 255 215 183
163.973 130.891 116.818 255 149 48
100.56 96.6058 112.173 251 247 255
117.074 189.162 109.023 193 212 255
100.777 125.783 106.657 205 220 255
82.2205 140.481 109.742 197 215 255
11.5084 151.85 110.65 194 213 255
147.957 135.13 118.019 255 253 249
84.7313 124.363 115.316 255 127 0
111.898 120.197 108.559 255 235 219
123.393 90.5826 108.577 255 250 244
55.3271 117.711 109.989 255 230 210
58.9802 150.175 114.947 193 213 255
36.0896 122.712 112.054 197 215 255
114.216 114.164 114.66 197 215 255
112.623 115.641 105.311 255 227 204
135.617 207.335 111.816 181 205 255
81.7842 67.5169 110.281 228 234 255
84.3929 27.921 112.232 206 220 255
126.725 6.48089 110.367 179 204 255
112.597 111.622 115.069 255 245 235
79.9741 124.548 111.623 255 236 220
95.0628 174.12 111.013 228 234 255
66.3131 10.0279 119.271 204 220 255
156.157 62.0703 110.284 191 211 255
164.644 64.1654 112.413 184 207 255
103.952 52.4637 109.128 220 229 255
94.6333 174.523 111.424 206 221 255
123.866 125.716 116.634 255 243 232
109.488 101.684 112.539 233 237 255
86.8908 163.173 115.092 219 228 255
124.852 98.9047 112.135 221 230 255
71.0347 144.664 117.187 187 209 255
190.028 55.5237 109.613 185 207 255
160.317 54.1211 125.236 203 219 255
124.006 117.406 114.143 234 237 255
184.447 93.4807 110.46 203 219 255
110.728 148.881 112.089 255 253 248
53.6418 124.429 126.282 216 227 255
79.7852 72.5142 113.547 200 217 255
116.05 108.281 107.805 255 206 167
4.59428 109.582 112.995 184 207 255
54.0095 83.183 94.3987 208 222 255
111.266 70.6636 109.666 218 228 255
171.537 73.7996 112.134 193 212 255
115.019 111.743 114.815 255 206 167
200.545 98.6182 115.917 188 209 255
103.231 117.081 118.378 195 214 255
168.425 119.061 113.595 217 227 255
92.4254 100.843 107.435 249 245 255
196.017 33.7708 111.891 181 205 255
112.23 127.847 108.288 247 244 255
57.1977 169.287 112.252 192 212 255
144.745 10.8194 95.928 186 208 255
13.9578 118.921 109.422 191 211 255
168.111 137.233 106.152 214 225 255
95.7204 174.51 111.642 199 216 255
59.3196 188.942 109.465 203 219 255
175.24 190.91 111.879 191 211 255
154.863 117.571 118.291 206 221 255
102.026 105.734 118.213 227 233 255
94.6219 174.522 111.418 207 221 255
44.4066 108.644 113.549 202 218 255
152.306 83.6339 108.151 255 220 191
91.8718 40.9492 113.08 181 205 255
60.3099 59.6773 115.124 195 214 255
112.54 111.456 114.672 219 228 255
151.225 9.81341 110.803 186 208 255
125.548 170.486 111.742 209 222 255
35.9857 70.3775 107.763 186 208 255
72.324 178.043 114.503 191 211 255
136.514 19.2412 112.074 191 211 255
114.864 127.988 110.671 255 250 244
111.459 114.54 114.766 255 194 143
78.7287 143.435 129.207 196 214 255
52.6537 136.334 119.194 194 213 255
200.925 130.657 112.026 200 217 255
106.32 79.401 115.977 219 228 255
132.993 75.9141 110.593 222 230 255
158.015 122.588 112.981 222 230 255
113.244 111.2 113.936 208 222 255
103.456 170.301 110.948 213 225 255
80.9857 50.5352 108.891 212 224 255
74.9078 87.4473 109.597 243 242 255
151.552 82.3223 112.789 210 223 255
108.946 122.685 109.666 255 249 255
113.58 150.211 110.136 202 218 255
49.3096 62.3495 106.416 212 224 255
98.7464 146.767 111.478 234 237 255
96.6659 22.1282 111.473 187 209 255
83.1261 81.1426 108.645 243 242 255
43.9426 163.511 109.611 184 207 255
119.08 103.372 111.515 217 227 255
84.3014 21.3453 115.431 184 207 255
113.78 103.651 112.784 229 234 255
156.79 52.4592 110.935 218 228 255
47.7825 91.6964 112.209 196 215 255
118.255 77.6605 118.291 197 215 255
42.9107 131.581 110.996 204 220 255
94.505 173.703 110.77 255 249 242
205.595 163.7 111.757 186 208 255
115.449 117.577 109.594 255 233 215
102.447 142.112 113.923 194 213 255
32.103 136.837 111.566 194 213 255
62.1872 113.487 108.494 227 233 255
92.3565 122.125 113.673 235 238 255
148.098 165.228 113.263 236 238 255
87.9725 119.875 115.521 193 213 255
134.318 161.31 116.622 204 219 255
37.3417 47.352 113.075 198 216 255
40.6589 177.185 111.57 195 214 255
158.69 63.9653 112.025 255 253 249
190.849 111.643 114.816 201 218 255
109.252 125.604 108.279 255 249 255
84.9977 99.3653 113.304 200 217 255
192.684 184.198 115.2 186 208 255
43.7097 155.489 114.052 180 204 255
167.616 69.7267 110.652 255 249 255
71.7166 139.744 118.177 197 215 255
160.941 97.7768 113.351 195 214 255
110.519 97.2582 110.042 255 215 183
89.4081 119.978 116.827 239 240 255
147.958 87.1846 111.326 239 240 255
47.598 78.4437 110.533 226 232 255
171.398 97.4251 109.092 193 212 255
47.3722 164.639 117.201 184 207 255
188.162 74.0294 112.956 230 235 255
134.811 139.488 113.156 201 217 255
171.85 119.536 108.818 205 220 255
93.6599 82.2387 110.951 198 216 255
104.439 111.302 111.599 255 228 206
75.9386 147.842 116.31 255 240 227
117.844 48.2598 109.98 211 223 255
210.056 150.341 109.707 191 211 255
51.0729 114.584 97.5549 190 210 255
141.945 106.617 115.153 248 245 255
56.6952 141.144 107.771 255 253 249
111.634 156.166 109.285 209 223 255
25.7242 176.024 111.678 188 209 255
108.029 176.674 110.862 186 208 255
9.49862 139.937 111.775 209 222 255
74.1851 107.976 112.063 255 234 217
199.273 65.307 110.307 195 214 255
139.412 74.9269 116.529 212 224 255
150.93 120.529 109.527 241 241 255
74.8077 133.492 113.204 255 254 250
114.678 102.831 107.087 255 228 207
73.1412 190.907 115.249 184 207 255
61.1408 128.875 106.677 255 250 255
125.53 210.068 113.727 188 209 255
158.133 38.3485 112.961 190 211 255
86.4042 72.0782 109.78 198 215 255
113.733 112.192 113.69 255 218 189
110.576 117.73 113.131 225 232 255
118.967 143.897 109.737 244 242 255
94.9092 175.331 111.006 192 212 255
65.0443 138.023 115.354 205 220 255
124.626 79.6664 115.683 216 227 255
107.23 141.536 112.824 235 237 255
109.393 104.036 107.458 247 244 255
105.223 81.0917 115.329 204 219 255
12.7399 99.5777 114.516 192 212 255
137.21 159.324 113.389 242 242 255
75.4265 74.4592 117.292 220 229 255
94.9882 174.527 111.056 232 236 255
60.9105 145.157 108.708 226 233 255
112.731 104.301 114.998 235 237 255
174.843 43.3226 113.353 188 209 255
212.114 122.384 112.825 186 208 255
192.291 135.617 114.898 221 229 255
124.455 82.9403 110.698 221 230 255
93.4028 172.839 113.185 245 243 255
155.199 149.108 112.86 205 220 255
100.282 90.8004 110.36 226 232 255
107.742 116.672 118.892 255 215 184
147.444 129.021 110.451 206 221 255
115.405 111.921 111.911 255 253 249
112.538 178.451 110.577 189 210 255
169.29 109.467 109.804 200 217 255
165.24 143.015 112.275 189 210 255
135.014 92.8848 112.742 238 240 255
146.398 80.2427 115.244 255 239 225
105.387 138.799 118.197 255 229 209
93.4271 109.865 111.041 219 228 255
201.997 38.4366 112.139 187 209 255
95.447 53.8649 115.57 255 252 248
12.331 167.453 114.957 183 206 255
161.598 120.153 111.869 197 215 255
84.7087 101.958 103.486 220 229 255
94.4486 42.7966 107.648 185 207 255
138.932 129.626 106.952 249 246 255
83.0419 141.63 116.943 255 244 234
118.888 147.75 113.19 255 197 151
119.031 105.538 116.721 255 246 237
110.875 125.211 120.142 255 255 251
129.226 118.27 117.652 219 228 255
115.653 77.1438 109.679 250 246 255
205.861 85.244 114.287 188 210 255
213.429 98.882 111.23 180 204 255
19.7881 75.8721 116.038 194 213 255
198.813 69.0344 113.359 195 213 255
63.4284 196.04 108.358 185 208 255
110.268 142.214 113.919 255 211 176
76.7851 143.227 114.484 222 230 255
23.8793 144.192 116.523 198 216 255
93.4259 89.8906 112.086 255 227 205
51.6403 89.6278 106.387 196 214 255
29.9619 42.2057 114.855 178 203 255
94.311 174.669 110.958 192 212 255
97.7928 79.8049 111.705 236 238 255
94.5103 23.2014 112.068 194 213 255
191.721 101.211 114.666 189 210 255
92.1908 96.8056 111.824 222 230 255
176.546 72.278 112.042 206 221 255
179.146 79.5331 114.09 252 247 255
114.142 106.629 107.018 255 253 249
141.797 159.24 114.175 228 233 255
146.194 70.2795 111.804 226 233 255
20.5672 137.535 112.387 218 228 255
94.4303 174.356 110.961 193 213 255
114.519 54.2857 109.999 217 227 255
96.0621 151.616 113.536 255 207 168
174.633 183.338 112.314 194 213 255
109.085 124.072 109.74 218 228 255
112.31 116.594 106.438 233 237 255
117.731 109.255 103.074 250 246 255
93.8401 175.38 110.12 185 208 255
136.355 101.677 118.865 234 237 255
112.503 109.74 117.465 255 192 140
117.453 93.9803 119.923 206 220 255
111.993 91.7816 111.762 225 232 255
63.3221 216.06 113.602 193 213 255
89.596 141.777 115.873 231 235 255
17.624 162.739 109.279 209 222 255
109.746 110.412 106.483 251 247 255
25.3967 133.155 117.593 192 212 255
117.906 116.309 112.056 255 241 229
55.1655 107.682 112.779 197 215 255
103.915 143.231 108.453 215 226 255
53.5421 87.6418 102.959 198 216 255
103.344 73.2855 106.985 255 205 166
128.322 84.3125 106.351 197 215 255
134.589 53.3402 108.424 255 240 226
111.617 58.5766 109.894 220 229 255
101.455 123.217 108.806 218 228 255
185.146 191.82 107.621 185 208 255
113.84 53.3798 108.654 195 214 255
65.0129 38.3484 111.867 210 223 255
115.107 12.4151 128.406 195 214 255
49.5537 124.458 112.121 194 213 255
94.6454 174.523 111.43 198 216 255
103.687 162.719 116.112 202 218 255
174.398 199.987 109.604 194 213 255
141.611 78.7473 117.56 255 243 233
