ply
format ascii 1.0
element vertex 1341
property float x
property float y
property float z
property uchar red
property uchar green
property uchar blue
end_header
90.2452 166.591 110.627 199 216 255
67.0161 92.8751 112.747 191 211 255
104.293 81.5263 117.682 198 215 255
111.499 46.2774 117.373 193 212 255
128.588 122.031 121.164 212 224 255
98.0882 185.16 111.425 255 236 221
111.081 105.313 112.922 224 231 255
116.99 114.066 115.93 207 221 255
92.3332 173.938 110.181 192 212 255
108.634 122.576 105.893 255 221 193
142.575 74.8173 62.6674 220 229 255
105.735 133.696 101.104 188 210 255
101.307 123.974 106.251 197 215 255
104.867 134.065 111.498 255 247 239
100.095 133.678 119.484 218 228 255
114.723 120.466 113.38 220 229 255
147.167 98.4954 119.31 212 224 255
182.186 8.70192 117.883 197 215 255
65.276 44.3146 94.9809 206 221 255
100.217 134.839 112.692 255 188 132
117.248 158.318 118.494 194 213 255
127.831 104.557 79.0715 255 211 177
92.3804 172.677 110.134 202 218 255
73.7445 21.3878 117.523 205 220 255
103.676 94.588 130.185 229 234 255
119.714 125.882 118.437 226 233 255
123.937 78.8801 110.83 216 227 255
120.275 103.085 108.773 230 235 255
92.2753 173.948 110.126 219 228 255
125.106 76.9121 104.871 255 249 242
106.661 114.868 110.588 231 235 255
87.9353 126.379 121.625 208 222 255
128.719 124.357 104.829 255 236 221
76.1074 136.688 98.9725 202 218 255
110.596 110.884 121.227 255 251 255
143.674 179.66 127.073 197 215 255
127.895 86.8886 115.009 202 218 255
132.227 126.371 106.357 233 237 255
97.4957 111.22 117.367 209 222 255
92.3457 173.938 110.19 193 213 255
92.3982 173.937 110.224 212 224 255
61.8769 103.347 125.284 206 221 255
102.403 87.3092 99.9651 209 222 255
92.3304 173.938 110.178 197 215 255
100.632 102.602 117.572 255 254 250
85.4003 162.049 110.213 217 227 255
107.964 150.738 103.73 255 244 234
92.371 173.937 110.208 207 221 255
117.421 112.578 114.285 235 238 255
61.9469 61.7489 106.637 194 213 255
161.733 136.863 115.862 176 202 255
106.19 86.9214 126.143 208 222 255
116.3 113.518 106.424 255 221 195
47.8013 99.5655 105.457 196 214 255
110.228 96.7913 107.358 211 224 255
113.981 121.969 116.6 255 249 241
137.197 76.8711 123.324 216 226 255
47.0925 108.71 138.998 255 243 232
64.9718 66.9147 112.907 203 219 255
60.0324 40.9242 106.14 214 225 255
92.3335 173.938 110.181 197 215 255
146.781 103.032 110.141 194 213 255
127.845 120.108 109.813 179 204 255
120.401 102.605 113.362 206 221 255
92.902 174.493 110.512 203 219 255
92.1104 169.077 118.977 189 210 255
92.276 173.946 110.138 211 223 255
191.913 117.312 112.748 199 216 255
46.9874 78.4087 113.806 195 214 255
105.574 102.971 114.001 255 179 114
107.383 109.477 116.004 211 223 255
122.088 124.103 94.8475 217 227 255
146.034 70.8843 122.456 207 221 255
92.4563 173.799 109.515 233 236 255
139.223 83.148 110.985 231 236 255
68.4968 105.34 99.3141 187 209 255
105.849 102.098 102.118 217 227 255
92.3767 173.939 110.215 255 161 75
92.2826 173.937 110.124 255 212 177
98.302 175.916 105.725 233 237 255
79.2517 214.822 118.637 191 211 255
114.904 112.686 104.251 255 204 163
118.348 68.9373 122.249 202 218 255
98.2141 181.322 111.755 188 209 255
111.34 81.4281 110.886 246 244 255
108.916 92.4639 101.428 202 218 255
83.5644 107.881 107.574 219 228 255
57.7408 47.8527 112.107 184 207 255
97.9656 142.571 108.468 215 226 255
75.9331 155.435 114.043 198 215 255
128.415 138.576 109.294 255 249 255
99.4926 191.685 98.8334 209 222 255
85.812 170.427 87.503 202 218 255
57.9348 110.622 116.265 200 217 255
146.346 64.9941 113.621 255 247 238
97.6674 98.2321 109.345 220 229 255
170.821 126.371 95.5779 195 214 255
112.301 98.9336 119.901 210 223 255
98.0226 139.816 105.603 210 223 255
151.849 133.207 111.004 201 217 255
92.3366 173.938 110.183 195 214 255
141.371 71.2502 126.367 230 235 255
153.42 173.13 92.6604 203 219 255
81.5758 154.152 115.762 255 249 241
77.1245 142.219 115.815 248 245 255
116.78 113.451 115.377 255 250 255
123.698 122.905 111.587 255 215 184
64.8665 70.2215 110.235 206 221 255
180.432 8.80619 116.209 233 236 255
120.344 128.373 113.602 211 224 255
135.208 66.5692 114.841 208 221 255
110.384 156.165 110.189 230 235 255
131.53 123.808 110.774 217 227 255
92.3379 173.938 110.184 199 216 255
131.064 88.7863 105.474 214 225 255
92.4414 173.943 110.236 220 229 255
100.327 171.732 112.876 216 226 255
76.5325 195.357 111.148 191 211 255
151.699 42.6616 114.647 191 211 255
97.6882 102.104 108.701 255 245 235
171.682 161.999 115.266 191 211 255
108.107 92.0263 114.859 196 214 255
146.544 60.3877 116.785 213 225 255
104.947 192.852 112.116 226 233 255
105.246 94.7452 108.772 246 244 255
5.92735 180.446 133.308 191 211 255
123.833 142.396 108.29 255 175 106
126.344 177.689 130.496 227 233 255
200.432 124.59 138.525 237 239 255
119.39 80.3396 117.186 216 226 255
185.897 141.671 116.833 196 214 255
107.073 91.8982 109.848 255 187 131
131.658 119.226 125.749 204 219 255
103.355 109.949 104.696 255 223 197
92.3635 173.937 110.203 255 245 235
105.886 81.5743 119.771 201 218 255
119.354 117.489 119.222 255 245 236
92.3364 173.938 110.183 235 238 255
46.4075 57.5883 94.5853 229 234 255
121.755 141.812 107.837 216 227 255
112.425 108.225 120.579 255 222 195
131.97 153.274 106.765 212 224 255
137.829 109.429 123.69 204 219 255
69.7329 15.1526 108.8 215 226 255
38.0729 210.224 98.4469 185 207 255
105.942 111.075 111.804 220 229 255
111.521 101.012 113.73 255 138 18
115.246 133.313 96.1663 255 233 215
165.024 7.68192 133.481 186 208 255
135.785 80.7967 125.99 195 214 255
135.98 122.289 111.994 255 250 244
14.0999 115.118 110.824 187 209 255
137.152 74.4463 101.291 215 226 255
147.976 104.093 110.258 198 215 255
106.798 120.304 109.609 255 237 221
61.1774 102.672 112.12 255 255 251
118.917 65.1249 123.196 208 222 255
206.029 124.9 120.769 196 214 255
30.6398 168.981 24.0422 186 208 255
46.6314 159.939 114.671 214 225 255
80.0718 136.732 114.707 210 223 255
113.851 115.053 116.501 193 212 255
156.701 167.223 111.72 194 213 255
115.944 106.528 101.462 227 233 255
18.2119 133.747 117.704 196 214 255
68.401 87.0622 119.405 205 220 255
92.4964 166.693 94.9012 246 244 255
118.762 106.576 113.504 212 224 255
47.6749 128.969 120.988 207 221 255
92.3413 173.938 110.187 225 232 255
73.1999 59.4366 107.812 221 230 255
119.638 115.993 105.832 219 228 255
145.506 30.1432 110.715 200 217 255
91.9149 173.954 110.374 204 219 255
105.251 134.344 111.088 203 218 255
96.0156 150.837 126.378 209 223 255
89.8663 114.594 104.45 197 215 255
130.922 189.938 113.899 192 212 255
98.318 128.78 119.669 255 242 230
38.4963 104.272 116.701 202 218 255
64.6036 126.119 114.571 197 215 255
92.3399 173.938 110.186 203 219 255
92.3384 173.938 110.185 210 223 255
74.4111 145.546 106.739 210 223 255
114.516 154.324 112.017 219 228 255
193.603 50.7853 114.847 217 227 255
65.2824 130.166 130.022 215 226 255
115.26 112.288 114.936 255 181 119
119.705 109.408 112.553 255 210 174
95.9854 153.2 130.883 200 217 255
108.637 81.1521 116.767 183 206 255
219.876 141.236 111.275 184 207 255
119.336 128.305 117.01 255 202 159
118.308 123.054 109.524 255 244 234
53.7529 56.1545 96.9383 176 202 255
92.3715 173.937 110.208 223 231 255
70.2282 155.607 99.2946 205 220 255
103.996 138.526 143.845 255 187 131
92.3319 173.938 110.18 218 227 255
93.8319 147.296 110.889 239 240 255
11.5741 170.51 111.986 194 213 255
57.0951 51.5493 122.401 222 230 255
102.923 61.1805 118.539 211 223 255
155.257 98.7671 116.975 221 229 255
130.986 119.507 114.781 203 219 255
101.618 175.653 110.904 255 232 214
78.6316 160.191 98.4307 255 255 251
92.5991 173.901 110.348 255 240 227
35.9663 172.104 111.962 195 214 255
113.226 81.3612 112.834 218 228 255
122.146 87.7443 114.082 206 220 255
92.3658 173.937 110.204 198 215 255
115.613 167.166 115.42 194 213 255
122.498 142.78 125.22 221 230 255
94.5979 187.678 120.943 201 217 255
92.3778 173.937 110.212 231 236 255
40.5261 145.244 114.82 208 222 255
128.478 140.234 106.868 203 219 255
92.228 174.317 111.681 227 233 255
200.399 55.2773 112.004 189 210 255
170.06 64.3596 113.639 202 218 255
109.429 120.881 108.898 217 227 255
77.7983 103.434 101.699 255 199 153
110.757 103.891 107.916 233 236 255
100.883 128.884 133.86 255 225 201
159.545 52.6084 116.272 224 231 255
142.171 92.1769 131.187 190 211 255
199.958 37.6465 116.12 212 224 255
84.1142 22.548 105.94 189 210 255
98.5508 117.732 111.301 255 235 218
13.6573 207.899 110.102 192 212 255
100.855 117.026 113.565 255 233 215
117.813 51.5077 121.147 209 222 255
110.778 8.26779 128.155 191 211 255
106.613 142.684 100.516 205 220 255
92.3316 173.788 110.518 188 210 255
146.133 88.0292 109.575 202 218 255
101.597 88.7025 102.695 215 226 255
131.372 98.1317 116.065 212 224 255
92.3869 54.3542 120.792 185 208 255
26.8721 55.6494 104.122 204 219 255
68.1968 41.4308 104.321 204 219 255
137.627 72.7888 125.199 214 225 255
65.2322 128.272 115.935 186 208 255
55.5245 73.6745 106.965 186 208 255
77.3505 120.614 111.016 196 214 255
87.3878 117.8 110.907 255 175 106
25.7748 89.2289 111.646 190 210 255
125.188 70.8806 112.775 227 233 255
171.729 91.1158 124.362 208 222 255
118.65 80.9281 122.231 206 221 255
127.435 81.4072 104.312 255 204 164
86.7116 145.873 106.431 207 221 255
98.0621 127.952 101.238 188 210 255
18.2702 83.5465 105.052 220 229 255
58.6151 53.6839 87.4896 213 224 255
115.395 102.851 110.861 240 240 255
202.584 35.5156 119.613 221 229 255
112.483 121.206 109.153 193 212 255
94.0673 173.338 111.606 255 254 249
129.064 21.1505 109.955 193 213 255
113.156 102.414 102.537 255 237 221
83.2411 172.898 118.217 192 212 255
91.646 173.777 109.707 207 221 255
109.104 105.453 111.309 250 246 255
128.002 79.9851 110.348 255 246 238
98.942 190.177 107.773 199 216 255
123.745 142.316 109.067 209 222 255
119.994 101.554 95.3868 199 216 255
210.853 171.165 76.6446 209 222 255
92.337 173.938 110.184 183 206 255
92.3363 173.938 110.183 192 212 255
81.9618 168.886 111.693 193 212 255
122.855 165.647 116.874 182 206 255
68.3712 151.596 97.8956 224 231 255
126.154 110.358 117.464 255 202 159
152.442 118.234 122.167 185 207 255
134.405 84.2642 123.922 195 214 255
92.2276 172.855 109.289 193 213 255
92.9074 174.249 110.165 255 250 244
148.454 91.2137 108.895 203 219 255
80.62 102.67 68.2836 255 203 161
160.981 136.985 118.103 188 209 255
122.075 92.0384 117.634 197 215 255
216.973 34.6585 101.208 196 215 255
97.9937 101.879 109.422 196 215 255
108.746 112.009 99.829 255 240 226
139.34 144.365 116.496 181 205 255
110.639 119.406 110.221 255 198 151
138.122 123.148 107.836 234 237 255
156.445 127.033 118.408 195 214 255
94.0377 113.423 113.3 224 231 255
106.017 157.544 106.542 234 237 255
93.8707 94.6248 121.213 194 213 255
92.391 173.938 110.22 249 245 255
152.388 172.945 164.826 202 218 255
104.281 137.802 105.344 212 224 255
111.496 125.403 132.424 255 250 244
135.975 118.904 117.72 255 211 176
98.519 127.825 113.774 255 254 250
103.918 81.0306 109.359 192 212 255
124.479 123.406 97.123 255 252 247
66.84 99.1023 110.723 220 229 255
64.1755 44.616 109.307 214 225 255
54.731 119.024 66.3729 214 225 255
110.854 124.468 115.976 255 249 241
31.6612 90.8886 108.285 186 208 255
109.005 107.889 108.613 208 222 255
121.955 138.591 99.2287 179 204 255
92.3291 173.938 110.177 198 215 255
110.554 116.205 110.947 220 229 255
90.7358 138.562 110.438 196 215 255
66.2869 62.8241 98.1308 194 213 255
84.9523 160.802 124.002 202 218 255
91.6041 173.791 109.853 249 245 255
15.3776 90.5597 67.7359 193 213 255
128.744 89.0828 113.237 255 232 213
117.864 114.135 111.661 210 223 255
122.483 82.5725 104.277 255 252 246
152.935 35.4214 112.384 220 229 255
111.29 108.725 150.511 240 240 255
112.529 99.3175 105.717 255 218 189
115.12 116.326 110.697 214 225 255
192.534 59.6707 108.997 182 206 255
126.601 128.566 112.203 208 222 255
118.606 59.2407 119.701 217 227 255
204.164 126.984 119.647 219 228 255
144.919 103.624 115.87 229 234 255
89.6826 145.76 87.9056 255 239 226
96.9633 116.097 129.233 211 223 255
117.739 149.323 121.339 200 217 255
123.276 80.8327 110.472 255 223 198
129.116 27.9644 106.016 219 228 255
92.2487 173.675 110.654 240 240 255
76.0273 153.749 105.949 188 209 255
92.3213 173.939 110.146 255 239 225
122.644 148.901 109.119 188 209 255
116.714 81.6951 117.767 198 215 255
92.4794 173.957 110.251 255 238 224
57.0392 131.81 113.697 218 228 255
208.204 2.36948 109.655 180 204 255
157.022 98.7673 110.618 235 238 255
108.857 23.2689 119.667 207 221 255
92.3923 173.995 110.352 207 221 255
106.984 127.357 112.399 209 222 255
92.5835 173.997 110.303 244 243 255
131.835 203.544 154.84 188 209 255
175.003 158.734 115.511 206 221 255
108.134 113.381 115.862 203 219 255
120.313 116.297 109.32 212 224 255
117.287 124.086 117.662 255 194 145
112.159 114.904 119.652 255 240 227
162.417 30.6717 104.658 189 210 255
92.3612 173.937 110.201 244 243 255
92.3442 173.937 110.189 215 226 255
102.925 119.204 116.883 215 226 255
100.464 130.551 111.661 228 233 255
42.1318 51.419 109.885 212 224 255
120.243 112.827 130.582 255 177 110
34.905 149.973 144.328 204 219 255
90.2235 158.656 124.141 233 236 255
84.1765 100.529 107.039 226 232 255
149.648 125.719 94.5427 197 215 255
92.3736 173.937 110.209 255 227 204
117.197 136.645 102.347 238 239 255
119.617 115.456 116.124 229 234 255
92.358 173.937 110.199 202 218 255
92.3377 173.938 110.184 253 248 255
115.453 101.702 122.926 255 230 210
89.3238 172.612 111.911 199 216 255
130.59 142.933 107.515 210 223 255
113.99 84.0336 119.21 255 222 195
133.3 92.6775 108.807 217 227 255
56.7098 136.705 94.8092 203 219 255
92.3379 173.938 110.184 199 216 255
102.034 137.422 115.029 210 223 255
189.927 24.2887 119.812 202 218 255
135.461 127.792 119.04 192 212 255
92.3374 173.938 110.184 203 219 255
30.8979 205.146 136.967 190 211 255
43.4394 108.699 121.391 193 213 255
91.844 172.322 109.794 255 216 184
92.3368 173.938 110.183 255 240 227
120.571 115.698 109.675 255 212 177
92.3176 173.939 110.167 232 236 255
165.296 98.5481 109.03 255 229 208
92.3675 173.937 110.206 222 230 255
150.468 161.001 110.3 209 222 255
91.031 95.7537 101.999 214 225 255
59.737 60.7969 117.698 219 229 255
140.561 76.8086 128.44 239 240 255
105.019 36.5207 113.264 195 214 255
222.69 110.813 121.319 217 227 255
92.5615 173.978 110.254 197 215 255
115.773 124.496 105.452 255 208 170
119.787 183.685 112.616 214 225 255
56.725 62.5467 133.316 233 236 255
131.441 81.246 108.842 255 254 250
77.1148 193.82 107.537 220 229 255
130.195 86.3621 114.409 219 228 255
102.029 194.835 109.101 242 242 255
180.148 9.74805 111.232 203 219 255
92.3533 173.937 110.196 255 250 255
193.467 72.8655 110.979 195 214 255
72.7272 139.68 93.1867 213 225 255
106.283 112.125 119.754 255 237 222
60.2091 48.1283 93.9218 215 226 255
134.162 137.612 111.841 255 254 251
102.991 174.013 111.437 219 228 255
73.0874 176.79 102.404 221 230 255
114.495 114.015 136.046 255 204 163
10.7782 135.732 113.727 199 216 255
155.717 86.9408 111.797 233 236 255
124.651 79.1042 105.615 210 223 255
128.917 121.812 112.749 255 247 238
92.3457 173.938 110.19 197 215 255
147.831 81.9593 113.979 188 209 255
54.5711 91.3625 97.1705 192 212 255
123.563 142.915 95.3843 255 248 241
116.444 110.939 114.12 230 235 255
92.441 173.943 110.243 236 238 255
80.9873 131.751 114.599 255 232 213
103.586 73.1854 119.605 223 230 255
133.089 114.567 119.643 255 233 214
67.5037 186.086 111.99 202 218 255
215.197 46.9876 99.1161 183 206 255
83.7037 115.173 138.519 208 221 255
107.531 136.203 105.414 238 239 255
123.566 132.49 106.621 199 216 255
102.758 91.5853 107.277 255 229 208
94.7291 168.474 121.018 210 223 255
95.0473 137.311 117.625 255 251 246
124.539 118.902 102.883 217 227 255
92.3687 173.937 110.206 255 254 250
129.91 107.101 117.856 250 246 255
75.8003 166.882 112.378 193 213 255
63.1464 69.1941 107.531 251 247 255
92.3496 173.937 110.193 255 249 242
201.915 67.2992 109.101 195 214 255
146.678 96.6938 118.642 196 215 255
60.386 94.6006 114.34 193 213 255
120.308 106.831 110.961 218 228 255
126.468 127.137 123.675 207 221 255
92.3071 173.94 110.158 204 219 255
110.466 107.715 119.233 210 223 255
60.2058 110.661 121.625 190 210 255
92.354 173.936 110.197 214 225 255
94.032 29.7009 114.733 234 237 255
211.416 48.7504 119.352 182 206 255
102.191 169.824 128.594 255 244 234
48.8358 125.179 106.501 184 207 255
71.6247 141.001 123.377 185 207 255
94.3055 183.77 99.7781 255 249 242
193.644 72.002 108.45 197 215 255
60.6749 54.833 99.7325 195 214 255
127.463 100.798 117.951 199 216 255
92.3455 173.936 110.191 226 232 255
101.663 104.509 100.07 255 232 213
169.391 103.064 120.093 255 232 213
72.3508 130.762 112.584 207 221 255
87.2135 128.914 136.997 255 228 206
92.3367 173.938 110.183 255 226 203
132.088 130.977 108.923 211 224 255
216.595 40.3374 110.546 199 216 255
41.3583 126.572 105.573 255 248 241
72.1401 195.672 97.3599 203 218 255
158.007 200.793 154.824 190 211 255
145.219 2.72094 101.758 192 212 255
108.296 129.873 94.7669 255 17 0
92.3643 173.938 110.203 210 223 255
151.679 80.5066 129.612 233 236 255
180.993 82.3904 116.021 188 209 255
134.284 114.289 89.2597 234 237 255
112.847 120.366 82.4687 255 246 237
16.7578 55.6211 104.507 184 207 255
92.5356 173.537 110.332 255 209 172
100.096 107.446 111.545 193 213 255
92.3421 173.938 110.187 213 225 255
98.9471 28.7303 106.945 212 224 255
58.9173 35.7774 147.24 200 217 255
147.797 16.3723 117.484 189 210 255
88.8669 141.729 122.627 189 210 255
123.275 152.268 121.255 241 241 255
56.3467 131.766 115.801 246 244 255
42.9901 93.7218 125.43 196 214 255
92.5535 173.969 110.247 191 211 255
91.9478 173.136 109.578 255 254 250
69.8816 129.825 111.741 188 209 255
75.9617 44.82 134.722 200 217 255
92.3505 173.937 110.194 192 212 255
29.6437 63.9909 110.037 191 211 255
122.075 100.986 109.277 211 223 255
63.8465 213.509 105.556 185 207 255
109.526 77.9477 116.276 207 221 255
7.91088 20.6935 147.701 200 217 255
91.6057 19.0618 152.849 184 207 255
68.8547 174.838 112.641 186 208 255
92.3329 173.938 110.18 205 220 255
92.3319 173.938 110.18 199 216 255
194.516 10.6768 91.3597 192 212 255
99.4719 183.881 133.865 201 218 255
140.065 78.5634 115.291 237 239 255
127.162 205.689 110.393 198 216 255
112.477 138.831 110.591 187 209 255
70.5326 193.751 110.447 202 218 255
88.5521 37.9876 115.842 193 212 255
123.639 153.75 110.286 203 219 255
62.6921 171.256 118.31 253 248 255
107.002 161.289 115.644 249 246 255
91.8332 169.087 96.3818 255 242 231
63.9568 204.902 112.473 255 229 208
54.6462 185.18 112.51 203 219 255
84.0701 140.675 119.038 194 213 255
69.8468 133.688 115.908 201 217 255
59.4073 121.19 127.879 208 222 255
131.441 8.73075 118.105 192 212 255
72.3148 162.089 120.982 200 217 255
39.0417 116.545 116.086 199 216 255
92.3386 173.938 110.185 206 221 255
108.801 136.833 111.547 202 218 255
122.491 98.3788 121.031 210 223 255
92.3991 173.939 110.224 183 206 255
152.084 136.142 112.095 187 209 255
120.907 173.404 110.839 230 235 255
106.587 51.0991 118.326 235 238 255
92.3619 173.937 110.202 212 224 255
71.7168 50.4392 112.031 214 225 255
120.557 139.118 101.389 255 228 207
130.046 149.799 108.276 255 234 216
94.433 174.689 112.473 207 221 255
92.3412 173.938 110.187 214 226 255
118.238 117.167 104.096 229 234 255
84.6483 143.921 112.407 221 230 255
131.527 130.01 115.863 204 219 255
72.1885 84.1797 114.383 217 227 255
80.9563 173.636 101.562 240 241 255
115.449 102.093 98.2308 255 222 195
86.5911 185.123 114.106 219 228 255
60.1881 87.8268 112.215 205 220 255
61.2564 92.9157 106.411 221 230 255
92.1941 174.389 110.223 212 224 255
146.96 118.991 133.047 194 213 255
142.745 137.971 110.696 188 209 255
105.731 140.92 105.427 206 221 255
45.0037 125.795 125.523 193 213 255
88.3155 151.02 131.564 225 232 255
192.2 28.1592 109.425 203 219 255
152.6 85.0964 112.992 255 240 226
108.754 92.0959 98.877 226 232 255
112.72 118.12 122.623 255 233 214
124.025 119.014 99.3977 234 237 255
92.279 173.942 110.141 200 217 255
65.6063 61.7421 96.5396 240 241 255
127.608 87.8492 91.1512 255 228 207
112.755 100.601 116.447 255 220 192
99.7571 142.881 111.852 255 253 249
112.071 113.486 113.565 196 214 255
59.2758 173.084 127.213 218 227 255
144.784 75.3514 115.956 231 236 255
128.557 168.85 114.271 227 233 255
92.4079 173.939 110.229 255 231 212
92.4763 173.939 110.285 237 239 255
100.788 67.6498 107.699 255 217 188
126.481 10.1612 103.593 255 241 229
141.633 119.749 115.157 255 239 225
167.075 20.3552 105.211 194 213 255
129.902 77.8366 110.327 213 225 255
61.8906 121.93 107.649 206 220 255
92.3398 173.938 110.186 227 233 255
144.132 109.387 106.056 250 246 255
99.978 179.883 88.9997 213 225 255
92.4346 173.94 110.239 245 243 255
119.027 126.112 118.855 205 220 255
122.299 102.256 112.339 200 217 255
101.401 100.971 124.391 217 227 255
113.891 82.2286 96.6724 255 227 204
112.329 222.303 99.9243 205 220 255
27.8168 117.664 112.163 192 212 255
111.475 118.433 111.582 240 241 255
92.3333 173.938 110.181 244 243 255
112.022 107.028 113.421 207 221 255
117.809 144.331 125.486 229 234 255
123.355 110.072 101.133 222 230 255
121.878 93.0447 124.764 255 245 236
109.703 126.445 103.097 214 225 255
119.07 98.6813 99.7822 255 175 106
108.2 118.189 100.496 196 214 255
102.269 143.085 144.955 255 247 239
31.5283 86.9211 113.248 202 218 255
92.3087 173.94 110.16 212 224 255
63.8876 53.5773 118.371 230 235 255
119.101 139.845 99.4682 234 237 255
213.332 107.428 114.623 193 213 255
92.9855 173.747 110.517 255 239 226
120.568 103.144 114.824 214 225 255
222.833 44.1166 119.188 195 214 255
198.733 72.3799 111.089 188 209 255
55.2939 140.156 97.6351 208 222 255
58.7349 101.815 95.7963 220 229 255
104.551 115.539 118.452 203 219 255
135.55 143.123 101.172 202 218 255
92.2766 173.746 110.155 243 242 255
129.84 172.679 112.577 186 208 255
63.2274 65.913 113.811 210 223 255
98.9924 23.2094 98.3373 201 217 255
92.3399 173.938 110.186 210 223 255
148.524 65.1982 126.283 255 216 186
64.3458 32.1458 94.8821 194 213 255
100.457 96.6561 124.25 209 222 255
92.3143 173.939 110.165 199 216 255
114.051 118.23 123.503 255 126 0
92.39 173.938 110.219 214 226 255
115.708 174.869 105.866 220 229 255
118.035 134.513 105.289 214 225 255
77.555 160.949 113.567 255 251 245
126.07 105.961 102.065 255 250 243
92.3307 173.938 110.179 198 216 255
139.656 90.6505 108.439 212 224 255
35.9428 127.854 119.69 204 219 255
126.443 146.123 105.309 195 214 255
107.334 105.189 108.012 201 218 255
222.567 10.285 114.62 177 203 255
110.93 104.717 115.559 190 211 255
186.243 77.4157 112.555 198 215 255
47.7766 100.691 115.187 209 223 255
92.36 173.937 110.201 197 215 255
62.9445 141.475 121.734 255 209 172
101.28 148.667 109.127 215 226 255
161.042 109.562 113.19 200 217 255
92.3565 173.937 110.198 215 226 255
91.4667 49.5088 117.202 192 212 255
46.6344 129.69 105.953 192 212 255
122.95 98.4083 100.142 203 219 255
138.935 171.554 122.082 199 216 255
92.3347 173.938 110.182 229 234 255
92.3525 173.934 110.19 220 229 255
67.6481 95.9232 109.298 188 209 255
92.3497 173.937 110.193 203 219 255
75.5568 132.776 170.449 195 214 255
107.751 63.5367 119.944 255 242 230
72.4269 112.245 93.0353 255 196 149
100.757 171.291 120.124 255 250 244
45.4558 127.117 111.352 222 230 255
102.431 35.0768 108.536 193 213 255
112.579 124.049 103.069 215 226 255
132.034 176.732 107.405 255 251 255
119.057 85.6709 117.667 204 220 255
86.1521 58.4575 126.941 196 214 255
92.301 173.941 110.152 213 225 255
92.3505 173.937 110.194 193 212 255
206.585 45.2177 110.702 187 209 255
125.854 114.79 126.044 255 251 245
106.552 104.97 111.314 192 212 255
130.658 166.852 111.743 205 220 255
109.299 135.286 107.354 213 225 255
92.3356 173.938 110.182 205 220 255
104.476 123.144 121.661 255 250 243
84.2698 115.289 110.731 209 222 255
79.2502 100.475 107.374 249 245 255
158.896 63.901 111.039 212 224 255
92.3546 173.937 110.197 218 228 255
92.3593 173.969 110.185 184 207 255
100.759 38.4278 110.14 211 224 255
113.519 109.441 111.752 197 215 255
170.498 66.8967 89.6303 223 230 255
93.789 128.794 111.834 246 244 255
163.122 20.9738 112.368 232 236 255
107.035 69.401 120.41 217 227 255
110.866 16.4612 118.187 193 213 255
147.997 82.5294 127.162 255 212 177
150.602 66.9416 127.58 255 243 232
116.179 173.349 102.152 255 252 247
44.865 174.151 111.186 200 217 255
92.337 173.938 110.183 192 212 255
119.654 115.3 110.308 255 250 243
93.4252 178.315 111.352 214 225 255
70.163 176.764 104.85 255 243 232
133.512 90.1044 114.773 255 246 237
114.454 138.003 119.442 187 209 255
92.3379 173.938 110.184 187 209 255
102.721 180.394 121.121 255 246 236
147.064 116.311 103.957 238 240 255
13.1019 78.1003 107.054 185 208 255
150.633 71.6541 134.192 255 247 239
197.63 139.197 114.033 188 210 255
124.134 132.558 133.87 203 219 255
108.351 166.092 108.244 255 228 206
131.934 128.35 106.597 244 243 255
88.3021 180.246 112.137 217 227 255
115.929 123.569 117.483 217 227 255
68.4639 115.158 110.363 231 235 255
117.982 189.556 111.921 189 210 255
49.7492 66.1201 123.95 255 251 245
122.03 107.162 101.754 255 252 246
62.605 20.808 74.825 195 214 255
107.585 90.2581 114.082 202 218 255
90.928 168.905 112.948 213 225 255
147.636 127.5 113.312 192 212 255
92.4865 173.938 110.245 215 226 255
139.868 83.3872 116.634 211 224 255
113.078 121.727 113.327 255 232 213
71.5142 73.8417 135.044 255 239 225
150.035 116.732 143.057 200 217 255
109.265 194.386 83.0553 192 212 255
70.9176 169.327 112.543 187 209 255
137.403 88.4376 112.495 255 247 238
138.619 72.0968 128.656 255 255 252
114.587 125.606 110.051 255 212 178
111.704 99.0657 93.9281 194 213 255
105.703 108.126 110.986 255 243 232
114.158 128.91 102.556 204 219 255
78.5556 76.8248 114.567 213 225 255
75.287 211.569 117.902 189 210 255
33.6885 191.15 113.758 203 219 255
100.742 78.0816 120.328 211 224 255
191.642 111.356 107.778 235 238 255
110.514 98.6321 108.166 244 243 255
92.3216 173.939 110.171 200 217 255
184.421 166.078 113.216 198 216 255
158.937 143.072 95.026 218 228 255
140.23 91.9914 136.284 225 232 255
128.072 144.66 119.609 183 206 255
92.4116 173.939 110.231 253 248 255
78.8623 219.991 98.3304 201 217 255
65.099 128.061 126.491 200 217 255
113.026 81.6014 130.037 255 130 0
92.3366 173.938 110.183 196 214 255
75.1359 97.8705 104.44 255 232 214
50.8958 75.0914 124.487 253 248 255
157.826 118.533 83.468 212 224 255
107.116 112.614 117.248 195 214 255
107.834 86.2208 106.973 200 217 255
136.179 126.281 107.06 255 253 249
89.7631 169.222 110.302 226 232 255
51.1682 145.512 109.527 255 237 221
113.484 118.415 111.716 239 240 255
106.105 174.11 117.997 216 226 255
138.531 24.406 111.034 233 237 255
76.3507 71.2691 104.727 180 204 255
117.647 104.949 125.547 255 246 237
92.2799 173.93 110.134 201 218 255
126.369 74.8793 117.63 255 244 233
92.3312 173.938 110.179 200 217 255
119.2 124.562 127.455 255 241 229
64.4635 11.6912 91.7497 193 213 255
92.3288 173.938 110.177 213 225 255
203.996 137.534 114.349 177 202 255
195.151 11.3429 110.251 198 215 255
132.165 170.777 113.597 187 209 255
122.827 116.239 107.449 190 211 255
127.284 103.216 100.551 255 230 209
173.106 109.047 122.079 200 217 255
73.1955 200.417 119.762 186 208 255
123.5 85.0716 112.208 201 218 255
56.209 93.1 92.0477 188 209 255
92.3623 173.937 110.202 194 213 255
78.74 129.384 109.279 199 216 255
108.242 82.1848 119.371 199 216 255
59.7799 162.824 110.673 189 210 255
92.338 173.938 110.184 255 247 239
144.357 62.0241 109.921 190 211 255
57.7466 27.4811 92.821 188 209 255
86.8999 169.976 109.81 255 249 242
92.3065 173.94 110.158 222 230 255
2.66048 199.493 160.787 194 213 255
92.299 173.938 110.153 231 236 255
108.433 84.7375 128.895 217 227 255
142.343 121.213 117.445 193 212 255
93.3525 173.908 110.93 210 223 255
19.0398 209.899 119.664 199 216 255
122.449 103.303 109.293 202 218 255
73.6073 179.895 91.2012 200 217 255
128.227 75.4638 121.178 255 237 222
130.219 109.412 110.475 221 230 255
92.3206 173.934 110.169 206 220 255
115.168 111.159 110.743 255 230 209
111.003 76.485 124.474 195 213 255
93.1285 173.79 110.131 198 216 255
74.9624 51.7446 99.9633 190 211 255
91.1736 75.5237 117.929 255 184 124
133.46 127.598 114.932 255 252 248
64.1667 66.6651 116.654 192 212 255
217.626 25.2616 116.881 179 203 255
92.4706 173.958 110.402 213 225 255
115.275 90.7836 132.34 252 247 255
92.4373 174.053 110.082 207 221 255
63.0077 117.009 111.829 215 226 255
102.926 154.769 123.836 196 214 255
114.253 124.211 100.028 223 231 255
105.362 90.5812 107.718 193 213 255
145.717 87.6969 104.12 255 240 227
64.6284 105.94 109.733 215 226 255
157.596 116.711 116.6 224 231 255
118.923 130.667 97.2285 221 229 255
109.766 150.702 104.407 255 250 255
94.3758 154.242 104.906 255 246 237
91.5218 165.814 105.775 199 216 255
92.3321 173.938 110.18 218 228 255
124.433 129.249 110.433 255 242 231
110.7 143.519 95.7548 215 226 255
134.987 121.527 123.881 255 241 229
37.6234 24.2868 129.792 230 235 255
92.3164 173.939 110.166 255 189 134
115.339 112.375 112.731 255 205 165
98.6419 92.1974 128.888 214 225 255
17.8059 193.984 110.31 209 222 255
109.08 107.814 90.0177 242 241 255
126.466 98.4819 121.034 255 194 143
102.34 98.1845 127.146 222 230 255
36.3079 62.9984 109.069 204 220 255
63.1559 131.657 126.59 184 207 255
139.511 133.874 114.175 214 226 255
73.5942 128.282 100.723 189 210 255
108.297 111.114 120.321 196 214 255
92.3183 173.939 110.168 202 218 255
79.2801 164.668 116.646 190 211 255
166.802 195.029 97.1727 197 215 255
92.3628 173.937 110.202 221 229 255
90.6076 30.0626 114.313 203 219 255
105.581 150.526 112.481 207 221 255
105.553 128.143 103.308 255 249 242
115.858 121.402 109.202 206 220 255
99.3383 154.217 122.362 255 233 214
70.2306 98.4423 111.394 223 231 255
163.539 29.055 111.623 197 215 255
109.046 111.068 112.93 191 211 255
116.813 109.092 110.02 255 218 189
108.908 101.189 103.292 255 242 230
168.562 57.2678 108.295 198 216 255
56.0259 121.931 85.4275 188 209 255
72.5517 138.851 107.592 197 215 255
12.5897 130.213 115.383 198 216 255
100.702 99.6174 127.582 255 199 154
57.7063 36.4758 61.7897 205 220 255
111.428 112.009 106.944 208 222 255
185.804 86.4752 113.384 201 217 255
92.342 173.938 110.187 255 228 207
84.2426 146.47 124.435 232 236 255
102.571 82.1875 117.593 240 240 255
114.036 157.222 135.199 241 241 255
67.8697 146.536 102.098 203 219 255
115.142 88.1333 122.385 217 227 255
92.3404 173.938 110.186 255 234 217
92.3569 173.937 110.198 255 233 216
122.428 120.41 117.385 255 249 242
92.318 173.933 110.171 222 230 255
76.2661 139.28 109.095 221 230 255
126.486 140.507 107.19 214 225 255
119.743 138.78 99.9561 201 218 255
109.838 146.988 109.531 255 142 28
117.983 118.094 118.091 255 212 177
63.4282 145.058 111.833 197 215 255
91.6765 173.741 109.473 221 230 255
92.3805 173.937 110.214 187 209 255
13.1143 200.809 95.8645 196 215 255
174.89 2.49924 111.231 193 212 255
93.191 173.815 110.776 217 227 255
113.588 123.158 92.74 255 227 204
112.654 114.137 112.863 255 239 224
88.3404 137.504 129.024 255 229 208
67.1666 135.674 113.021 231 236 255
110.858 117.566 115.679 255 248 240
92.3255 173.938 110.174 202 218 255
125.326 110.161 117.055 255 239 225
94.8877 164.883 111.889 199 216 255
122.104 121.147 105.432 215 226 255
161.256 97.3676 105.096 212 224 255
105.146 124.728 107.262 255 246 237
92.3312 173.938 110.179 224 231 255
82.7153 165.858 101.172 185 208 255
211.208 162.039 98.2569 255 215 184
92.5046 174.586 110.151 205 220 255
115.214 129.07 127.551 255 194 144
55.5019 108.036 78.161 199 216 255
87.2131 103.657 119.889 255 248 240
120.258 116.221 120.107 255 196 148
92.3442 173.938 110.189 201 218 255
48.2575 111.766 115.939 186 208 255
92.3185 173.939 110.168 212 224 255
92.6713 191.021 99.7135 255 145 37
103.003 76.5751 119.453 255 245 235
92.3438 173.938 110.189 191 211 255
117.465 121.747 99.7465 209 222 255
50.2041 150.581 107.994 210 223 255
108.362 129.437 105.305 255 189 134
140.527 66.1532 117.679 191 211 255
109.348 100.381 122.518 218 228 255
20.6413 78.8076 111.083 204 219 255
95.1331 36.0684 100.412 212 224 255
201.511 121.082 129.594 200 217 255
116.773 4.94369 99.3681 190 211 255
53.2544 129.728 88.6429 255 231 212
70.848 78.0716 117.394 208 222 255
97.7421 98.3594 112.758 210 223 255
92.3343 173.938 110.181 209 223 255
169.953 80.3054 94.7167 248 245 255
106.403 108.144 104.382 255 235 218
109.509 112.356 122.15 255 199 153
116.222 168.767 122.91 225 232 255
57.888 82.7696 110.542 255 219 190
87.2622 159.248 97.1675 255 227 204
115.816 77.4818 111.559 240 240 255
155.061 99.1194 85.093 209 222 255
27.8499 74.8697 111.685 192 212 255
28.277 17.028 125.441 232 236 255
103.247 103.979 98.5935 255 246 238
216.306 28.0094 100.161 179 203 255
117.198 104.098 105.077 216 226 255
111.507 127.743 110.219 211 223 255
146.423 90.6078 127.607 198 215 255
107.889 61.1076 125.029 194 213 255
92.3274 173.938 110.176 255 224 199
110.033 183.38 116.742 255 212 178
104.47 103.956 98.9823 215 226 255
92.367 173.937 110.205 211 224 255
160.696 123.41 113.219 206 220 255
120.219 79.652 109.548 201 218 255
117.99 115.283 109.63 255 202 159
5.12778 188.924 118.683 188 209 255
92.5395 173.99 110.247 202 218 255
162.582 103.52 111.459 255 254 251
95.8779 137.399 111.676 215 226 255
69.3512 14.1311 117.056 255 249 255
38.1147 98.9453 112.503 188 209 255
108.433 121.556 119.068 213 224 255
121.887 125.052 111.696 228 233 255
91.2669 140.483 114.408 239 240 255
149.717 89.6429 113.02 202 218 255
92.6037 209.361 96.6346 221 229 255
144.078 139.23 99.8125 196 215 255
127.404 86.45 117.136 206 220 255
93.0037 173.665 111.224 255 246 237
33.6105 71.2876 100.75 200 217 255
92.3366 173.938 110.184 198 216 255
92.3364 173.938 110.183 205 220 255
133.842 94.7265 107.696 207 221 255
119.757 131.292 99.44 242 242 255
92.9779 155.5 126.504 255 249 255
139.487 71.3651 100.466 217 227 255
92.3323 173.938 110.18 208 222 255
44.7067 73.036 115.017 192 212 255
155.187 112.841 110.564 194 213 255
125.212 127.727 108.273 221 229 255
92.3645 173.938 110.205 226 232 255
112.143 102.206 106.041 225 232 255
92.338 173.938 110.184 191 211 255
91.3937 153.239 116.03 197 215 255
90.5416 148.537 115.252 255 162 77
115.15 164.961 97.2092 219 228 255
190.447 40.6408 112.05 201 217 255
92.3414 173.938 110.187 208 222 255
96.744 99.652 120.212 252 247 255
89.5641 112.144 102.379 201 217 255
92.3318 173.938 110.18 188 209 255
148.124 103.405 110.128 202 218 255
134.481 78.9747 113.688 237 239 255
92.0236 173.976 109.85 215 226 255
42.2529 124.423 118.904 212 224 255
109.678 120.185 109.605 255 234 217
124.895 122.353 109.26 222 230 255
36.284 201.175 112.252 191 212 255
127 199.973 89.4119 187 209 255
118.31 163.781 103.332 255 245 235
73.6955 135.23 104.332 198 215 255
59.4497 42.3319 124.459 219 228 255
108.472 110.956 115.771 197 215 255
43.0974 15.1408 84.3579 208 222 255
107.458 141.245 118.722 207 221 255
115.462 111.369 119.574 210 223 255
92.3357 173.938 110.182 219 229 255
92.4156 173.939 110.233 255 251 246
92.3518 173.937 110.195 219 228 255
140.285 128.046 89.5068 239 240 255
110.988 89.7916 103.791 244 243 255
126.518 145.211 109.235 192 212 255
75.2217 29.9516 122.283 180 204 255
92.4036 173.938 110.226 212 224 255
137.394 169.078 112.232 208 222 255
92.3348 173.938 110.182 201 218 255
108.512 113.559 109.949 255 152 55
140.359 123.664 108.13 185 207 255
136.135 120.598 126.746 255 247 238
79.0292 159.965 99.9575 208 222 255
123.944 112.172 107.819 255 220 193
119.925 125.285 112.941 206 220 255
105.732 75.5763 118.88 189 210 255
94.3611 109.724 123.036 215 226 255
162.21 115.738 82.5642 255 233 215
89.2658 117.598 107.701 194 213 255
110.365 135.637 106.745 232 236 255
111.474 71.904 114.444 204 219 255
115.425 126.53 105.436 255 231 212
92.3038 173.94 110.155 207 221 255
89.9596 107.82 124.953 210 223 255
70.2029 75.1883 105.476 200 217 255
92.3415 173.938 110.187 232 236 255
70.9536 167.634 141.408 231 235 255
46.9691 64.3217 54.3246 207 221 255
107.663 28.4277 104.1 198 215 255
92.3453 173.938 110.19 255 221 193
112.193 25.6055 122.077 215 226 255
92.336 173.938 110.182 204 219 255
132 192.601 136.139 183 206 255
45.9537 60.4967 116.926 188 209 255
60.2423 154.356 110.676 218 228 255
106.941 102.211 110.622 255 243 232
132.079 90.3129 103.73 207 221 255
96.6096 107.61 117.616 204 219 255
43.0898 77.9734 98.9531 202 218 255
169.014 53.4011 120.703 194 213 255
156.961 128.151 115.329 255 249 255
92.2934 173.94 110.137 199 216 255
154.785 36.3793 112.026 194 213 255
108.512 94.3182 118.296 186 208 255
77.6131 10.3468 152.596 193 213 255
92.3619 173.936 110.202 205 220 255
92.3418 173.938 110.187 192 212 255
92.3377 173.938 110.184 249 246 255
92.2079 173.279 110.552 236 238 255
177.285 142.654 50.4834 185 207 255
115.972 123.657 100.29 211 223 255
96.1771 117.399 114.533 255 210 174
144.389 79.112 87.6301 255 222 195
80.6745 27.5397 108.978 222 230 255
127.724 163.279 107.216 186 208 255
129.398 30.7352 110.859 187 209 255
66.1849 173.583 111.235 213 225 255
140.879 153.6 112.945 192 212 255
93.0066 142.769 117.741 199 216 255
78.1273 185.468 89.6505 217 227 255
92.3351 173.938 110.182 208 222 255
129.028 156.441 99.8269 191 211 255
119.007 123.507 119.108 229 234 255
149.981 85.7714 95.652 178 203 255
149.146 161.105 115.528 186 208 255
92.1792 181.478 109.393 255 228 206
92.4506 173.955 110.208 204 219 255
44.5624 128.767 124.187 249 246 255
66.8395 47.2556 100.139 188 209 255
102.549 99.5293 109.761 255 247 238
49.6076 81.2168 125.26 196 214 255
106.51 105.847 114.342 195 214 255
92.3393 173.942 110.175 205 220 255
132.663 140.995 112.312 191 211 255
102.747 121.017 108.793 255 211 176
45.0794 114.665 106.079 255 215 184
50.3293 67.7654 116.988 222 230 255
106.686 127.387 108.608 255 233 215
106.953 173.402 86.6623 201 218 255
125.035 51.1248 119.229 202 218 255
95.7034 113.37 110.629 255 232 213
92.335 173.938 110.182 202 218 255
92.3721 173.937 110.208 195 214 255
83.3244 86.2177 111.705 203 219 255
107.027 95.6132 115.299 255 243 232
92.1991 174.34 109.764 255 246 237
81.7868 127.053 95.9278 206 220 255
144.179 137.889 98.3671 229 234 255
155.454 24.8545 108.465 207 221 255
103.861 100.823 114.942 214 225 255
131.681 131.189 117.014 255 242 231
106.635 41.9157 147.101 193 212 255
2.49398 113.418 115.192 189 210 255
92.3369 173.938 110.183 191 211 255
113.311 95.3241 123.782 255 248 239
92.3255 173.938 110.174 255 241 228
146.639 64.6826 109.949 191 211 255
94.0113 173.853 112.137 230 235 255
73.7372 180.707 92.7261 206 221 255
112.784 121.299 114.205 255 191 138
131.294 128.045 104.241 209 222 255
105.422 81.314 124.442 212 224 255
196.842 138.128 118.099 182 206 255
178.801 13.4186 111.029 217 227 255
111.433 103.805 110.411 192 212 255
113.399 44.4404 142.477 255 227 205
66.2747 28.0836 88.889 199 216 255
85.9531 145.593 101.162 208 221 255
79.588 144.056 116.401 209 222 255
116.029 98.3037 107.271 255 222 195
66.5599 112.75 77.5872 229 234 255
135.911 79.0307 91.1641 202 218 255
137.42 64.8619 37.5571 215 226 255
173.078 120.226 40.9617 255 235 219
103.485 129.923 101.444 197 215 255
5.10686 120.449 116.295 194 213 255
92.3106 173.94 110.161 255 231 212
120.965 102.881 120.733 219 228 255
107.411 190.279 111.63 195 214 255
92.3756 173.937 110.211 208 222 255
92.4046 173.939 110.227 222 230 255
72.0872 131.316 89.8513 223 231 255
92.3887 173.938 110.219 255 189 135
58.7775 143.442 106.968 207 221 255
180.921 75.4788 114.565 204 219 255
55.0225 144.668 95.2551 208 222 255
160.291 74.8078 124.269 204 219 255
115.965 196.021 108.673 239 240 255
92.2936 173.943 110.145 216 227 255
107.004 91.7262 109.596 255 239 226
37.3276 100.642 124.163 203 219 255
140.592 144.914 166.678 211 223 255
179.077 25.8649 114.38 191 211 255
68.2993 106.851 122.268 201 218 255
54.4128 97.2356 115.553 196 215 255
122.999 141.379 109.063 255 249 242
159.598 176.469 112.492 200 217 255
114.237 117.201 111.381 216 226 255
105.652 91.765 116.609 221 230 255
105.184 6.71964 103.55 194 213 255
14.2091 117.824 129.084 201 218 255
214.711 8.78028 118.934 188 209 255
122.567 140.158 101.11 255 253 249
97.0911 163.694 112.323 242 241 255
114.367 99.5872 105.177 255 252 248
218.856 21.327 121.001 180 204 255
101.397 138.876 109.686 199 216 255
123.788 140.8 119.579 184 207 255
98.0518 145.223 104.397 230 235 255
133.426 105.231 99.6362 255 208 171
224.538 140.093 115.922 184 207 255
92.2979 173.942 110.15 185 207 255
187.189 96.5704 118.578 185 208 255
123.676 183.349 119.275 213 225 255
104.837 15.116 131.159 196 214 255
107.086 98.5095 113.234 255 179 114
106.632 187.129 110.077 210 223 255
136.909 71.0104 106.108 250 246 255
138.578 24.709 109.018 200 217 255
114.687 116.548 119.318 219 228 255
108.463 169.065 100.801 255 239 226
77.8006 169.658 105.572 255 206 168
134.625 56.6838 116.289 215 226 255
137.69 121.239 113.958 221 230 255
59.088 125.685 110.308 193 212 255
29.2684 149.7 114.873 187 209 255
59.4458 86.9251 124.512 187 209 255
112.569 136.876 99.9095 223 231 255
100.046 145.809 108.209 233 236 255
92.3322 173.938 110.18 237 239 255
118.765 144.095 99.1653 250 246 255
77.6794 128.335 116.221 201 218 255
108.167 36.0735 92.1133 193 212 255
34.1463 170.463 111.283 186 208 255
92.77 173.806 110.667 200 217 255
131.021 99.2004 117.753 255 236 221
108.78 152.94 107.91 192 212 255
92.3472 173.936 110.2 210 223 255
54.4599 125.571 111.423 213 225 255
149.697 127.21 117.069 178 203 255
93.7268 187.916 86.4364 255 201 157
131.666 74.5263 117.264 255 253 249
61.2528 101.2 100.26 204 219 255
92.3376 173.938 110.184 195 213 255
136.187 90.4933 112.722 204 220 255
85.9094 173.604 111.357 217 227 255
164.193 59.0553 115.384 227 233 255
92.2995 173.941 110.152 181 205 255
75.1618 185.363 112.811 189 210 255
51.5127 114.438 117.37 208 222 255
119.765 132.489 95.7674 255 211 176
157.142 144.548 107.222 199 216 255
159.05 90.4164 172.179 255 243 232
92.2117 173.973 110.112 207 221 255
33.8419 105.039 140.948 207 221 255
92.3374 173.938 110.184 216 227 255
92.3112 173.932 110.123 198 215 255
121.23 132.515 112.095 225 232 255
47.8233 100.76 120.298 212 224 255
123.482 153.031 103.448 235 238 255
163.555 25.0569 109.05 190 211 255
183.924 20.8897 122.777 191 211 255
35.2042 128.677 110.715 185 207 255
113.74 82.7935 117.587 184 207 255
16.9401 149.849 110.609 191 212 255
119.961 108.797 104.285 255 222 196
92.564 174.591 110.802 221 230 255
112.412 105.377 104.519 222 230 255
164.001 89.3172 157.072 209 222 255
68.2475 90.6756 113.42 216 226 255
130.099 50.8649 116.605 213 225 255
120.525 78.9747 117.116 189 210 255
52.4465 151.933 116.725 246 244 255
104.898 138.646 115.102 255 166 87
130.191 112.907 95.0163 255 233 216
124.002 121.316 118.619 255 239 225
92.3373 173.938 110.183 225 232 255
127.579 75.6681 101.423 224 231 255
85.1334 99.4588 100.678 201 218 255
71.063 132.535 122.496 194 213 255
62.1096 101.211 95.5727 205 220 255
196.121 199.105 78.6074 198 216 255
107.726 80.4016 117.59 200 217 255
92.213 173.96 110.116 178 203 255
111.008 110.93 121.011 226 233 255
36.4506 111.47 108.984 222 230 255
113.218 159.076 121.72 196 215 255
95.4867 144.299 109.069 255 249 242
117.146 99.7773 117.681 217 227 255
23.0326 83.4011 109.729 184 207 255
107.478 98.8372 127.724 226 232 255
120.04 136.183 104.149 207 221 255
86.6535 161.506 111.564 204 220 255
35.6378 86.0437 108.118 202 218 255
92.3374 173.938 110.184 206 221 255
98.3984 152.468 105.368 251 247 255
92.3519 173.839 110.423 255 245 235
152.908 147.869 109.757 189 210 255
175.151 52.1874 113.8 209 223 255
109.37 48.6739 115.019 218 228 255
92.3369 173.938 110.183 197 215 255
104.837 101.509 113.846 235 238 255
199.538 143.217 113.429 188 209 255
113.782 133.856 103.452 220 229 255
128.086 73.6993 112.259 218 228 255
72.5187 118.533 113.35 189 210 255
90.1592 183.698 111.672 255 243 233
67.002 112.151 107.045 200 217 255
92.364 173.937 110.203 209 222 255
92.3393 173.938 110.185 213 225 255
92.3347 173.938 110.182 255 238 223
110.734 135.165 116.604 255 250 255
115.1 134.085 105.975 202 218 255
77.582 34.0675 104.354 255 246 237
129.114 113.847 97.4144 255 230 209
71.7704 216.101 113.056 181 205 255
92.3373 173.938 110.184 195 214 255
110.898 137.021 104.3 252 247 255
125.063 90.5857 109.803 221 230 255
68.5065 134.829 109.47 200 217 255
125.605 92.9207 109.204 224 231 255
168.196 90.5143 120.661 236 238 255
92.323 173.939 110.172 216 226 255
92.3836 173.938 110.216 255 245 236
92.3122 173.939 110.163 190 210 255
97.8804 89.5067 112.674 255 250 244
117.571 173.249 106.326 205 220 255
37.1647 84.1687 119.303 180 204 255
104.102 126.418 99.7233 210 223 255
70.427 38.6728 124.129 207 221 255
118.359 130.569 102.851 255 226 203
184.465 44.1327 119.089 236 238 255
92.3305 173.938 110.178 209 222 255
99.185 167.638 102.706 225 232 255
91.7915 174.655 110.021 255 231 211
113.736 103.07 110.514 206 220 255
76.6462 164.639 114.229 191 211 255
92.3278 173.947 110.17 208 222 255
92.3359 173.938 110.183 188 209 255
43.9907 112.271 132.678 211 223 255
121.962 143.599 116.112 228 233 255
131.255 81.565 121.194 241 241 255
28.2193 201.278 106.1 190 211 255
20.0913 186.037 102.283 207 221 255
133.887 122.976 119.53 255 246 237
157.999 70.0582 81.4708 196 214 255
199.639 102.229 92.7438 255 234 217
106.219 112.719 128.569 255 224 199
40.0541 196.643 108.658 206 221 255
119.292 87.7103 105.19 255 251 255
80.1139 176.378 109.441 253 248 255
76.7917 139.472 104.774 198 216 255
107.241 114.827 105.222 255 240 226
118.941 2.622 153.6 209 222 255
119.986 107.404 121.039 235 238 255
162.899 83.4375 124.876 247 245 255
130.57 6.13856 138.227 195 213 255
64.6151 94.5177 122.343 202 218 255
92.3337 173.938 110.181 255 244 234
125.208 152.443 124.24 182 206 255
129.463 75.3388 119.101 201 218 255
20.4773 100.989 114.525 217 227 255
66.4652 47.1632 106.809 186 208 255
77.3995 124.27 112.484 184 207 255
92.3681 173.937 110.206 211 223 255
131.996 158.771 106.475 188 209 255
104.788 109.471 120.029 209 223 255
105.504 167.559 118.52 195 214 255
92.3881 173.938 110.218 218 228 255
174.409 143.687 107.473 215 226 255
93.5063 129.691 114.022 255 251 246
75.746 46.1993 94.8895 232 236 255
103.7 164.317 104.06 255 233 216
93.6733 115.986 105.997 219 229 255
112.365 113.872 92.1242 255 132 2
92.3567 173.937 110.198 221 229 255
108.43 128.236 121.545 255 227 205
117.133 168.707 121.563 218 228 255
164.509 40.4258 113.97 192 212 255
92.3366 173.938 110.183 203 219 255
92.3421 173.938 110.187 255 249 243
7.40717 156.648 94.9423 190 211 255
77.1474 33.0883 98.1518 214 225 255
87.0267 125.244 96.064 204 219 255
105.204 139.005 83.6075 250 246 255
92.3127 66.0601 115.2 211 223 255
127.777 82.4316 115.756 206 220 255
92.4671 173.944 110.251 198 216 255
124.036 137.282 92.9087 255 248 240
92.4856 173.929 110.029 190 211 255
113.897 155.575 107.569 255 238 223
80.4965 206.871 120.05 184 207 255
127.624 199.976 103.96 188 209 255
126.471 36.762 57.3016 194 213 255
107.242 100.284 114.621 216 226 255
116.366 124.986 106.535 195 214 255
104.759 125.043 104.193 192 212 255
17.2825 115.761 141.025 201 218 255
114.416 127.787 110.186 200 217 255
121.252 102.415 118.614 255 230 209
105.032 6.62271 101.414 236 238 255
72.482 75.061 112.631 204 219 255
92.3224 173.939 110.172 205 220 255
203.4 154.852 114.855 186 208 255
92.3326 173.938 110.18 199 216 255
214.044 44.7253 107.481 180 204 255
74.0683 210.495 119.04 196 215 255
115.811 67.6304 117.184 201 217 255
91.8803 173.521 109.657 255 249 242
92.3297 173.938 110.178 212 224 255
102.365 4.53962 69.1311 200 217 255
92.3388 173.938 110.185 214 225 255
92.3388 173.938 110.185 218 228 255
92.3324 173.938 110.18 212 224 255
92.319 173.939 110.169 220 229 255
92.3331 173.938 110.181 203 219 255
105.925 98.2159 124.766 221 229 255
84.0128 170.056 107.735 255 225 201
127.321 76.7188 112.243 225 232 255
121.986 149.106 123.609 233 237 255
92.336 173.938 110.183 206 221 255
97.4992 115.073 129.241 255 244 234
124.436 91.0416 92.9423 210 223 255
92.3692 173.937 110.207 191 212 255
60.4412 114.892 90.3128 197 215 255
84.9226 98.0898 112.064 193 212 255
119.335 98.7157 100.258 222 230 255
55.3749 128.282 94.5406 215 226 255
90.7144 48.454 111.964 198 216 255
37.6838 143.499 113.696 245 243 255
74.499 94.4057 112.27 227 233 255
