ply
format ascii 1.0
element vertex 1340
property float x
property float y
property float z
property uchar red
property uchar green
property uchar blue
end_header
109.889 102.002 116.507 255 253 248
121.917 111.545 105.239 255 229 209
41.4671 60.7945 111.516 208 222 255
115.735 95.1697 118.205 255 247 238
94.036 173.688 110.864 255 247 238
149.581 20.1262 121.322 205 220 255
93.7468 173.836 110.731 249 245 255
122.029 79.91 127.625 200 217 255
90.9706 171.393 121.332 255 245 235
132.239 72.7578 119.612 196 214 255
96.4046 125.138 110.145 189 210 255
171.665 100.384 117.584 210 223 255
149.647 116.484 97.7983 255 243 232
74.7056 83.8737 206.751 188 209 255
93.7692 173.897 110.728 213 224 255
153.645 165.461 88.0408 203 218 255
57.1717 98.8408 99.0684 186 208 255
135.916 87.1959 92.7189 255 230 209
112.454 86.7934 120.934 255 247 239
63.3367 172.989 123.465 218 228 255
67.5615 85.0935 112.011 255 249 242
116.006 108.899 114.147 203 219 255
106.599 127.165 135.64 251 247 255
112.92 158.744 112.991 220 229 255
85.4107 58.1638 21.7378 194 213 255
77.9128 76.5811 110.955 222 230 255
195.503 105.275 120.466 208 221 255
93.8824 173.704 110.821 225 232 255
65.3111 72.8925 111.154 206 221 255
88.4062 109.443 117.409 218 228 255
93.8796 173.704 110.82 189 210 255
80.4185 144.211 109.023 255 254 250
89.696 152.313 113.368 196 214 255
93.8714 173.704 110.818 201 218 255
134.647 120.964 113.202 255 250 255
145.682 95.2966 119.963 214 225 255
103.727 106.554 104.655 230 235 255
119.202 124.931 117.001 255 242 230
96.0856 109.37 109.308 228 234 255
72.5906 136.021 88.8775 197 215 255
10.9922 153.872 112.665 201 217 255
167.025 105.327 132.231 190 211 255
198.622 49.6656 114.228 178 203 255
51.8907 194.47 103.281 201 218 255
115.841 110.565 123.207 255 179 115
104.954 138.365 114.37 255 236 219
131.492 118.718 85.8344 210 223 255
107.918 178.937 109.472 209 222 255
90.082 151.608 111.21 255 246 237
140.809 124.033 108.329 233 236 255
67.3777 131.668 113.474 255 249 241
148.626 87.8748 134.235 215 226 255
127.468 173.46 97.1146 183 206 255
105.333 109.302 123.45 205 220 255
94.5386 143.508 110.067 228 234 255
143.533 121.246 111.068 218 227 255
174.117 107.432 131.732 190 210 255
174.201 119.717 117.086 235 238 255
110.53 120.149 108.4 255 238 224
152.482 15.7367 113.059 199 216 255
93.9182 173.703 110.831 190 211 255
104.821 153.697 108.434 237 238 255
101.585 31.0496 92.8204 190 211 255
113.32 75.5912 104.217 198 216 255
103.23 168.642 107.577 255 250 243
45.6769 207.352 107.254 182 206 255
126.62 162.247 113.354 216 227 255
137.468 59.1207 79.7784 205 220 255
169.13 136.809 112.568 189 210 255
120.709 121.698 126.535 216 226 255
121.205 131.672 105.953 255 241 228
116.931 104.195 105.942 196 214 255
97.5867 175.553 83.2975 204 219 255
60.7039 156.365 117.791 255 246 236
140.074 138.684 108.704 255 250 255
108.617 139.289 126.683 211 223 255
121.305 99.4034 100.316 206 220 255
93.8656 173.705 110.816 192 212 255
78.6948 81.4693 113.459 255 255 252
123.812 85.6156 113.592 231 235 255
57.4235 104.859 111.32 195 214 255
110.098 113.461 113.829 219 228 255
137.386 20.5221 117.644 210 223 255
93.8798 173.704 110.82 194 213 255
65.4496 129.057 113.143 217 227 255
37.3168 140.59 110.926 198 215 255
123.297 147.857 111.858 213 224 255
82.521 165.658 103.217 197 215 255
106.733 121.137 93.8714 229 234 255
93.8975 173.704 110.826 192 212 255
160.974 98.3095 138.067 231 235 255
100.507 164.822 111.135 255 180 117
213.536 31.722 105.968 181 205 255
147.371 13.3949 109.22 188 210 255
134.156 12.1919 105.757 186 208 255
35.124 118.023 111.886 252 247 255
124.073 184.542 113.749 200 217 255
81.4312 136.695 109.141 236 238 255
52.0391 49.5083 102.217 197 215 255
93.8681 173.705 110.817 220 229 255
18.7919 122.768 108.803 204 219 255
105.417 99.6953 103.241 220 229 255
87.4483 122.362 115.543 243 242 255
113.897 100.518 121.834 203 218 255
122.155 72.1239 116.134 197 215 255
64.2605 85.4188 112.145 202 218 255
184.606 68.537 111.923 212 224 255
110.643 127.914 114.726 194 213 255
125.954 47.5178 116.849 195 214 255
140.87 60.8456 110.452 255 236 221
59.9993 120.506 113.79 206 221 255
29.1057 147.996 110.411 187 209 255
73.394 27.5944 115.424 209 222 255
152.329 160.31 119.298 197 215 255
98.6262 37.9073 112.069 181 205 255
52.624 116.581 127.617 212 224 255
93.86 173.705 110.815 190 211 255
90.7104 35.0456 106.546 190 210 255
57.1845 140.461 114.383 192 212 255
118.651 118.201 109.979 255 215 183
194.274 48.2549 112.443 197 215 255
113.795 151.7 111.993 209 222 255
36.6842 113.555 130.337 200 217 255
174.501 163.538 139.342 204 219 255
131.066 107.217 121.647 255 233 214
94.5021 173.733 110.774 255 238 224
174.004 91.9598 118.607 214 225 255
112.668 115.804 98.5839 255 220 193
123.661 129.423 120.79 255 223 197
90.1113 119.712 110.967 255 242 230
128.32 149.684 115.794 191 211 255
106.419 83.9208 120.014 207 221 255
129.07 113.031 110.565 255 227 204
141.419 75.847 120.43 213 225 255
83.1569 94.1093 114.747 255 248 240
184.082 102.294 135.254 198 215 255
19.7108 126 113.813 192 212 255
93.8758 173.704 110.819 204 219 255
192.287 19.6193 113.461 184 207 255
153.603 121.244 106 208 222 255
122.472 144.051 106.438 212 224 255
94.2778 174.133 111.034 201 217 255
93.8571 173.705 110.814 211 223 255
30.563 161.239 112.515 195 214 255
10.54 198.39 110.728 213 225 255
102.844 104.634 100.097 226 232 255
123.928 135.388 105.834 255 231 212
113.283 124.396 109.493 234 237 255
102.027 97.9379 116.016 255 253 248
54.511 114.29 117.992 191 211 255
71.2193 122.789 106.556 180 204 255
151.898 72.8617 116.172 188 209 255
58.5164 122.473 97.7966 244 243 255
144.07 186.156 122.536 189 210 255
89.8701 103.709 116.282 229 234 255
125.522 157.679 108.991 228 234 255
106.504 137.829 114.631 247 245 255
93.9321 173.703 110.835 224 231 255
114.159 80.6873 112.712 234 237 255
93.8761 173.704 110.819 209 222 255
95.1147 174.599 111.291 187 209 255
126.923 161.083 104.716 195 214 255
87.6716 40.5136 104.441 197 215 255
107.819 111.814 112.463 249 245 255
69.7743 102.494 109.17 224 231 255
93.9011 173.706 110.828 212 224 255
132.374 105.489 110.669 193 213 255
93.8078 173.7 110.871 248 245 255
93.9093 173.703 110.829 198 216 255
134.017 98.0984 108.664 255 216 186
125.715 149.886 117.314 194 213 255
93.8907 173.704 110.824 244 243 255
109.313 114.235 109.102 255 224 199
106.334 92.2049 121.081 192 212 255
110.14 111.109 121.826 255 155 61
118.899 101.037 112.037 193 212 255
93.8498 173.695 110.801 210 223 255
69.7748 65.0233 104.314 207 221 255
131.281 120.578 116.814 255 222 195
155.209 109.257 111.351 184 207 255
7.58882 26.9833 80.7639 199 216 255
102.157 118.623 103.587 228 233 255
104.298 119.371 120.338 223 230 255
107.592 112.068 119.528 242 241 255
91.022 154.189 115.226 203 219 255
124.089 134.96 95.2349 255 193 143
202.81 29.7114 121.613 183 206 255
135.549 4.95971 124.484 188 210 255
94.3499 173.953 110.261 199 216 255
125.595 45.7009 127.991 255 227 204
67.3612 42.5746 114.574 198 215 255
148.029 96.4471 117.453 195 214 255
66.8556 48.8235 110.364 255 241 228
95.2809 162.665 105.129 255 217 187
100.325 129.715 122.711 255 240 226
219.078 151.149 116.422 187 209 255
106.781 151.43 104.482 195 213 255
117.899 194.513 88.2869 210 223 255
52.688 145.669 85.4516 200 217 255
16.6581 114.476 119.813 216 226 255
8.46765 172.41 111.221 209 223 255
10.0869 172.398 114.083 197 215 255
69.5631 115.36 114.59 214 225 255
107.85 79.7341 114.064 202 218 255
53.6885 90.5929 109.673 212 224 255
58.7064 208.297 116.16 199 216 255
74.5797 126.211 109.603 255 249 242
126.452 126.192 120.994 255 251 245
111.712 112.437 109.597 255 230 210
77.968 139.065 101.63 213 225 255
112.845 101.296 104.284 229 234 255
67.0991 120.759 110.845 212 224 255
126.027 109.626 103.894 255 252 247
147.851 127.173 115.299 255 254 250
90.7199 121.992 116.426 255 251 246
111.148 90.2918 113.249 250 246 255
107.798 100.887 109.221 255 230 210
35.628 32.5328 135.133 181 205 255
104.017 84.9858 110.474 223 231 255
93.8944 173.703 110.825 198 216 255
111.246 84.7722 123.589 203 219 255
77.2942 103.166 112.969 209 223 255
108.701 110.463 112.979 229 234 255
93.8621 173.705 110.815 212 224 255
146.681 74.5522 121.066 210 223 255
87.5045 106.391 113.035 191 211 255
147.791 128.262 111.229 207 221 255
38.7283 220.187 101.729 188 209 255
93.8541 173.705 110.812 242 242 255
39.6723 109.696 145.314 215 226 255
94.0493 173.705 110.868 205 220 255
93.9888 173.748 110.854 196 214 255
152.862 110.528 129.51 196 214 255
93.8773 173.703 110.819 236 238 255
22.9777 179.582 110.125 187 209 255
60.2558 68.1458 104.844 255 240 227
113.894 110.172 111.264 255 247 239
120.921 118.561 112.865 241 241 255
132.133 87.7839 115.29 255 174 104
122.232 83.682 110.494 197 215 255
93.8776 173.704 110.82 221 229 255
93.8653 173.705 110.816 197 215 255
51.0335 136.756 109.241 255 236 221
85.4538 191.001 97.2771 209 222 255
52.3961 42.651 118.904 191 211 255
110.971 94.9304 121.507 218 227 255
86.6648 137.633 114.662 247 245 255
86.1392 137.706 108.988 211 223 255
84.7689 69.5525 115.587 229 234 255
109.358 127.761 112.525 216 227 255
109.147 101.158 108.104 255 232 212
107.504 112.213 120.958 204 220 255
67.6333 69.4477 115.387 198 216 255
40.0005 46.4576 112.922 213 224 255
86.9209 91.9657 109.815 255 252 246
76.3784 29.5048 114.63 194 213 255
100.244 93.8665 110.288 255 233 215
93.9435 173.703 110.838 204 219 255
106.701 78.4491 105.658 255 183 123
93.7601 173.694 110.766 255 240 227
122.832 112.764 91.3942 244 242 255
93.9206 173.703 110.833 225 232 255
101.478 120.306 119.578 211 224 255
120.799 129.615 104.99 232 236 255
105.215 129.065 106.445 255 191 138
93.8737 173.704 110.819 255 245 235
90.5824 174.027 113.554 203 219 255
102.242 111.475 124.407 255 233 215
98.2384 40.2013 113.739 200 217 255
133.044 151.4 120.69 180 204 255
77.1926 152.453 129.094 221 230 255
128.26 203.46 130.113 202 218 255
64.5556 124.49 118.229 187 209 255
123.105 152.149 114.322 180 204 255
116.113 140.808 109.544 199 216 255
73.1921 107.913 111.952 223 231 255
49.1826 36.8499 93.0997 185 208 255
115.509 81.9847 124.952 197 215 255
93.8217 173.76 110.985 255 227 205
124.298 83.3734 104.251 210 223 255
118.203 82.5805 115.489 250 246 255
103.392 83.6674 113.861 232 236 255
109.844 129.555 113.506 224 231 255
146.354 156.217 110.368 198 216 255
27.6616 149.517 113.339 206 220 255
123.34 131.35 98.9188 255 217 186
120.553 190.373 110.989 213 225 255
29.4158 89.3928 114.127 224 231 255
123.322 140.384 110.713 216 226 255
98.1061 23.4859 83.0223 196 214 255
93.9106 173.703 110.829 255 247 239
104.634 125.259 119 222 230 255
156.606 70.7818 113.419 211 223 255
114.843 138.503 106.695 255 201 158
124.637 151.185 84.5323 216 226 255
80.3148 115.945 109.444 232 236 255
116.83 119.077 115.637 197 215 255
93.9597 173.704 110.848 198 215 255
117.821 84.5797 115.207 207 221 255
118.059 119.447 111.6 195 214 255
79.059 139.958 112.054 211 224 255
62.045 74.6869 111.04 226 233 255
207.155 130.654 65.6053 223 231 255
18.3029 102.293 141.677 211 224 255
91.4236 173.837 110.843 207 221 255
116.859 132.903 104.032 221 229 255
67.2294 152.703 124.081 255 197 149
93.8797 173.712 110.826 218 228 255
94.0619 173.71 110.895 202 218 255
93.9705 173.708 110.847 227 233 255
131.514 85.7623 112.34 209 222 255
185.374 36.1208 113.996 186 208 255
113.817 129.598 109.679 218 227 255
144.427 119.974 115.783 255 232 213
77.5624 175.68 115.72 193 213 255
131.567 97.025 141.736 198 215 255
93.8634 173.705 110.816 210 223 255
73.449 27.5372 97.0877 198 216 255
201.259 112.886 117.719 191 211 255
67.2812 158.276 109.623 201 218 255
128.727 53.3163 114.803 205 220 255
127.077 196.401 88.1857 199 216 255
106.101 176.654 119.142 255 242 229
115.572 138.658 106.534 255 250 255
71.9373 119.907 115.365 209 223 255
93.8563 173.705 110.814 205 220 255
66.1841 82.1303 112.754 206 220 255
116.278 104.761 116.22 255 172 99
66.384 26.8273 102.182 193 212 255
207.652 209.162 129.202 176 202 255
93.87 173.704 110.818 208 222 255
121.017 138.776 106.826 235 237 255
129.574 195.554 114.413 199 216 255
179.382 79.6835 114.973 217 227 255
78.0491 176.809 99.0248 216 227 255
92.5899 184.525 117.183 245 243 255
76.2751 131.607 128.275 211 224 255
108.455 219.095 107.661 187 208 255
108.978 106.943 113.813 255 246 238
94.0064 100.183 122.684 212 224 255
121.652 81.1677 114.924 222 230 255
50.4154 117.813 119.536 207 221 255
107.502 16.376 105.18 226 232 255
81.4988 135.718 109.309 203 219 255
93.9329 173.701 110.834 218 227 255
93.9715 173.7 110.84 205 220 255
114.043 118.361 116.013 255 247 238
92.6703 173.717 110.693 194 213 255
18.6811 137.58 112.646 199 216 255
93.8155 173.709 110.802 200 217 255
115.167 110.274 119.753 255 235 219
107.022 144.237 113.132 249 246 255
94.0037 173.706 110.85 201 217 255
165.661 100.307 94.7574 188 209 255
94.7827 40.5373 105.054 190 211 255
99.4321 205.365 117.475 186 208 255
106.227 102.048 108.48 221 229 255
93.5018 172.305 109.475 194 213 255
105.358 142.039 106.818 255 240 227
56.2784 45.5947 115.709 192 212 255
93.8393 173.706 110.809 255 253 248
63.3835 53.0522 124.276 189 210 255
39.198 74.1528 112.404 198 216 255
144.124 162.489 109.615 200 217 255
93.7895 173.728 110.808 188 209 255
28.2818 56.8131 108.632 183 206 255
116.125 119.635 105.625 255 253 249
44.0017 102.67 108.036 218 228 255
93.7872 173.728 110.777 190 211 255
79.0764 170.319 111.039 208 221 255
41.4191 130.174 110.257 191 211 255
37.5958 92.5104 115.085 184 207 255
114.258 113.583 125.302 255 240 228
210.111 135.476 114.785 185 207 255
129.227 82.4355 111.346 255 227 204
72.8739 136.634 108.834 191 211 255
99.6719 168.844 116.666 202 218 255
128.625 81.4985 104.01 192 212 255
82.4658 73.3921 113.256 234 237 255
87.5921 180.963 115.213 203 219 255
223.557 108.142 113.842 185 207 255
156.733 101.522 83.9311 225 232 255
75.2554 134.954 134.941 201 217 255
109.709 88.3866 112.096 246 244 255
93.7901 173.711 110.786 204 219 255
141.164 95.688 110.256 250 246 255
94.4752 147.233 109.78 207 221 255
100.101 95.1849 108.534 209 222 255
130.575 66.7939 110.681 220 229 255
112.153 107.71 102.357 255 232 212
93.9397 173.703 110.838 202 218 255
93.5227 104.286 106.381 255 211 176
93.9775 173.704 110.847 225 232 255
51.2963 159.223 117.238 198 215 255
68.7958 66.5443 104.395 196 214 255
168.177 87.0004 106.692 255 250 244
138.421 140.67 111.932 206 221 255
103.857 177.548 112.029 215 226 255
133.608 71.8431 120.613 194 213 255
97.5511 160.709 123.397 218 228 255
116.366 124.387 111.977 255 228 206
65.6145 156.684 112.235 201 218 255
188.958 103.022 118.805 206 221 255
108.549 101.998 109.454 255 229 208
112.681 180.743 112.926 217 227 255
93.8748 173.704 110.819 197 215 255
23.6027 130.586 114.33 206 220 255
109.997 119.671 112.785 210 223 255
95.5955 31.2954 108.982 202 218 255
73.1034 146.28 114.84 189 210 255
106.319 102.366 109.517 255 246 236
119.274 102.128 86.4213 186 208 255
113.016 87.0917 116.019 193 213 255
56.5317 115.573 91.771 187 209 255
75.5242 135.379 109.646 201 217 255
114.776 85.7228 124.934 205 220 255
193.84 43.1817 111.485 187 209 255
150.999 106.32 88.9877 195 213 255
128.695 186.673 113.618 203 219 255
118.905 129.258 100.57 255 232 213
129.782 130.425 112.582 247 244 255
93.8665 173.705 110.817 209 222 255
40.7614 105.218 113.901 201 218 255
142.96 31.7592 111.927 189 210 255
104.085 2.27562 103.376 184 207 255
140.947 88.7713 117.023 198 216 255
95.1602 174.308 110.671 202 218 255
193.506 100.494 119.507 183 206 255
93.8726 173.704 110.818 207 221 255
93.6933 173.723 110.331 255 166 87
113.321 76.0832 124.267 195 214 255
138.277 133.189 108.683 180 204 255
214.831 72.1145 112.749 193 212 255
93.8266 173.707 110.807 195 214 255
116.198 87.5564 114.494 237 239 255
129.877 84.4724 131.555 249 245 255
115.204 126.174 114.952 255 237 222
126.998 119.318 87.687 255 242 230
96.466 129.978 110.933 230 234 255
113.743 114.429 118.357 255 229 207
88.5829 170.438 108.853 243 242 255
105.268 67.3097 132.031 205 220 255
119.864 116.098 109.681 223 231 255
71.2329 203.839 111.371 197 215 255
108.212 111.743 113.62 252 247 255
129.019 119.865 108.313 211 224 255
105.496 64.1124 117.95 202 218 255
92.1397 138.208 103.956 227 233 255
112.519 98.1134 112.747 253 248 255
216.879 82.7983 114.391 190 210 255
37.4378 26.849 102.845 190 211 255
109.48 83.0571 118.022 255 241 228
85.0339 68.4874 114.586 198 216 255
87.7512 199.216 112.049 187 209 255
121.268 220.591 139.416 223 231 255
91.0528 173.888 110.883 197 215 255
93.8555 173.705 110.813 225 232 255
149.015 64.4975 104.429 219 228 255
66.9079 73.1021 112.516 199 216 255
81.7868 186.532 106.398 255 248 240
157.006 159.995 109.471 230 234 255
102.039 175.127 94.4566 255 248 240
55.0987 55.5522 120.803 217 227 255
93.9236 173.703 110.833 199 216 255
125.422 90.5991 130.365 255 180 116
151.935 78.8965 121.984 208 222 255
128.71 27.8493 113.732 191 211 255
88.3485 139.904 102.227 255 250 255
95.5642 75.5546 117.057 193 212 255
112.208 58.2237 120.301 205 220 255
120.277 102.957 110.106 255 187 130
124.992 101.369 118.597 255 246 237
205.803 167.976 115.027 195 214 255
95.5817 147.778 109.868 219 228 255
119.236 99.167 98.0914 217 227 255
123.755 64.8266 119.66 208 222 255
93.8676 173.574 111.004 220 229 255
93.8261 173.712 110.814 237 239 255
127.003 127.92 123.788 255 202 160
119.426 129.253 115.902 203 218 255
103.624 104.46 106.891 255 251 245
129.75 140.559 90.4201 187 209 255
75.1279 224.394 99.2091 181 205 255
93.8644 173.705 110.816 237 239 255
177.751 46.2334 108.907 192 212 255
86.6655 175.993 111.763 196 214 255
144.899 36.9333 116.441 208 222 255
26.1816 137.543 113.154 217 227 255
40.3505 109.656 111.397 186 208 255
25.777 206.338 103.323 198 216 255
109.803 104.481 116.596 219 228 255
119.17 143.414 102.547 232 236 255
48.3988 89.0119 116.696 199 216 255
186.339 85.3129 109.781 184 207 255
93.8906 173.703 110.822 236 238 255
102.83 106.71 124.231 255 228 205
93.7593 173.703 110.738 200 217 255
93.8605 173.705 110.815 205 220 255
119.181 121.008 115.526 255 191 138
126.181 82.1636 102.305 197 215 255
106.295 153.915 104.968 201 217 255
82.1822 114.621 109.381 255 235 218
93.8917 173.704 110.824 210 223 255
132.606 89.0029 109.455 205 220 255
100.428 133.784 108.993 223 231 255
108.566 36.6915 112.99 214 225 255
125.737 139.242 112.804 198 216 255
105.992 101.658 106.087 255 240 227
116.882 104.481 116.013 255 246 238
124.476 36.9629 115.632 198 215 255
93.8717 173.704 110.818 199 216 255
93.8137 173.709 110.803 203 219 255
138.181 21.5526 116.959 182 206 255
103.073 99.6522 103.262 255 253 249
124.578 129.569 100.719 204 219 255
104.987 116.7 123.413 199 216 255
96.3523 153.762 120.146 207 221 255
112.841 12.7256 105.494 194 213 255
123.582 111.196 97.2216 255 207 168
69.9761 97.1163 114.09 205 220 255
98.6105 45.5158 114.706 188 209 255
169.945 112.51 110.083 193 212 255
140.291 77.3013 138.48 255 254 250
138.028 42.5522 112.668 196 214 255
199.715 28.6455 113.549 206 220 255
114.597 122.592 103.681 232 236 255
122.76 100.813 106.572 255 240 227
63.0388 43.7411 76.3284 186 208 255
71.2778 93.7494 106.319 192 212 255
93.876 173.704 110.819 233 236 255
53.6851 41.7754 120.469 192 212 255
101.995 167.961 103.91 239 240 255
95.4042 156.062 114.059 223 231 255
93.8455 173.706 110.811 195 214 255
107.345 101.662 119.189 207 221 255
105.451 87.5763 104.504 255 253 249
121.064 130.922 93.6313 255 253 248
137.999 68.7637 112.551 202 218 255
94.9809 134.49 110.596 231 236 255
160.425 109.195 111.303 255 242 230
97.3616 104.349 105.769 250 246 255
76.1873 139.505 114.995 203 219 255
119.49 118.461 124.05 255 223 198
93.9263 173.703 110.834 255 249 242
173.476 114.543 101.151 216 226 255
139.584 82.1374 129.258 255 252 248
124.972 68.9094 119.833 240 241 255
214.102 137.782 110.066 190 211 255
107.547 104.242 124.64 255 157 65
71.8371 107.101 84.702 217 227 255
89.3464 155.037 111.328 221 230 255
100.937 94.6008 114.198 199 216 255
111.41 203.436 106.41 212 224 255
93.8736 173.704 110.819 229 234 255
137.281 73.0501 125.679 246 244 255
107.978 114.315 114.552 255 250 243
124.149 120.184 122.814 255 207 169
77.9195 136.373 112.915 187 209 255
153.914 86.5825 110.229 196 214 255
50.7877 48.2538 109.914 205 220 255
96.5434 115.461 110.291 239 240 255
110.925 117.663 118.866 255 228 206
190.373 48.7426 112.442 194 213 255
122.777 121.476 105.567 222 230 255
93.8749 173.698 110.816 222 230 255
99.8395 74.8288 106.472 237 239 255
23.7907 204.625 121.765 194 213 255
112.008 31.5759 107.013 203 219 255
129.97 118.933 95.4395 243 242 255
120.446 138.951 105.23 222 230 255
111.427 36.1328 115.518 200 217 255
135.193 112.8 110.565 231 235 255
97.4632 122.763 119.717 219 228 255
106.313 123.297 99.3815 185 208 255
116.435 148.866 110.525 255 217 187
93.8492 173.706 110.812 210 223 255
132.753 129.104 115.345 255 232 212
100.65 140.624 104.53 255 240 227
111.368 164.182 110.804 249 246 255
30.8552 95.5147 113.735 190 211 255
76.5302 152.56 105.558 255 249 242
141.341 81.4867 100.896 178 203 255
162.283 115.247 79.2531 215 226 255
64.8216 68.0005 112.024 192 212 255
148.843 94.5725 134.804 213 225 255
187.204 85.2401 118.66 189 210 255
109.189 120.899 113.319 255 243 232
182.942 15.6577 77.996 196 214 255
112.048 122.017 111.978 247 244 255
144.516 90.5751 108.006 199 216 255
117.524 94.9402 110.379 255 239 225
75.5263 137.213 113.657 252 247 255
150.904 118.742 109.866 184 207 255
167.031 34.6937 104.579 184 207 255
108.497 107.936 118.673 234 237 255
116.738 80.776 127.664 189 210 255
152.962 167.13 111.425 198 216 255
61.2295 34.3327 112.416 199 216 255
149.109 88.4125 102.656 213 225 255
48.4552 73.805 94.0572 255 232 213
93.8689 173.705 110.817 208 222 255
107.864 168.08 113.389 192 212 255
93.8249 173.707 110.804 201 217 255
94.0843 173.674 110.931 209 222 255
63.4648 42.5667 106.575 196 214 255
104.347 185.74 108.904 197 215 255
79.0079 112.294 108.57 207 221 255
73.8141 148.762 117.705 214 225 255
91.2193 114.352 105.251 211 224 255
143.244 17.0131 113.391 213 225 255
106.185 86.3915 118.945 240 240 255
99.6804 20.3578 134.659 219 228 255
115.383 184.605 110.299 217 227 255
101.156 125.807 106.363 211 224 255
109.862 114.329 111.773 255 250 244
143.141 54.3455 115.239 204 219 255
93.833 173.716 110.787 206 221 255
136.103 72.4408 121.531 218 228 255
71.3475 165.099 118.934 190 211 255
93.9745 173.668 110.814 247 245 255
66.6828 159.879 89.1183 184 207 255
105.186 169.825 101.296 255 242 230
137.465 107.045 99.0854 211 224 255
19.2888 127.428 112.918 189 210 255
74.268 43.5334 90.7952 213 225 255
113.991 135.648 112.369 198 216 255
124.425 48.8927 115.104 210 223 255
93.878 173.704 110.82 189 210 255
110.761 44.825 118.333 203 219 255
151.004 164.111 112.572 198 215 255
60.6381 145.184 109.116 202 218 255
73.771 31.7144 119.516 186 208 255
160.774 0.00971627 106.647 203 219 255
116.168 126.801 97.8765 255 229 209
93.726 173.714 110.664 206 221 255
102.441 149.428 113.461 186 208 255
97.8837 161.87 117.991 231 235 255
105.06 106.256 106.742 230 235 255
49.548 16.6505 110.519 190 211 255
91.81 52.3771 104.484 255 250 244
93.0615 174.596 110.935 203 219 255
117.757 109.671 114.677 206 221 255
94.96 192.39 106.961 217 227 255
121.611 55.4316 119.264 184 207 255
119.913 97.5017 108.999 210 223 255
85.7546 174.617 116.802 255 230 210
154.465 76.0995 131.198 205 220 255
120.532 110.387 96.0262 187 209 255
169.278 139.294 118.081 196 214 255
203.506 151.631 109.651 197 215 255
190.039 42.9706 112.254 189 210 255
101.79 124.084 127.14 212 224 255
117.59 132.722 100.836 255 216 185
98.574 154.504 111.711 207 221 255
55.7905 126.217 97.7849 255 237 222
118.584 111.504 115.323 238 239 255
154.513 111.484 119.718 210 223 255
93.7278 173.814 110.835 246 244 255
112.65 122.72 114.438 223 231 255
143.183 131.237 90.9621 210 223 255
142.181 112.909 112.298 242 242 255
149.572 160.26 108.946 195 214 255
135.984 88.1388 101.081 199 216 255
110.686 90.1078 105.222 203 219 255
150.064 174.014 141.973 211 223 255
156.13 93.2593 113.561 255 248 241
114.924 137.185 109.375 255 220 192
107.231 153.672 103.355 195 214 255
93.9751 173.699 110.851 198 216 255
131.261 123.698 118.84 255 246 237
157.188 151.479 130.589 220 229 255
101.713 188.216 113.251 187 209 255
55.2197 56.7143 89.9922 221 229 255
146.074 7.08831 116.541 191 211 255
90.1683 137.446 106.286 221 230 255
63.7834 68.4464 95.119 247 244 255
125.578 193.242 116.335 255 251 255
93.9539 173.703 110.841 255 41 0
116.698 132.181 106.837 208 222 255
82.4845 136.539 110.221 206 221 255
94.0705 65.9969 117.551 223 230 255
120.388 70.7689 121.633 204 220 255
105.866 83.6798 169.133 219 228 255
145.692 95.4139 100.943 197 215 255
134.255 139.156 114.892 243 242 255
164.288 182.709 106.506 215 226 255
85.3293 144.36 115.674 188 209 255
93.9066 173.703 110.828 245 243 255
157.418 132.291 99.2766 191 211 255
96.6443 69.3801 115.179 210 223 255
84.8172 59.8042 112.017 193 212 255
173.287 82.6737 107.48 200 217 255
85.8889 170.486 109.041 185 207 255
64.2666 46.6932 100.217 253 248 255
94.5079 173.803 110.958 193 213 255
181.959 58.0468 110.184 198 215 255
144.197 82.2176 100.606 201 217 255
137.913 168.185 111.966 198 215 255
52.1426 210.637 101.596 187 208 255
95.8422 122 112.025 255 253 248
119.783 104.627 118.678 210 223 255
27.8448 211.616 106.327 218 228 255
93.8631 173.705 110.816 206 221 255
90.4337 200.266 90.8829 187 208 255
151.014 203.673 83.7517 193 213 255
126.314 123.347 104.218 255 242 230
162.743 117.278 110.605 217 227 255
84.5628 26.5508 122.047 248 245 255
111.051 118.761 106.881 255 210 174
94.6616 174.131 111.067 229 234 255
93.868 173.705 110.817 187 209 255
112.102 140.258 110.588 201 217 255
67.6714 203.162 116.445 183 206 255
93.8029 173.692 110.776 211 224 255
93.8708 173.704 110.818 229 234 255
29.0256 176.017 111.898 193 213 255
96.0958 126.983 116.535 206 220 255
26.5246 212.665 102.159 178 203 255
109.418 158.683 106.054 231 235 255
109.41 113.184 111.89 226 232 255
198.75 154.045 114.08 206 220 255
39.1464 211.621 110.389 179 204 255
117.469 128.135 86.9467 255 240 227
87.6117 166.898 123.54 255 231 211
124.163 80.8873 107.991 206 220 255
114.289 116.052 93.7156 255 254 250
102.342 103.048 105.17 255 239 225
71.8566 115.239 117.484 177 203 255
105.5 123.278 109.291 255 244 234
125.602 83.3245 110.671 188 210 255
161.226 171.523 96.5305 209 222 255
98.2852 120.217 112.396 255 244 233
93.7981 173.7 110.793 214 226 255
148.267 103.482 115.448 255 214 181
135.189 100.71 109.872 255 246 238
93.865 173.705 110.816 255 218 189
82.646 67.6178 115.594 195 214 255
115.697 105.592 93.6972 230 235 255
103.397 109.173 126.234 213 225 255
117.273 108.365 114.897 232 236 255
86.4169 165.286 130.037 210 223 255
109.279 123.727 108.97 210 223 255
187.563 114.886 104.392 210 223 255
147.623 95.1779 113.93 240 241 255
129.612 76.4779 138.251 190 211 255
117.301 158.651 121.826 217 227 255
60.14 142.648 110.768 210 223 255
114.128 122.626 137.49 222 230 255
110.524 114.917 109.115 255 235 218
93.8658 173.705 110.816 212 224 255
180.213 20.8583 122.027 184 207 255
60.5736 118.259 126.413 231 235 255
198.745 130.59 113.148 189 210 255
45.362 108.038 105.586 218 228 255
79.5209 218.851 105.562 192 212 255
93.8978 173.703 110.826 192 212 255
65.9477 93.1724 111.306 186 208 255
119.322 136.962 109.636 255 240 227
103.384 109.892 113.158 255 251 245
93.8305 173.704 110.807 233 237 255
111.68 60.0243 117.284 197 215 255
91.7763 128.729 114.861 255 213 180
103.901 130.016 106.436 255 240 227
48.0229 115.521 98.3198 218 227 255
27.7395 213.053 102.574 182 205 255
112.514 80.2854 122.039 196 215 255
200.765 95.2443 112.919 192 212 255
115.353 152.082 110.967 199 216 255
93.885 173.704 110.822 205 220 255
74.3463 192.649 111.755 196 214 255
93.8909 173.703 110.823 205 220 255
93.8727 173.704 110.818 197 215 255
100.442 107.179 112.868 220 229 255
98.0311 93.3332 110.213 206 220 255
42.9678 100.925 126.803 223 231 255
116.838 107.005 104.255 200 217 255
129.21 169.29 111.691 193 213 255
190.361 130.383 81.6435 232 236 255
83.2392 179.056 111.719 206 220 255
174.922 99.5764 103.912 192 212 255
116.495 117.064 103.72 213 224 255
38.1072 59.4075 105.08 198 215 255
94.3616 38.7795 98.9878 200 217 255
94.8578 136.763 117.719 255 246 238
83.0111 195.825 111.917 222 230 255
106.201 103.918 113.187 217 227 255
160.313 138.494 111.533 255 217 187
175.255 172.617 104.796 200 217 255
5.1888 65.4943 107.635 203 219 255
67.0379 82.8079 111.168 237 239 255
48.4155 85.8825 113.517 213 224 255
93.9756 173.717 110.854 190 210 255
154.346 94.0589 118.661 194 213 255
93.7157 173.612 110.747 192 212 255
77.8592 162.86 109.149 192 212 255
93.9275 173.701 110.837 255 246 237
87.9171 23.9899 118.672 188 209 255
9.15984 118.545 116.08 198 216 255
64.9172 111.828 119.893 213 225 255
134.403 89.1538 105.787 202 218 255
96.6476 104.205 106.023 255 238 224
14.4063 71.4717 116.931 181 205 255
136.289 119.943 123.905 205 220 255
140.576 154.274 118.291 192 212 255
116.239 180.741 113.277 219 228 255
110.474 105.646 101.839 255 234 217
95.1985 60.6646 118.353 210 223 255
111.223 85.2628 122.947 229 234 255
91.6665 85.9649 115.063 255 196 148
78.4504 154.072 103.18 182 206 255
113.156 121.764 96.7711 255 239 226
93.9272 173.703 110.834 219 228 255
82.8224 58.933 111.199 227 233 255
111.738 99.3296 105.36 209 222 255
116.601 135.177 114.411 255 232 214
63.9444 76.7593 91.9976 189 210 255
123.525 130.158 125.834 221 229 255
82.8693 157.719 113.089 210 223 255
140.434 145.117 84.8659 202 218 255
69.1748 147.5 94.623 255 207 169
127.276 88.767 120.023 255 218 189
121.808 114.002 95.7278 246 244 255
106.227 157.475 110.148 194 213 255
44.0037 171.704 114.908 204 219 255
130.924 164.705 107.044 190 210 255
93.9083 173.703 110.829 229 234 255
51.8792 85.4616 112.641 193 212 255
105.003 115.599 123.407 255 241 229
134.949 113.6 116.277 220 229 255
84.4953 90.6185 129.29 194 213 255
199.728 69.8151 116.513 196 214 255
87.0961 48.8075 115.833 186 208 255
133.529 156.879 110.19 215 226 255
6.2531 92.8677 109.712 194 213 255
93.7782 173.723 110.818 213 225 255
38.4422 167.786 113.822 198 216 255
147.45 96.5115 113.837 203 219 255
132.984 110.231 110.025 255 198 153
118.12 79.142 87.9492 255 250 243
213.5 100.267 111.826 183 206 255
93.8653 173.705 110.816 205 220 255
116.47 114.577 115.718 255 246 237
98.3326 172.883 117.127 202 218 255
11.4206 84.465 115.948 216 226 255
112.892 111.151 116.065 238 239 255
49.1911 33.3282 134.043 218 228 255
46.3107 60.1428 112.083 221 230 255
98.5978 139.739 115.336 212 224 255
123.841 84.0357 113.114 194 213 255
93.8692 173.743 110.885 206 220 255
59.6213 34.403 96.146 194 213 255
118.098 9.3377 95.2069 194 213 255
158.677 118.309 141.384 211 223 255
128.872 106.649 114.845 203 219 255
89.8437 179.402 115.593 255 252 246
93.6555 171.852 110.727 255 250 244
54.6606 114.194 88.7371 255 249 242
150.096 118.277 107.623 220 229 255
182.327 31.9033 113.916 198 215 255
104.175 172.482 111.175 208 222 255
93.9668 173.646 110.792 255 210 173
76.0467 133.439 111.799 217 227 255
93.8661 173.705 110.816 217 227 255
97.2568 175.334 113.158 182 205 255
142.381 123.017 112.003 231 235 255
35.1974 39.5154 174.331 183 206 255
66.4283 55.6709 109.008 195 214 255
119.61 86.0763 120.934 202 218 255
159.615 81.9513 117.48 198 215 255
140.455 77.0622 129.025 200 217 255
116.264 183.145 113.46 196 214 255
79.3582 35.9941 98.8621 201 217 255
89.0231 195.66 111.315 204 219 255
122.711 130.627 111.055 255 112 0
123.402 192.163 116.46 189 210 255
114.476 161.972 104.17 197 215 255
121.18 0.0596319 105.084 218 227 255
113.81 89.2001 106.436 207 221 255
104.287 129.889 133.101 255 243 232
102.775 117.985 112.569 249 245 255
180.456 102.38 92.2645 255 248 241
93.8783 173.704 110.82 255 239 225
154.567 3.80912 91.0264 184 207 255
93.8936 173.704 110.824 255 205 165
134.99 154.703 106.883 201 217 255
187.802 107.752 121.977 255 180 116
93.8644 173.705 110.816 255 253 248
144.295 187.712 125.486 181 205 255
113.466 136.717 106.964 255 216 185
55.5361 141.253 113.559 204 219 255
97.1694 218.854 111.115 193 213 255
177.568 165.545 117.539 191 211 255
156.02 148.466 115.72 219 228 255
124.472 107.015 125.72 255 254 249
159.052 115.463 149.833 207 221 255
45.7854 72.0108 104.096 189 210 255
57.5929 81.3642 96.5319 255 240 227
49.0521 72.3815 133.103 200 217 255
93.875 173.705 110.819 239 240 255
104.152 84.5206 105.361 255 222 196
109.402 29.7585 113.322 199 216 255
93.8273 173.73 110.814 221 230 255
125.54 161.102 116.291 182 206 255
77.1379 142.91 105.632 203 218 255
50.3954 119.252 102.03 211 223 255
56.6266 126.279 122.348 255 251 244
107.396 121.055 107.458 185 208 255
109.465 116.118 98.1422 255 164 82
110.98 110.825 115.773 255 236 221
196.358 122.896 118.453 197 215 255
109.778 121.288 114.015 206 221 255
97.5834 134.806 111.876 255 221 195
156.451 109.911 130.156 218 228 255
93.8592 173.705 110.814 247 245 255
107.454 124.127 116.639 255 202 159
139.374 79.571 106.865 199 216 255
66.4344 103.165 112.356 209 222 255
51.4728 118.086 101.814 203 219 255
83.5022 130.158 109.733 255 151 52
93.8577 173.705 110.814 198 216 255
113.817 72.291 123.003 244 242 255
104.242 158.955 140.913 245 243 255
112.221 135.201 118.323 206 221 255
96.4553 123.401 119.901 221 229 255
93.8547 173.705 110.813 236 238 255
94.0348 173.676 110.712 220 229 255
58.3814 80.5289 111.163 192 212 255
94.3767 169.206 95.578 220 229 255
124.803 83.671 111.077 202 218 255
83.0392 76.2954 12.5501 233 236 255
52.4012 75.6241 109.934 189 210 255
113.071 111.766 105.849 242 241 255
86.7692 156.947 111.628 189 210 255
120.876 108.019 103.205 255 254 251
139.877 89.6217 102.216 205 220 255
128.248 130.23 114.642 239 240 255
104.914 57.4223 118.898 203 219 255
93.855 173.705 110.813 237 239 255
63.5666 19.5725 94.0048 197 215 255
103.115 136.569 106.08 255 227 205
219.846 70.1749 112.379 185 207 255
115.615 119.166 118.871 255 210 175
194.063 148.141 109.148 184 207 255
148.042 101.57 101.871 195 214 255
163.261 74.0214 114.07 203 219 255
103.192 82.8163 100.16 255 252 248
93.9093 173.703 110.829 231 235 255
145.644 116.535 105.38 202 218 255
86.8554 70.496 112.831 192 212 255
86.1582 95.807 111.684 255 226 204
124.871 118.184 118.474 255 250 243
93.8395 173.706 110.809 204 219 255
90.3836 141.804 98.0111 204 219 255
117.565 165.772 115.039 192 212 255
99.6084 121.153 119.175 255 220 192
107.052 100.929 119.022 211 224 255
85.089 124.443 115.767 247 244 255
109.519 118.058 107.884 255 239 226
123.948 165.222 111.452 178 203 255
133.687 112.63 109.437 209 223 255
123.297 126.187 103.611 200 217 255
101.348 178.685 111.592 184 207 255
39.5541 129.774 116.086 238 240 255
106.716 88.3743 108.448 255 229 208
71.8596 23.71 102.917 255 250 243
55.6496 106.822 99.1937 209 222 255
117.036 133.23 106.373 255 248 240
93.8587 173.705 110.814 196 214 255
116.043 102.872 104.306 227 233 255
107.264 194.136 111.642 206 220 255
93.9791 173.702 110.85 196 215 255
120.686 30.2282 101.467 206 220 255
74.687 161.394 102.844 211 223 255
91.4829 174.896 110.699 217 227 255
163.373 150.542 115.217 188 209 255
79.5655 48.1503 99.7568 201 217 255
137.034 120.755 110.88 208 222 255
79.5726 115.343 108.466 255 210 174
102.991 134.307 120.479 209 222 255
102.313 112.72 114.722 255 249 255
111.365 135.486 103.376 255 252 247
105.773 203.981 113.381 187 208 255
221.27 139.584 109.412 187 209 255
160.506 61.129 109.664 201 217 255
92.2426 40.6558 109.337 205 220 255
118.304 109.905 101.369 255 253 249
118.707 1.16573 95.3885 211 223 255
93.1494 173.67 110.617 193 212 255
153.178 151.399 130.052 201 218 255
93.9401 173.701 110.838 189 210 255
114.002 95.0777 106.594 212 224 255
119.059 109.881 114.409 255 254 251
101.01 125.445 107.358 226 232 255
130.984 166.941 110.908 185 207 255
16.0864 84.548 115.257 208 222 255
55.3561 81.1884 60.4641 207 221 255
179.429 68.952 110.271 198 215 255
67.2027 207.161 108.372 195 214 255
127.457 117.674 110.769 225 232 255
11.2416 174.672 109.342 191 212 255
149.073 87.4848 123.937 216 226 255
135.258 115.174 117.787 255 238 224
16.0884 195.094 122.199 192 212 255
81.2858 138.938 103.447 201 217 255
31.0381 194.227 112.155 207 221 255
93.8027 173.716 110.812 233 236 255
153.839 128.437 108.469 253 248 255
93.8681 173.705 110.817 209 222 255
38.9017 126.976 117.09 255 250 255
93.8665 173.705 110.817 231 235 255
158.411 128.037 86.0441 213 225 255
116.329 101.085 109.663 255 200 155
113.804 131.428 101.118 255 168 91
120.957 73.8944 110.474 222 230 255
66.2034 100.82 112.748 208 222 255
93.8689 173.705 110.817 255 252 247
112.622 128.747 107.953 255 187 130
109.241 133.491 107.843 255 164 82
132.519 70.6886 109.741 207 221 255
109.559 138.619 109.434 221 230 255
105.823 130.536 110.333 219 228 255
85.5806 42.8803 109.311 197 215 255
166.976 130.185 100.936 205 220 255
123.962 118.208 110.012 240 240 255
137.572 83.3961 100.105 211 224 255
93.8606 173.705 110.815 201 218 255
147.858 98.5264 108.837 217 227 255
65.5717 105.955 111.784 191 211 255
109.245 146.849 117.407 193 212 255
200.033 15.1137 112.275 177 203 255
62.0482 54.714 115.198 249 246 255
117.772 29.541 109.667 198 216 255
93.9531 173.681 110.771 255 247 238
93.8519 173.706 110.812 198 215 255
152.089 34.6753 111.086 202 218 255
93.8072 173.729 110.822 202 218 255
66.1521 117.914 111.308 222 230 255
109.09 126.159 106.851 213 225 255
25.2707 73.7625 109.108 200 217 255
97.6349 160.524 108.705 214 225 255
86.7174 111.26 110.256 216 227 255
44.3928 94.6818 103.143 196 214 255
132.953 178.411 113.235 193 212 255
62.67 70.5927 97.0284 192 212 255
116.474 122.736 102.792 255 231 212
72.4282 72.4614 111.719 217 227 255
219.374 139.104 113.829 200 217 255
93.8732 173.704 110.819 212 224 255
119.879 111.347 104.073 222 230 255
61.524 92.4029 108.503 217 227 255
92.989 152.943 124.596 188 209 255
116.947 110.266 101.068 255 231 212
152.467 131.066 113.653 187 209 255
40.5419 81.9021 109.911 190 211 255
114.691 129.509 111.511 219 228 255
114.274 130.984 105.803 255 251 244
99.0123 123.94 121.251 223 231 255
59.6342 195.348 117.245 236 238 255
52.1705 119.936 112.426 255 249 242
99.8154 186.136 110.001 190 210 255
75.466 136.178 113.788 240 240 255
103.875 26.0231 97.4895 196 214 255
222.806 55.0598 109.722 212 224 255
95.8259 153.111 113.595 189 210 255
119.382 126.039 120.281 223 231 255
111.621 112.123 123.772 255 247 238
84.4659 127.87 113.197 232 236 255
28.4707 109.553 115.082 194 213 255
50.0129 101.687 108.821 182 206 255
107.486 108.526 110.581 255 211 177
143.616 140.697 114.069 206 221 255
119.074 127.856 105.598 251 247 255
106.28 177.362 109.687 191 211 255
57.4849 49.1195 114.305 192 212 255
146.284 80.095 106.827 201 218 255
98.7741 152.726 114.117 201 217 255
91.8919 82.6003 108.093 248 245 255
124.492 127.781 110.125 200 217 255
93.8871 173.704 110.822 197 215 255
115.602 82.0227 118.211 221 230 255
117.538 111.851 115.374 255 248 241
124.844 82.6796 87.4334 201 217 255
93.7932 173.714 110.785 204 219 255
70.5987 67.3184 115.303 192 212 255
100.992 72.1455 114.783 187 209 255
162.638 100.537 113.321 205 220 255
95.0015 173.494 110.308 199 216 255
100.41 43.9083 111.828 208 222 255
105.062 85.9559 109.332 191 211 255
112.918 136.03 100.642 255 231 212
94.0773 173.809 111.041 199 216 255
93.9232 173.703 110.833 255 255 252
91.8613 126.287 115.971 197 215 255
90.1069 174.732 111.598 235 238 255
131.657 126.891 126.065 255 191 139
135.857 74.7527 102.369 255 249 255
93.8783 173.704 110.82 213 225 255
93.9893 173.706 110.844 201 218 255
91.647 172.611 109.761 208 222 255
51.5367 112.304 133.509 207 221 255
67.2347 138.879 101.51 255 248 241
132.975 113.375 111.768 255 216 185
33.856 213.913 117.957 190 211 255
122.596 83.9321 118.266 203 218 255
74.0343 83.7572 111.243 216 226 255
81.6243 174.078 113.802 255 248 240
93.8324 173.707 110.807 222 230 255
108.895 181.08 112.025 187 209 255
30.9435 208.125 88.2961 193 213 255
145.281 95.8745 124.755 219 228 255
176.031 149.48 80.7238 242 242 255
94.1613 173.683 110.717 188 210 255
101.834 169.079 112.973 222 230 255
9.45149 174.959 111.783 198 216 255
90.7495 174.079 110.587 248 245 255
144.938 14.3068 109.44 194 213 255
93.8693 173.705 110.817 214 225 255
52.2448 123.774 90.4768 212 224 255
93.8706 173.704 110.818 187 209 255
170.606 166.878 113.631 188 209 255
123.923 71.9307 117.795 225 232 255
93.8253 173.709 110.808 255 212 177
93.8692 173.705 110.817 202 218 255
93.8983 173.703 110.826 237 238 255
148.846 75.2427 94.8287 203 218 255
129.912 74.2292 115.06 194 213 255
93.8735 173.704 110.819 185 208 255
96.3483 126.797 116.273 242 242 255
93.8661 173.705 110.816 192 212 255
104.455 163.93 116.966 255 242 230
150.788 156.818 110.524 200 217 255
111.517 99.4281 106.481 237 239 255
82.5435 146.633 104.832 245 243 255
129.032 111.187 81.9981 255 215 182
109.957 99.7955 129.51 255 252 248
140.387 88.0257 116.873 189 210 255
130.196 124.202 116.21 221 229 255
104.979 222.266 125.701 189 210 255
134.618 145.072 103.548 188 210 255
162.64 197.726 121.008 209 223 255
88.9525 184.123 110.861 255 238 223
118.168 110.476 102.798 255 223 197
125.485 128.612 109.185 210 223 255
116.077 82.873 110.844 255 217 187
95.1895 140.935 108.471 192 212 255
71.0996 107.629 115.055 214 225 255
116.214 95.5438 103.97 255 231 211
54.7941 44.9483 83.5085 227 233 255
161.668 146.157 109.441 235 238 255
102.817 137.005 108.894 213 225 255
144.584 86.9159 112.773 206 220 255
167.531 54.2093 115.401 224 231 255
111.683 106.437 109.124 255 247 238
85.9142 179.664 117.958 255 239 225
138.707 95.9318 130.628 216 227 255
134.963 74.0571 132.556 199 216 255
125.838 135.85 117.509 179 203 255
118.72 134.248 111.427 255 181 119
93.7357 173.83 110.893 190 211 255
97.8626 183.003 101.422 221 230 255
66.0375 118.232 103.048 224 231 255
103.83 135.97 101.778 255 252 247
109.845 129.469 103.173 207 221 255
47.8227 95.1619 122.762 217 227 255
93.8721 173.704 110.818 241 241 255
134.916 169 109.148 220 229 255
136.303 48.3329 116.026 182 206 255
124.14 66.5206 102.75 255 226 203
109.928 134.889 94.3915 196 215 255
116.415 72.1522 112.897 255 248 240
214.29 105.651 111.303 192 212 255
160.848 20.8548 115.431 199 216 255
135.112 116.229 118.039 206 221 255
102.763 128.86 113.466 255 95 0
121.6 115.053 114.396 209 222 255
129.257 117.107 113.788 241 241 255
108.437 191.671 110.032 193 213 255
141.127 75.7199 109.775 189 210 255
135.315 120.897 108.424 219 228 255
128.982 173.288 108.934 191 211 255
136.739 63.9056 113.452 185 207 255
99.6416 186.591 103.876 199 216 255
97.6655 75.3876 112.348 255 223 198
139.465 95.9351 110.13 189 210 255
151.261 132.038 114.349 198 216 255
113.355 140.929 106.602 255 226 203
92.4851 174.215 111.225 218 228 255
50.7856 157.909 120.991 212 224 255
123.524 81.7737 94.4078 225 232 255
13.9372 119.346 109.154 191 211 255
129.432 94.7528 109.014 213 225 255
46.3132 129.516 136.015 255 223 197
108.64 132.794 112.627 215 226 255
187.77 53.6534 110.043 204 219 255
94.0591 173.799 110.89 206 221 255
147.69 102.658 112.089 195 214 255
93.9551 173.7 110.84 205 220 255
122.552 130.165 113.016 255 194 145
146.127 143.833 109.597 188 210 255
130.973 219.612 132.885 210 223 255
113.988 126.752 109.801 228 234 255
140.481 7.56396 104.52 186 208 255
90.2645 152.554 119.849 255 230 210
87.3589 174.185 110.22 239 240 255
61.8176 101.273 112.6 213 225 255
86.7476 190.282 90.7562 216 227 255
93.8543 173.705 110.813 192 212 255
37.8735 66.7338 106.808 203 219 255
85.602 51.8384 112.361 221 230 255
39.7968 60.0578 141.965 221 229 255
103.566 157.714 115.617 255 247 238
117.017 129.214 101.441 248 245 255
66.1835 121.423 126.559 204 220 255
92.6467 195.063 100.885 204 219 255
95.0237 139.871 113.176 227 233 255
89.7996 24.0041 117.845 202 218 255
120.133 121.477 110.25 255 235 219
100.276 100.207 96.7404 236 238 255
43.86 48.9992 155.005 189 210 255
126.972 86.3028 107.454 229 234 255
98.427 140.544 109.498 209 222 255
159.467 146.52 89.0244 207 221 255
191.808 45.727 113.142 205 220 255
195.42 47.5832 112.171 200 217 255
82.3556 77.2688 103.318 192 212 255
53.1187 134.723 106.847 222 230 255
110.505 160.4 115.812 204 219 255
122.466 153.551 113.95 255 249 242
93.8959 173.703 110.825 203 219 255
121.753 82.0458 118.243 231 235 255
125.012 172.777 111.322 205 220 255
110.577 117.569 118.011 217 227 255
93.846 173.708 110.812 227 233 255
60.1409 91.7262 107.856 188 209 255
93.6083 57.0681 112.734 201 217 255
11.0431 164.221 109.277 201 217 255
93.9315 173.697 110.794 255 224 199
156.91 127.895 125.672 191 212 255
59.3947 106.748 108.216 191 211 255
93.913 173.703 110.83 187 209 255
94.1085 112.445 104.232 244 243 255
119.294 73.7536 126.541 198 216 255
113.215 119.881 107.436 255 238 223
100.825 84.3369 212.047 255 170 94
79.143 140.079 109.444 255 255 252
97.5918 126.645 117.19 208 222 255
168.503 86.6702 105.437 201 217 255
158.018 112.659 129.407 204 219 255
143.206 93.8633 112.706 255 233 215
60.862 14.2496 163.607 180 204 255
111.191 94.769 109.898 255 250 243
125.276 109.161 95.6802 253 248 255
122.13 24.3035 111.051 194 213 255
90.2212 104.297 109.171 255 137 14
93.5903 174.054 110.677 230 235 255
121.696 112.64 124.055 193 212 255
121.372 175.824 80.5747 200 217 255
98.9119 23.9099 83.9062 195 213 255
74.9414 127.485 124.986 213 225 255
127.797 121.284 114.46 255 194 145
142.34 152.993 111.926 177 202 255
122.359 141.059 109.778 191 211 255
101.349 105.728 98.3156 200 217 255
170.421 114.176 113.862 237 239 255
112.152 125.99 106.857 243 242 255
92.3115 173.606 110.686 192 212 255
117.08 115.588 124.197 216 227 255
125.758 130.149 107.812 255 247 239
151.989 135.517 111.685 183 206 255
53.8939 120.631 93.2642 204 220 255
131.117 169.247 110.783 188 209 255
99.4153 120.819 109.543 255 215 184
93.8944 173.712 110.847 245 244 255
116.114 104.972 112.972 226 233 255
126.769 24.0703 108.058 197 215 255
91.6498 179.108 110.158 255 252 247
120.048 116.321 119.51 255 232 214
91.9524 178.149 108.32 255 224 199
78.9828 156.374 129.746 192 212 255
103.051 78.8743 114.854 196 215 255
89.1426 158.835 126.784 197 215 255
117.071 105.13 111.507 189 210 255
115.164 197.891 128.422 200 217 255
129.188 119.083 115.206 255 249 243
104.304 31.2038 104.709 197 215 255
123.292 145.72 71.9106 193 213 255
153.792 21.2219 112.638 196 214 255
68.3828 56.6151 111.133 184 207 255
100.269 107.136 99.7871 225 232 255
147.136 137.877 111.148 221 229 255
123.085 138.962 97.0061 246 244 255
109.092 112.625 106.294 238 239 255
140.654 89.248 112.474 221 229 255
158.574 137.017 112.467 190 210 255
103.452 116.854 104.156 255 251 245
93.8773 173.704 110.82 221 230 255
109.599 72.6997 116.679 208 222 255
97.3279 126.916 127.919 229 234 255
93.8731 173.704 110.819 204 219 255
177.364 121.399 136.456 205 220 255
118.042 131.866 98.664 255 212 178
93.9494 173.704 110.839 192 212 255
101.531 94.1248 96.8711 255 234 217
107.566 132.139 103.584 211 224 255
47.5393 132.976 121.32 251 247 255
88.3426 75.888 112.162 205 220 255
201.125 150.582 113.43 183 206 255
56.2411 112.455 112.515 224 231 255
102.435 167.007 110.429 209 222 255
93.7919 174.055 109.032 216 227 255
90.5057 144.05 113.528 232 236 255
109.491 159.039 115.347 191 211 255
99.5105 72.9737 112.68 206 220 255
93.9174 173.703 110.831 196 214 255
103.978 149.792 103.006 218 228 255
129.976 145.017 114.686 222 230 255
8.78596 104.927 113.206 197 215 255
103.681 87.2109 115.329 200 217 255
140.603 95.594 109.573 250 246 255
113.955 107.235 117.441 255 220 192
93.1024 50.2235 111.484 185 208 255
90.0293 6.59927 121.373 188 209 255
93.8342 173.708 110.808 192 212 255
113.431 82.2768 110.916 191 212 255
77.1553 114.71 115.197 255 232 213
77.6287 176.688 100.569 250 246 255
125.956 127.388 105.016 255 235 218
94.2512 173.589 110.774 192 212 255
113.317 168.856 141.559 211 224 255
93.7884 173.701 110.798 211 224 255
130.894 120.011 118.957 255 252 246
110.382 106.576 118.042 255 247 239
126.179 77.2034 118.26 219 229 255
99.1636 149.153 109.528 202 218 255
133.545 116.044 123.65 255 251 245
181.899 9.518 100.18 179 204 255
93.8594 173.705 110.815 208 221 255
169.8 117.601 87.5536 191 211 255
93.8291 173.708 110.805 192 212 255
175.345 154.497 117.564 185 207 255
