ply
format ascii 1.0
element vertex 1341
property float x
property float y
property float z
property uchar red
property uchar green
property uchar blue
end_header
106.624 121.44 121.977 255 247 239
194.994 35.4626 114.164 199 216 255
171.623 121.031 115.431 210 223 255
97.6057 116.395 119.301 255 249 241
96.6843 174.825 110.764 212 224 255
217.712 123.779 112.985 180 204 255
102.298 124.73 117.317 211 223 255
101.264 89.1953 108.724 200 217 255
90.4494 94.9596 118.775 204 219 255
153.748 166.614 109.438 203 219 255
129.107 41.6486 110.473 192 212 255
84.7496 118.833 107.018 211 223 255
95.5667 174.02 110.87 188 209 255
92.9354 19.6387 113.334 184 207 255
121.288 167.424 112.954 255 249 242
109.501 156.968 111.533 255 251 245
83.1585 129.846 106.354 255 229 209
136.755 94.429 108.823 191 211 255
104.797 121.4 105.094 255 227 204
56.931 78.0598 114.106 196 214 255
90.2887 114.447 114.25 241 241 255
55.3985 213.007 110.009 194 213 255
102.762 115.035 109.573 255 243 232
77.354 109.961 117.853 204 219 255
173.801 146.262 115.257 188 209 255
2.48544 104.075 116.922 186 208 255
94.7729 174.53 111.263 246 244 255
114.94 14.1403 105.56 204 219 255
103.412 157.327 113.407 255 249 242
103.229 115.706 110.491 255 159 70
93.9529 28.9753 109.281 190 211 255
114.871 159.36 112.861 255 193 143
112.136 110.042 115.423 255 199 154
179.601 21.6396 111.964 181 205 255
51.4334 111.462 103.78 200 217 255
154.143 86.4485 109.22 196 214 255
104.224 109.187 111.847 255 217 187
185.712 55.7098 110.819 192 212 255
154.059 33.8592 114.529 204 219 255
168.025 20.4756 111.038 193 212 255
157.855 96.3008 115.019 255 206 167
48.8154 144.995 110.165 237 239 255
134.391 133.179 114.693 209 222 255
149.868 179.255 112.24 197 215 255
97.2571 127.106 106.33 229 234 255
158.459 91.4526 111.005 188 210 255
167.236 48.1014 110.621 215 226 255
68.4357 50.6184 113.717 255 252 247
136.197 184.5 112.307 201 217 255
112.967 105.551 107.779 255 249 242
140.533 136.555 114.078 255 201 158
160.869 158.617 112.04 194 213 255
117.19 111.784 111.857 230 235 255
123.622 106.649 115.086 250 246 255
46.9579 110.506 111.002 200 217 255
112.549 30.4462 111.833 186 208 255
73.0175 93.4831 112.64 221 230 255
182.6 103.035 112.89 193 212 255
100.537 158.38 104.856 255 220 192
165.874 86.8036 116.763 193 212 255
155.046 146.968 111.611 205 220 255
176.37 130.354 114.346 197 215 255
28.2971 143.402 109.101 220 229 255
131.627 70.5232 109.584 252 247 255
131.652 112.263 112.544 211 223 255
53.3119 99.5623 109.354 218 228 255
116.543 107.564 115.406 212 224 255
91.4185 88.6179 110.197 255 228 206
146.464 111.891 115.74 213 225 255
92.3513 129.456 116.151 201 217 255
68.0372 48.4054 105.926 244 242 255
170.693 140.256 111.566 255 250 255
106.445 51.5477 116.084 198 216 255
49.8298 91.5638 117.249 255 203 161
99.3787 39.0054 118.207 182 206 255
114.63 131.065 115.837 197 215 255
109.016 151.026 111.587 213 225 255
57.9867 52.4072 125.944 189 210 255
75.977 77.7264 117.481 255 252 248
93.6068 150.707 115.863 205 220 255
51.1048 105.841 112.568 204 220 255
130.716 44.6223 110.48 198 216 255
141.675 41.3532 110.218 195 214 255
143.192 45.996 115.395 205 220 255
31.8725 93.7001 107.134 203 219 255
109.895 116.895 106.069 210 223 255
89.8583 181.955 112.822 188 209 255
45.4523 190.482 114.221 196 214 255
172.441 116.463 122.554 230 235 255
107.909 109.338 120.351 213 225 255
69.8195 113.148 114.917 255 232 214
49.0179 182.391 109.351 184 207 255
53.9999 199.528 113.484 207 221 255
129.049 45.7629 112.228 200 217 255
101.132 22.8255 114.152 196 214 255
94.569 117.453 105.849 214 225 255
107.658 97.3138 114.299 255 248 241
124.682 121.026 111.887 255 183 123
198.191 33.5689 111.626 189 210 255
79.9378 105.421 118.714 223 231 255
35.0649 64.1921 112.368 184 207 255
106.702 150.543 112.034 255 210 175
90.3047 78.9858 116.793 240 240 255
14.3052 127.469 117.211 181 205 255
99.5116 98.1984 113.765 255 201 158
94.7684 174.559 111.251 187 209 255
166.128 143.992 109.693 192 212 255
66.654 97.1143 112.452 232 236 255
77.4669 129.39 110.599 235 237 255
130.159 79.1364 109.311 255 250 243
192.882 123.771 112.007 207 221 255
85.8897 149.449 119.771 216 227 255
113.231 106.758 114.043 255 221 194
34.1274 176.336 109.377 188 209 255
94.5235 97.3864 111.911 255 195 146
77.9444 92.2994 114.2 218 228 255
171.25 48.5553 110.569 195 214 255
122.645 153.698 109.362 198 215 255
42.059 156.232 114.068 198 216 255
180.669 89.6308 115.209 223 230 255
168.497 102.498 109.891 212 224 255
138.366 0.718612 112.859 199 216 255
201.253 164.158 114.092 231 235 255
88.1805 144.083 111.901 231 235 255
98.5161 127.918 116.462 255 197 151
203.08 161.312 112.455 195 214 255
143.317 114.209 110.314 255 250 244
152.635 132.526 105.359 227 233 255
149.319 150.129 116.709 255 250 244
177.294 100.923 109.915 202 218 255
192.56 166.656 118.76 199 216 255
114.54 135.62 107.361 243 242 255
94.8057 174.522 111.287 192 212 255
130.997 98.3509 110.327 255 218 189
104.579 79.159 114.194 255 220 192
140.361 106.708 114.74 226 232 255
117.437 118.24 105.624 197 215 255
126.068 114.048 118.574 233 237 255
94.7428 174.562 111.248 201 218 255
103.707 118.62 118.449 255 201 158
88.3623 70.2635 116.581 255 242 230
117.727 21.1772 112.107 195 214 255
87.3148 40.5926 115.608 183 206 255
168.071 166.564 114.134 202 218 255
68.073 95.8757 117.351 221 230 255
112.557 26.0311 116.078 195 214 255
69.3901 66.4269 114.234 221 229 255
70.4785 60.8884 110.511 202 218 255
151.761 158.832 114.033 192 212 255
94.7128 174.596 111.211 193 212 255
74.5403 188.219 113.712 199 216 255
103.631 109.137 110.395 243 242 255
129.473 53.5913 116.505 205 220 255
104.481 51.0103 114.65 211 224 255
181.209 173.15 113.018 191 211 255
117.479 149.561 110.981 225 232 255
79.3344 85.4487 110.278 239 240 255
106.001 12.5621 109.298 180 204 255
104.496 107.699 104.485 197 215 255
89.6802 69.6775 113.534 255 246 237
161.136 32.384 112.031 188 209 255
122.406 97.4129 110.979 234 237 255
75.6526 85.7959 111.599 255 229 209
107.828 163.174 112.416 202 218 255
96.8639 136.743 119.299 248 245 255
63.4066 71.4895 109.394 245 243 255
182.701 69.9289 111.843 202 218 255
144.887 153.365 112.994 202 218 255
73.7984 123.813 108.253 255 225 201
108.408 105.334 112.845 255 222 196
65.0997 64.8467 110.63 198 216 255
94.7867 174.555 111.268 246 244 255
20.6071 80.3108 107.829 188 209 255
163.187 97.1277 112.214 205 220 255
53.8312 110.754 107.288 209 222 255
77.6437 65.5626 118.226 201 218 255
73.3676 153.894 114.717 249 246 255
97.9742 203.802 107.084 213 225 255
99.6255 141.95 110.567 255 197 150
144.811 76.7269 114.414 197 215 255
99.8671 84.5868 115.681 255 203 162
115.201 106.449 111.302 214 225 255
119.57 100.456 111.166 199 216 255
131.68 78.5922 112.158 255 243 232
66.9849 150.728 114.33 198 216 255
214.434 71.6114 108.397 182 205 255
62.1383 64.1096 111.683 192 212 255
135.141 65.4085 119.659 186 208 255
134.446 117.139 104.558 206 221 255
96.1261 89.7527 111.001 193 213 255
191.43 108.27 111.418 181 205 255
94.7565 174.565 111.245 233 237 255
94.7533 174.563 111.242 191 211 255
111.457 122.847 108.497 255 201 158
114.45 102.754 108.276 255 222 195
164.367 145.148 105.109 214 225 255
85.8922 141.545 119.551 255 217 188
94.7964 174.539 111.27 195 214 255
59.3907 128.84 108.952 192 212 255
82.6142 136.618 107.587 255 185 125
114.413 119.471 114.484 255 205 165
90.9436 156.071 117.296 255 206 168
10.3762 83.8505 113.988 186 208 255
160.135 111.871 115.777 209 222 255
142.676 87.5127 108.198 209 222 255
79.5947 95.1713 116.048 196 214 255
84.3499 76.4731 106.418 214 225 255
107.48 114.42 102.578 237 239 255
70.0493 50.2386 109.335 197 215 255
119.902 163.86 112.079 186 208 255
119.944 115.406 105.728 255 159 71
108.243 104.235 113.853 255 217 187
140.515 31.9569 111.171 211 223 255
138.506 40.5217 114.829 189 210 255
196.01 112.356 114.046 198 215 255
131.354 156.65 109.987 204 219 255
85.8483 84.7495 119.551 218 228 255
115.927 110.565 102.642 195 214 255
58.5899 136.702 111.894 193 213 255
102.416 151.881 120.571 255 236 219
45.1718 140.363 112.6 229 234 255
67.5751 95.3886 112.088 209 222 255
115.684 140.411 111.823 255 234 216
82.2918 41.8117 113.867 208 221 255
111.043 117.265 117.68 255 225 200
82.0018 78.1622 115.607 199 216 255
124.345 144.003 115.115 209 223 255
133.422 68.978 112.582 255 247 238
101.268 164.818 109.608 209 222 255
153.553 138.773 113.734 194 213 255
106.706 162.726 114.044 246 244 255
18.7359 65.7833 111.936 211 223 255
26.1905 55.3356 112.681 220 229 255
94.9523 174.585 111.314 194 213 255
94.7614 174.561 111.243 255 250 255
87.6751 81.3048 107.403 190 210 255
113.517 116.304 117.345 240 240 255
68.2864 148.996 111.418 202 218 255
10.2091 167.271 111.441 186 208 255
59.8165 215.834 112.461 179 204 255
56.8788 124.198 109.974 255 250 255
94.3205 174.319 111.153 217 227 255
64.1685 87.2222 110.112 206 220 255
118.603 98.769 109.665 231 235 255
192.061 25.8794 113.166 196 214 255
118.787 213.958 118.083 189 210 255
30.6407 59.8672 113.445 192 212 255
55.7307 107.441 112.919 219 229 255
137.53 143.451 107.924 196 214 255
81.0142 132.291 120.187 197 215 255
129.091 13.1954 101.009 189 210 255
155.17 47.9727 111.436 194 213 255
100.086 173.114 112.999 193 213 255
217.178 92.2939 110.91 181 205 255
63.4747 61.6704 111.437 255 243 232
94.7212 174.664 111.269 210 223 255
118.36 143.762 111.03 215 226 255
169.107 46.7428 115.457 193 212 255
113.707 108.273 116.189 255 204 162
27.1176 50.6202 113.268 180 204 255
131.17 85.9112 112.57 255 250 244
93.7068 174.556 110.797 196 214 255
73.0616 172.401 116.447 207 221 255
100.063 162.443 108.292 212 224 255
109.516 135.033 113.582 224 231 255
117.046 88.615 118.848 255 241 229
100.905 90.18 111.616 255 250 244
134.884 115.909 120.178 255 216 185
107.165 1.7021 111.825 196 214 255
164.624 143.59 109.849 200 217 255
139.847 132.716 105.67 216 227 255
94.7522 174.566 111.242 217 227 255
50.3587 103.718 106.731 204 219 255
120.992 158.244 114.237 194 213 255
92.0698 165.175 113.387 195 214 255
94.7377 174.564 111.225 239 240 255
89.0677 86.058 106.998 255 238 224
90.7572 215.841 106.736 192 212 255
185.036 83.5574 113.652 204 219 255
92.9842 157.036 121.166 255 225 201
88.4301 101.466 111.194 255 246 237
94.7645 174.561 111.25 255 252 248
114.106 156.17 109.455 255 239 225
87.2522 19.1555 110.767 195 214 255
90.5401 81.1383 109.234 192 212 255
18.5324 61.0475 116.891 215 226 255
119.321 102.651 115.828 255 231 212
185.374 185.833 110.834 202 218 255
121.429 116.958 108.066 209 222 255
91.2021 100.553 106.503 228 233 255
41.7977 162.936 112.355 191 211 255
60.2718 106.638 108.371 214 225 255
139.261 70.6087 121.457 233 237 255
92.4621 140.127 114.957 241 241 255
117.218 129.649 115.767 235 238 255
113.011 148.589 110.021 200 217 255
138.15 111.031 107.841 255 240 227
94.7514 174.567 111.241 193 213 255
168.544 139.005 128.527 203 219 255
156.115 163.915 97.7118 199 216 255
80.6823 111.712 116.364 196 214 255
152.469 13.3153 111.565 203 218 255
167.104 176.297 113.091 188 209 255
124.42 2.79705 110.755 187 208 255
94.516 31.4044 112.38 191 211 255
106.083 64.1569 113.501 196 215 255
121.824 75.5399 114.131 195 214 255
138.131 118.535 114.444 246 244 255
111.834 87.8826 118.645 255 244 234
113.242 105.87 106.869 247 244 255
151.137 46.7257 116.891 198 216 255
61.3917 157.18 112.275 222 230 255
67.3847 92.2893 118.516 210 223 255
154.367 61.8042 111.424 216 226 255
67.1481 182.831 113.772 190 211 255
161.789 104.165 114.972 212 224 255
105.097 105.71 112.554 255 233 215
164.624 108.809 117.941 206 220 255
161.014 121.133 109.196 210 223 255
209.116 104.784 109.132 189 210 255
82.0529 51.1372 114.275 243 242 255
101.274 170.162 113.646 245 243 255
78.9655 92.5048 107.824 223 231 255
110.423 107.369 115.433 255 183 122
131.726 98.5512 106.254 216 227 255
115.813 145.156 112.893 232 236 255
94.7444 174.57 111.236 207 221 255
117.462 218.635 134.213 190 211 255
63.178 125.155 110.842 255 227 205
182.481 180.228 116.156 188 209 255
101.384 142.212 116.85 194 213 255
40.7138 179.973 114.353 205 220 255
132.428 123.112 118.508 215 226 255
107.901 111.611 106.85 255 179 115
98.9859 147.986 110.08 255 245 236
99.4079 125.23 121.121 205 220 255
195.892 161.193 111.173 187 209 255
123.902 146.647 108.519 255 210 173
172.696 122.121 109.613 219 229 255
66.3599 99.3764 111.856 255 202 158
157.296 35.5151 115.285 185 207 255
94.7441 174.569 111.236 204 219 255
104.646 98.1288 115.229 255 214 182
161.836 117.444 117.506 209 222 255
15.7855 141.117 113.377 189 210 255
184.466 13.9027 106.029 203 218 255
68.0785 158.569 116.274 202 218 255
53.2903 75.9196 105.572 187 209 255
120.409 140.951 114.036 209 222 255
45.6599 67.1005 115.044 192 212 255
59.6378 103.561 113.244 213 225 255
106.802 57.3489 110.873 237 239 255
73.3817 99.2402 111.249 255 220 192
97.1316 126.983 118.368 255 237 222
203.412 47.5042 111.006 200 217 255
87.2792 214.145 109.2 199 216 255
199.177 47.0103 113.454 197 215 255
159.41 140.286 114.139 196 214 255
157.791 134.822 108.359 212 224 255
116.075 113.464 106.635 237 238 255
182.044 124.602 114.63 187 209 255
100.787 132.777 104.822 255 231 212
130.622 56.634 112.134 212 224 255
116.949 110.443 107.23 229 234 255
113.349 112.162 115.214 255 206 166
167.166 16.6125 111.016 189 210 255
87.7234 29.3707 112.234 184 207 255
130.182 119.83 104.565 202 218 255
120.582 103.924 111.477 255 223 197
184.121 88.3573 116.436 209 222 255
18.9995 111.966 112.036 192 212 255
122.905 118.363 108.645 255 231 212
182.379 160.184 114.715 191 211 255
55.182 98.4846 113.896 210 223 255
105.645 113.864 122.208 229 234 255
15.616 126.567 111.971 203 219 255
124.059 121.044 110.778 255 208 170
94.7652 174.561 111.247 212 224 255
94.7038 173.944 111.146 213 225 255
202.223 134.838 115.691 190 210 255
162.072 95.4182 109.168 213 225 255
53.3219 21.7738 124.246 207 221 255
183.066 113.049 112.794 224 231 255
142.48 99.6179 104.842 231 235 255
135.16 78.8998 118.626 222 230 255
76.7036 164.233 111.981 188 209 255
213.423 89.0433 113.74 255 230 209
130.951 138.983 110.357 205 220 255
35.2918 195.188 112.264 187 209 255
118.381 31.6143 111.655 187 209 255
59.9782 129.392 110.24 221 229 255
138.912 182.298 111.573 192 212 255
142.795 78.6562 113.993 209 222 255
122.502 140.104 111.323 213 225 255
13.2388 67.6559 116.44 190 210 255
103.298 104.266 111.182 255 225 202
96.384 127.988 109.898 255 250 243
96.5425 175.235 109.658 229 234 255
110.917 115.982 123.762 255 208 171
108.562 115.402 118.494 226 233 255
104.485 146.305 118.854 255 248 240
37.1226 38.9426 115.028 183 206 255
224.984 99.1816 115.537 182 206 255
111.773 133.21 114.066 216 227 255
159.06 159.767 111.273 210 223 255
112.66 110.976 115.834 248 245 255
29.5171 182.749 109.589 201 217 255
161.389 132.201 107.011 210 223 255
113.466 111.216 113.872 223 231 255
85.9651 122.483 104.82 255 185 126
85.5114 35.2068 112.765 201 217 255
57.6134 75.8657 111.633 200 217 255
10.0806 126.021 111.125 190 211 255
182.766 54.5933 115.235 185 208 255
117.285 143.088 112.397 255 239 225
39.5194 29.6994 116.648 202 218 255
116.898 107.855 113.098 255 221 194
74.4973 140.512 118.092 213 225 255
93.7158 174.949 110.723 191 211 255
117.012 107.519 111.8 242 241 255
185.73 109.62 112.719 206 221 255
94.7388 174.574 111.231 242 241 255
95.0848 205.386 109.979 187 208 255
98.635 120.266 110.312 251 246 255
120.052 151.913 111.54 215 226 255
126.071 143.421 115.028 208 222 255
112.032 54.1955 111.985 199 216 255
180.943 122.095 109.831 201 217 255
163.198 124.373 114.276 205 220 255
44.2125 79.6279 109.319 199 217 255
32.5156 182.358 113.97 184 207 255
57.7938 182.748 112.893 192 212 255
94.7419 174.571 111.234 255 230 209
154.331 136.551 107.4 226 232 255
187.311 120.897 113.843 201 217 255
124.714 166.125 114.551 213 225 255
94.7487 174.567 111.239 199 216 255
50.879 153.484 112.265 211 223 255
167.065 134.852 108.704 198 216 255
112.937 71.3032 108.637 255 245 236
63.2296 215.351 113.021 199 216 255
29.4256 107.08 114.155 209 223 255
45.4529 108.394 110.543 197 215 255
96.8315 81.7784 110.963 216 226 255
162.315 73.2947 117.135 202 218 255
5.08109 109.424 117.509 190 210 255
188.237 122.115 115.594 193 213 255
46.0024 121.704 111.005 192 212 255
54.8198 120.354 113.783 255 211 176
112.321 184.105 111.545 214 225 255
108.981 102.35 107.889 215 226 255
169.429 107.32 102.085 255 253 248
116.918 118.376 105.739 255 240 227
135.412 39.0809 112.02 198 215 255
86.4799 87.5837 116.156 238 239 255
112.236 126.97 108.86 255 208 171
176.116 159.95 114.497 195 214 255
210.782 136.737 111.104 191 211 255
160.814 137.101 112.939 202 218 255
73.0129 135.708 110.792 201 217 255
139.411 127.304 106.609 226 232 255
190.805 184.506 114.437 195 214 255
115.051 89.2551 120.63 235 238 255
105.985 80.4366 112.784 212 224 255
65.2908 136.178 104.326 229 234 255
107.798 99.0365 115.28 255 242 229
57.8967 125.976 108.522 199 216 255
193.487 152.753 117.804 194 213 255
64.0058 56.1242 112.931 193 212 255
177.179 153.405 119.222 192 212 255
133.661 87.1311 118.768 255 251 246
117.488 115.821 117.545 255 123 0
132.324 170.611 114.767 195 214 255
112.651 148.067 110.917 255 245 236
121.806 119.081 109.246 237 239 255
60.857 100.571 106.871 197 215 255
117.246 60.7977 110.373 199 216 255
6.52274 103.295 114.606 185 207 255
84.7302 155.723 112.948 219 228 255
158.723 92.6438 113.583 223 231 255
188.211 106.61 110.898 200 217 255
79.64 75.0874 108.989 203 219 255
79.9408 61.6981 117.002 210 223 255
72.6305 118.758 107.83 255 254 250
50.2411 48.4373 114.181 186 208 255
95.3797 117.252 109.746 255 241 229
63.4186 62.452 110.621 192 212 255
113.673 146.607 117.161 255 251 255
137.533 147.841 107.853 186 208 255
32.95 90.33 108.98 187 208 255
130.191 132.292 112.064 248 245 255
56.6433 129.416 106.371 218 228 255
77.0957 83.6221 115.015 216 227 255
97.9306 150.776 111.431 255 209 172
90.7292 101.991 113.811 245 243 255
118.654 113.528 115.037 255 201 158
76.1865 77.5131 112.313 255 246 237
56.906 122.32 112.947 233 236 255
97.7725 122.224 116.776 255 251 246
108.839 105.112 118.838 222 230 255
47.9648 71.333 111.664 196 215 255
131.074 125.944 111.056 217 227 255
166.047 17.4401 111.974 192 212 255
157.839 89.3184 114.12 252 247 255
35.7466 117.865 113.861 198 216 255
192.445 177.054 113.901 214 225 255
138.275 172.296 112.278 224 231 255
112.141 118.176 108.415 217 227 255
93.1356 190.037 110.604 216 226 255
62.6849 129.857 114.685 255 235 218
211.974 140.23 112.485 181 205 255
106.139 124.599 104.532 255 225 202
80.9634 107.403 115.608 234 237 255
67.9046 148.528 110.452 255 199 154
74.4996 83.4829 117.649 186 208 255
11.2299 118.238 111.087 195 213 255
100.668 171.666 108.456 196 214 255
61.6016 129.914 106.441 198 216 255
146.388 100.663 119.262 222 230 255
146.897 149.786 111.995 211 224 255
111.849 83.1236 110.33 227 233 255
58.8693 185.725 110.452 183 206 255
97.0886 46.6272 113.286 190 210 255
16.3853 138.714 117.159 198 216 255
129.545 66.1101 109.769 255 252 247
50.6572 109.873 109.831 203 219 255
146.929 96.1879 119.772 255 242 230
180.632 100.315 111.347 200 217 255
93.8741 176.406 110.796 199 216 255
155.91 83.3601 115.197 231 236 255
91.651 134.696 115.382 196 214 255
84.5341 54.2124 110.548 191 211 255
115.277 66.2255 112.21 197 215 255
161.987 160.491 112.996 198 215 255
164.265 111.658 110.246 233 236 255
155.174 88.4507 108.291 228 234 255
142.717 208.086 77.449 193 213 255
90.9858 150.004 114.543 255 250 244
101.497 55.4621 113.662 255 235 218
111.534 99.9225 112.534 255 212 179
115.743 178.951 107.607 190 211 255
166.653 179.157 111.624 188 210 255
113.878 111.669 114.845 226 232 255
119.325 127.365 110.82 255 235 218
116.801 98.3652 118.084 255 240 227
174.794 120.675 107.239 206 220 255
121.999 143.433 113.641 249 245 255
106.056 156.846 103.687 238 239 255
183.915 55.8333 112.125 199 216 255
201.014 59.4264 110.498 195 214 255
130.713 85.1648 116.597 255 255 251
210.519 106.026 111.916 187 209 255
64.2445 101.964 111.585 214 225 255
52.9547 143.37 131.685 250 246 255
162.389 82.2724 114.765 253 248 255
51.437 106.749 113.84 189 210 255
198.113 174.899 110.544 191 211 255
31.0916 111.562 133.241 223 231 255
116.697 140.966 112.808 255 245 235
138.372 167.254 112.203 198 216 255
89.5356 210.903 121.398 203 219 255
105.561 114.897 118.876 255 236 219
176.972 50.8345 109.147 192 212 255
104.422 142.63 118.182 215 226 255
11.2749 143.291 117.092 189 210 255
94.7042 174.591 111.219 255 254 250
115.688 113.51 109.971 255 246 237
91.4566 159.576 109.144 248 245 255
123.93 97.5953 118.508 255 254 251
99.1184 67.1572 117.43 232 236 255
52.9685 94.9153 110.34 225 232 255
113.075 129.045 110.452 255 250 255
171.768 113.649 118.915 211 223 255
116.8 113.516 113.865 255 250 243
120.518 30.0902 113.765 203 219 255
110.242 98.6112 114.245 224 231 255
73.6127 142.756 108.186 198 216 255
100.959 137.778 116.361 214 225 255
194.17 179.884 112.271 190 211 255
122.436 18.8374 111.434 191 211 255
168.584 134.142 114.56 209 223 255
105.867 175.885 112.025 212 224 255
146.965 14.5375 111.936 184 207 255
50.0029 123.28 112.008 182 205 255
169.911 103.699 108.266 255 242 229
109.456 116.893 105.974 221 229 255
153.145 170.857 112.025 190 211 255
35.9341 117.485 109.928 192 212 255
143.304 73.3994 127.667 205 220 255
87.4267 111.755 119.24 255 255 251
112.473 120.121 106.676 199 216 255
167.031 132.244 113.348 213 224 255
94.7444 174.568 111.23 234 237 255
114.589 134.05 116.704 196 214 255
115.84 159.137 110.929 250 246 255
56.9154 93.5113 113.824 221 230 255
96.9343 114.246 107 255 218 189
136.322 99.1569 105.024 199 216 255
157.745 109.489 110.188 214 225 255
33.6163 113.582 119.052 193 212 255
119.676 118.111 118.873 255 233 215
102.238 76.4182 112.406 255 252 248
204.878 74.5513 114.747 189 210 255
109.212 74.1115 111.677 255 212 178
176.396 32.0059 110.795 187 208 255
117.644 107.233 111.432 255 225 202
134.883 110.738 117.543 219 228 255
75.9512 95.3513 113.366 200 217 255
20.2776 172.465 115.284 192 212 255
78.6237 85.2118 108.701 255 236 221
83.5245 140.145 109.726 251 246 255
62.7249 80.3791 116.053 217 227 255
73.9686 211.129 117.537 199 216 255
43.3822 102.545 113.487 187 209 255
17.7559 169.782 114.046 187 209 255
41.9727 130.222 110.914 182 205 255
190.398 133.643 110.515 189 210 255
56.7246 144.826 110.868 247 244 255
95.0541 163.054 112.189 255 229 207
106.455 117.626 104.139 196 214 255
112.002 116.469 110.495 224 231 255
146.14 186.279 114.896 211 223 255
152.897 7.88493 102.644 180 204 255
78.1611 153.108 124.172 191 211 255
70.9323 121.803 114.046 254 248 255
120.769 108.444 106.046 204 220 255
89.5885 99.2034 111.813 230 234 255
115.557 42.6166 116.504 198 215 255
174.866 128.484 111.107 201 217 255
56.9768 73.0846 113.365 196 214 255
121.553 91.1325 114.046 222 230 255
106.614 16.8486 108.036 181 205 255
143.393 28.3888 112.192 189 210 255
91.0882 134.215 114.009 255 227 205
121.782 73.862 114.564 222 230 255
53.3886 89.4193 112.427 214 225 255
107.741 110.205 116.485 202 218 255
55.6412 63.965 110.206 190 210 255
93.8972 177.959 111.454 235 238 255
191.268 177.729 114.03 204 219 255
135.148 83.3216 106.354 255 220 193
125.872 180.661 111.962 198 216 255
153.073 118.147 109.101 219 228 255
124.631 160.808 114.477 255 240 227
21.0197 126.696 116.802 208 222 255
54.365 110.238 116.598 196 214 255
115.728 150.712 115.737 235 238 255
58.6685 118.355 115.139 208 222 255
127.388 46.1642 117.427 195 214 255
116.675 152.23 110.275 254 248 255
158.965 92.4045 107.704 201 217 255
99.1679 108.609 105.657 253 247 255
116.453 116.569 109.411 255 250 244
143.561 112.145 106.444 209 222 255
128.08 148.913 114.598 216 227 255
167.314 109.121 110.279 255 228 206
128.057 116.25 108.979 255 231 211
106.411 46.4687 111.501 194 213 255
111.29 95.9167 115.564 255 200 156
178.793 101.102 114.381 199 216 255
177.834 135.484 113.288 187 208 255
110.999 115.367 118.86 255 204 164
91.865 98.1068 104.296 235 237 255
151.423 66.6439 114.28 205 220 255
173.989 14.9777 112.248 197 215 255
159.149 126.668 113.266 255 253 249
155.068 4.76792 111.748 186 208 255
103.622 165.21 114.338 247 244 255
87.2989 151.614 115.514 224 231 255
159.952 87.2926 111.288 205 220 255
181.889 45.3322 110.335 190 211 255
34.0062 119.12 110.221 193 212 255
97.2208 88.654 104.469 201 217 255
94.7167 174.593 111.216 197 215 255
141.721 102.151 105.107 241 241 255
51.6114 105.075 111.568 205 220 255
94.8103 174.547 111.28 191 211 255
147.316 86.5216 111.057 203 219 255
130.902 123.295 110.804 251 247 255
112.15 135.074 106.312 255 202 160
96.755 167.689 111.682 192 212 255
94.688 174.429 111.057 255 252 247
146.454 107.984 116.78 201 218 255
63.6729 102.919 107.803 200 217 255
88.1947 30.9659 111.7 197 215 255
64.4962 136.394 124.08 206 220 255
107.326 24.2455 106.39 190 211 255
94.3312 174.51 111.767 247 245 255
109.765 137.802 115.96 255 195 146
112.261 118.198 105.169 210 223 255
94.7481 174.569 111.243 211 223 255
94.6887 174.602 111.215 190 211 255
108.315 75.0672 115.763 227 233 255
97.5741 36.497 115.558 182 205 255
103.718 71.8545 111.709 255 254 250
126.462 117.08 110.046 255 187 131
157.867 172.317 103.691 201 217 255
116.822 100.006 112.942 205 220 255
88.3228 160.185 118.055 255 231 211
114.376 48.8747 115.658 186 208 255
146.931 122.174 113.796 255 247 239
162.602 49.4186 108.9 199 216 255
164.274 107.176 109.121 211 223 255
70.7505 142.199 109.792 210 223 255
131.458 41.0716 116.292 203 219 255
71.3846 73.3457 122.248 196 214 255
202.278 157.476 116.107 196 214 255
117.102 101.903 113.861 255 243 232
56.8232 102.875 110.681 201 217 255
122.308 49.4777 116.13 211 224 255
161.214 84.7367 113.823 209 222 255
165.403 102.397 109.034 214 225 255
149.081 71.4587 114.942 185 207 255
117.571 134.031 112.004 255 216 184
48.1572 83.2104 107.969 188 210 255
173.767 166.973 107.674 193 212 255
90.0266 75.8737 106.793 205 220 255
118.77 100.994 110.248 204 219 255
150.115 116.789 105.971 255 215 183
115.32 124.063 121.279 235 238 255
94.7983 174.551 111.278 219 228 255
149.602 20.4916 108.488 183 206 255
82.4563 97.1134 114.548 255 253 248
127.731 103.786 113.59 255 238 224
49.8693 100.455 111.641 255 252 247
109.874 9.00228 94.893 184 207 255
76.0149 62.3229 116.122 197 215 255
146.528 115.286 111.648 200 217 255
126.132 74.9806 114.24 216 226 255
155.816 115.533 110.171 203 219 255
87.7988 101.442 114.09 211 224 255
155.939 39.7213 110.393 193 213 255
223.475 97.4602 109.793 185 207 255
109.883 115.861 111.197 255 216 184
89.031 107.062 110.045 236 238 255
134.339 100.213 119.581 207 221 255
129.465 89.9722 116.432 255 213 179
185.539 49.8589 115.88 192 212 255
126.761 86.6957 111.209 212 224 255
114.103 115.894 108.204 232 236 255
108.496 105.706 107.316 255 217 186
148.824 55.5226 107.658 218 228 255
105.05 109.661 114.471 255 225 201
4.65267 123.35 115.771 184 207 255
156.209 103.033 111.248 203 218 255
116.052 83.3092 110.928 255 245 235
91.1135 108.461 113.682 212 224 255
120.987 116.963 114.627 196 214 255
57.5625 127.269 109.275 255 248 240
191.502 188.884 114.947 186 208 255
56.4321 107.797 119.941 201 217 255
117.693 102.383 115.645 255 249 242
127.048 148.886 117.489 237 239 255
94.7276 174.594 111.226 209 222 255
129.37 79.7064 109.958 210 223 255
136.612 88.1773 120.482 203 219 255
29.0378 81.0016 112.104 180 205 255
61.2067 151.857 110.75 217 227 255
149.654 113.19 106.146 239 240 255
120.578 109.052 115.157 255 239 224
116.255 111.439 113.247 255 162 78
161.927 139.678 115.789 206 220 255
107.33 131.113 110.574 255 227 205
167.806 92.3625 109.945 188 210 255
76.7623 125.18 118.06 211 223 255
158.543 175.009 122.102 217 227 255
216.288 87.845 113.996 195 214 255
15.2457 101.462 111.267 185 208 255
128.882 94.4117 111.91 255 202 160
58.1837 124.56 116.356 206 220 255
159.26 142.931 110.73 255 249 243
101.213 108.629 109.576 228 234 255
156.532 145.729 111.784 200 217 255
53.9514 20.6998 108.513 190 211 255
101.91 84.9746 111.961 204 219 255
82.7057 50.4382 109.74 203 219 255
114.843 106.788 117.906 255 251 245
139.027 182.645 111.616 189 210 255
156.735 123.993 117.541 214 225 255
118.098 99.5403 116.664 255 237 222
42.6835 107.417 107.407 199 216 255
24.9538 184.426 113.691 194 213 255
93.0883 175.267 110.287 255 249 255
16.912 60.5499 113.966 193 212 255
122.135 165.3 111.221 255 228 206
98.2204 60.0018 110.055 199 216 255
172.24 142.288 110.265 198 215 255
117.48 125.987 115.435 255 253 249
155.392 32.9186 114.391 207 221 255
50.6825 175.936 112.277 184 207 255
117.163 100.819 107.32 255 238 224
203.348 104.814 107.869 177 202 255
119.022 126.127 112.177 201 217 255
148.311 79.9693 111.752 242 242 255
130.152 174.849 113.512 195 214 255
212.096 161.891 112.17 183 206 255
116.266 109.731 113.197 211 224 255
164.858 154 112.005 216 226 255
26.1763 151.265 110.909 182 205 255
94.2503 108.993 108.951 242 242 255
68.7234 130.017 116.876 210 223 255
117.412 123.925 107.84 255 241 229
100.01 116.594 106.924 255 242 231
160.06 189.633 111.072 183 206 255
93.8564 175.301 111.05 218 228 255
115.007 111.788 113.751 254 248 255
85.646 149.558 113.53 239 240 255
96.2319 144.907 110.223 214 226 255
92.3869 84.471 107.255 219 228 255
96.4569 165.372 122.941 222 230 255
130.843 114.558 119.887 255 196 148
70.0637 69.9283 109.071 188 209 255
119.85 114.06 110.582 255 238 224
94.7284 174.569 111.232 255 213 181
157.473 89.5042 116.046 203 218 255
63.0807 126.755 117.759 187 209 255
94.7384 174.574 111.235 223 231 255
97.1434 156.11 110.187 224 231 255
91.467 109.242 119.391 215 226 255
109.63 102.826 114.457 210 223 255
84.3102 99.38 113.524 212 224 255
207.96 167.562 112.868 177 202 255
139.824 59.7937 104.159 221 229 255
122.089 116.775 116.847 255 246 236
88.4343 102.042 113.144 209 223 255
120.174 134.4 111.168 209 223 255
170.46 145.803 111.828 255 253 249
150.857 66.2996 110.094 205 220 255
143.692 111.322 105.136 213 225 255
124.024 114.145 115.916 255 246 237
106.018 104.347 108.599 255 223 198
180.503 21.9966 115.867 190 210 255
104.721 169.942 112.334 255 250 244
103.351 94.5246 114.952 255 244 234
161.985 45.6678 116.465 193 212 255
24.1476 63.8931 113.474 209 222 255
202.932 55.319 115.302 187 209 255
141.409 78.7712 116.583 195 214 255
107.621 122.3 103.736 228 233 255
87.8749 196.889 112.107 187 209 255
94.6441 174.666 111.17 237 239 255
112.499 104.327 114.335 255 225 201
92.1262 187.241 110.788 255 251 246
169.845 126.862 115.177 201 217 255
108.732 82.5206 112.865 240 241 255
120.902 168.315 110.141 202 218 255
55.217 59.6105 110.291 208 222 255
67.0415 162.527 112.164 252 247 255
107.727 159.921 113.971 243 242 255
19.4879 56.0646 110.713 175 201 255
207.326 103.686 113.958 204 219 255
122.366 98.799 109.942 255 187 131
148.504 7.94531 110.637 188 210 255
26.8427 111.442 112.743 225 232 255
146.577 69.8045 115.8 198 216 255
130.721 189.926 110.222 203 219 255
113.089 108.147 103.112 231 235 255
113.04 79.6454 113.584 255 227 205
186.836 108.582 112.103 201 217 255
145.458 95.4299 108.92 255 196 148
140.226 25.3696 114.911 204 219 255
72.231 48.2626 114.73 205 220 255
109.532 151.123 111.241 255 220 192
69.2362 125.179 119.305 202 218 255
16.8557 84.3426 115.868 187 209 255
176.286 64.7356 113.655 212 224 255
143.461 178.158 113.204 215 226 255
170.208 118.992 111.318 223 231 255
109.98 168.102 110.214 247 244 255
94.7311 174.577 111.232 214 225 255
181.595 68.8998 111.808 212 224 255
19.7197 172.419 115.258 187 209 255
95.8987 174.581 111.74 209 222 255
137.562 71.5307 112.838 211 224 255
103.175 39.0993 113.996 198 216 255
141.172 128.985 108.082 225 232 255
60.2583 131.6 110.226 189 210 255
185.026 104.383 115.435 187 209 255
102.23 172.274 111.316 194 213 255
88.2253 217.949 107.699 181 205 255
110.093 143.818 111.316 225 232 255
95.8512 173.857 110.816 255 244 234
122.806 94.6797 104.554 246 244 255
135.4 79.0852 110.269 231 235 255
37.6199 122.695 114.314 198 215 255
175.149 127.981 112.204 198 215 255
116.56 93.552 105.674 255 252 246
73.2003 122.025 115.942 200 217 255
192.063 44.2975 114.914 190 211 255
105.694 108.375 114.062 218 228 255
54.4192 61.7198 108.397 190 211 255
120.778 124.375 117.85 255 239 225
118.532 122.633 113.99 255 225 201
90.0208 159.12 111.763 201 217 255
108.486 45.1859 107.976 199 216 255
109.965 123.17 117.631 255 211 175
112.915 116.085 117.077 211 224 255
212.632 157.087 116.284 199 216 255
167.695 62.289 113.284 255 249 242
113.764 153.427 114.799 248 245 255
118.217 116.109 113.137 255 243 232
35.625 82.411 109.359 209 222 255
175.908 172.026 113.942 187 209 255
68.1148 69.5501 108.611 255 252 246
5.98058 92.8663 109.093 199 216 255
167.973 154.316 119.284 201 217 255
95.5173 128.622 116.637 212 224 255
87.0385 149.746 112.568 185 207 255
41.5556 84.1204 110.695 255 253 248
78.532 117.058 116.984 243 242 255
109.234 126.896 108.105 224 231 255
100.929 6.37796 116.07 186 208 255
3.44537 135.851 113.473 192 212 255
74.8334 188.177 110.599 200 217 255
74.4997 97.4321 116.262 255 253 248
134.062 193.783 106.883 188 209 255
64.0992 120.382 111.8 211 223 255
209.091 147.697 115.476 185 207 255
92.0005 175.661 110.206 200 217 255
3.29443 125.093 110.918 186 208 255
79.1907 139.951 110.605 255 251 246
114.414 143.396 111.359 255 249 255
68.3744 141.773 116.11 206 221 255
110.671 123.184 119.998 255 231 212
114.021 156.462 112.187 234 237 255
112.929 148.249 114.702 255 230 210
114.925 122.742 110.036 255 233 215
169.633 16.0563 113.524 180 204 255
94.7769 174.557 111.256 229 234 255
47.1042 210.214 111.591 194 213 255
69.216 105.728 115.853 210 223 255
137.702 72.8207 114.593 213 224 255
76.565 180.555 112.522 192 212 255
51.216 205.69 112.387 182 205 255
180.441 115.912 104.078 255 237 221
134.254 183.457 114.23 191 211 255
115.25 119.195 108.123 255 251 245
116.346 112.127 112.893 214 225 255
59.7104 127.449 115.037 191 211 255
173.113 67.1656 114.306 186 208 255
119.484 114.89 105.633 214 225 255
83.1684 169.158 110.273 255 251 245
102.726 152.25 112.182 224 231 255
135.885 107.645 107.043 205 220 255
151.502 177.787 111.876 189 210 255
74.162 76.4364 119.326 192 212 255
173.643 135.7 108.642 184 207 255
108.154 117.458 107.323 243 242 255
143.879 130.419 107.85 202 218 255
164.214 103.51 106.467 214 226 255
110.955 13.3478 102.234 181 205 255
112.009 6.59904 112.809 180 204 255
108.251 152.745 110.218 217 227 255
43.7472 195.886 114.107 205 220 255
114.555 67.4442 112.445 222 230 255
112.531 133.156 110.148 241 241 255
46.1455 145.071 108.386 198 216 255
119.862 104.418 116.63 218 228 255
28.3494 114.928 114.192 218 228 255
17.4006 104.557 113.054 209 222 255
113.813 107.689 115.906 255 244 234
183.381 118.407 116.525 207 221 255
167.454 187.347 111.183 196 214 255
103.429 116.19 103.082 221 230 255
118.155 128.419 113.521 255 230 210
154.384 93.3831 116.487 205 220 255
82.4936 70.3803 109.353 217 227 255
62.7214 132.963 115.249 255 248 241
104.629 113.955 121.987 186 208 255
117.61 102.403 108.694 212 224 255
84.3197 148.757 112.535 194 213 255
118.935 140.224 111.342 209 222 255
109.748 94.8153 117.089 211 223 255
112.016 128.544 118.39 255 249 241
115.832 152.693 112.227 198 215 255
88.3456 165.731 121.073 210 223 255
135.714 81.22 110.336 255 250 255
123.143 196.678 107.709 182 205 255
71.8627 92.8687 107.801 255 253 249
183.726 125.937 113.564 191 211 255
50.0034 94.386 104.11 255 243 233
141.726 153.26 109.723 228 234 255
215.182 137.2 111.328 199 217 255
101.406 213.697 103.925 200 217 255
168.485 106.132 117.27 210 223 255
97.5873 103.899 109.195 237 239 255
144.918 97.2811 113.054 235 238 255
116.194 113.293 103.178 246 244 255
151.93 159.758 113.387 211 224 255
116.552 113.322 113.052 255 232 212
152.313 64.4718 111.457 214 225 255
75.0386 137.159 108.687 228 233 255
105.626 101.494 115.715 255 225 202
163.54 173.564 130.664 207 221 255
139.25 115.703 103.776 219 228 255
108.532 104.759 113.069 203 218 255
83.362 177.575 114.798 189 210 255
35.2305 152.095 115.474 189 210 255
131.297 75.9619 119.416 210 223 255
135.444 0.813354 89.8633 185 207 255
84.3589 111.109 113.455 255 250 244
22.0251 132.47 112.071 203 219 255
155.504 186.21 113.43 177 202 255
120.563 60.3677 117.861 214 225 255
71.7515 112.866 117.221 227 233 255
60.2497 49.1233 112.419 204 220 255
193.194 73.8211 114.399 179 204 255
79.6443 138.095 115.765 214 225 255
141.102 13.0737 112.237 187 209 255
60.6692 215.764 104.338 189 210 255
85.8892 79.0499 115.575 218 228 255
89.2483 58.4777 109.893 255 253 249
113.316 115.707 110.785 255 238 223
82.956 141.775 109.626 255 253 248
102.891 119.044 103.58 204 219 255
111.597 115.561 107.514 255 247 239
101.485 165.225 109.162 255 243 232
136.852 79.4437 119.215 245 243 255
162.78 39.286 115.288 194 213 255
85.6499 111.744 119.518 203 218 255
101.019 111.158 114.591 252 247 255
124.162 118.576 110.105 255 195 147
96.3054 169.302 111.155 210 223 255
92.5247 159.094 119.308 227 233 255
116.142 109.852 120.229 229 234 255
100.608 88.6339 109.327 197 215 255
165.137 99.192 111.304 217 227 255
86.8369 145.537 110.069 255 221 194
63.4369 178.954 113.209 188 210 255
107.692 162.659 111.758 204 219 255
110.219 107.989 107.606 255 231 212
160.912 92.7199 113.455 198 215 255
40.5941 160.74 108.902 179 204 255
99.6037 118.39 113.766 255 240 227
57.871 112.323 108.114 204 219 255
118.611 118.618 119.156 207 221 255
140.102 92.5962 108.482 193 212 255
33.832 167.502 112.289 196 214 255
94.7531 174.566 111.241 231 235 255
94.6806 174.596 111.171 196 215 255
114.56 117.001 103.744 231 235 255
88.2554 138.331 109.497 255 185 127
114.937 178.64 110.519 205 220 255
126.938 81.1676 106.54 255 222 195
94.6864 174.594 111.223 194 213 255
86.7531 93.6835 109.838 214 225 255
163.105 3.15563 111.823 177 202 255
199.35 87.7882 110.177 188 209 255
83.8144 103.578 105.157 215 226 255
105.661 107.519 117.201 255 214 182
90.1215 93.2415 111.891 255 234 217
127.79 119.558 117.168 255 240 226
105.374 87.0495 107.165 232 236 255
39.5696 206.708 113.242 187 209 255
117.986 135.851 112.794 255 234 216
163.492 105.648 110.012 199 216 255
186.904 181.824 114.634 185 207 255
104.999 78.2203 114.618 199 216 255
181.667 143.955 112.944 221 229 255
153.671 152.64 117.205 192 212 255
111.352 114.902 106.764 255 233 215
114.096 121.282 113.07 255 216 185
133.704 102.812 119.299 255 240 227
85.6474 112.652 110.118 255 239 225
134.424 97.3852 109.766 255 251 245
195.883 102.933 112.519 209 222 255
74.8134 47.0108 110.4 182 206 255
75.9323 107.003 104.174 255 193 141
115.043 99.3371 117.953 255 252 246
203.02 150.108 115.217 184 207 255
138.317 137.735 106.304 208 222 255
167.952 120.392 114.051 211 224 255
120.537 3.80662 111.306 186 208 255
146.321 107.019 114.636 255 248 239
87.1851 107.333 122.211 255 255 252
112.689 49.6894 116.046 207 221 255
161.333 28.1662 108.873 186 208 255
111.946 168.427 111.453 208 221 255
113.401 156.067 111.572 206 221 255
16.2989 179.071 114.43 184 207 255
80.1763 26.1646 130.737 184 207 255
90.1372 106.076 110.197 255 241 229
113.891 131.673 115.373 255 211 176
88.109 146.079 111.288 203 218 255
115.298 81.0259 107.937 255 153 57
35.2562 139.555 113.885 198 216 255
155.353 193.745 111.666 185 207 255
182.564 32.1868 113.765 185 207 255
106.194 205.415 100.89 191 211 255
127.471 111.402 118.55 255 166 87
93.8702 150.069 117.585 255 253 249
127.266 186.557 111.579 181 205 255
70.0966 156.935 111.808 206 221 255
104.472 71.9296 108.588 213 224 255
162.401 145.582 106.896 204 219 255
121.343 86.74 115.888 242 242 255
134.839 68.4602 118.295 215 226 255
156.684 172.03 109.432 202 218 255
79.774 31.2236 112.409 194 213 255
80.7811 77.9036 113.062 203 218 255
94.1397 94.6996 114.06 255 212 178
69.3953 50.9053 106.703 183 206 255
95.3616 83.5828 107.874 234 237 255
40.6765 122.088 108.562 199 216 255
111.023 78.1268 114.349 255 213 181
114.028 212.127 116.678 205 220 255
127.481 186.374 104.267 198 216 255
115.489 118.941 109.631 255 239 224
94.8532 174.497 110.917 255 216 185
120.182 109.029 108.343 255 227 205
140.141 164.837 109.058 188 209 255
112.004 108.036 104.967 255 185 125
179.039 105.359 113.55 223 231 255
191.221 180.99 112.215 178 203 255
59.3546 79.6756 111.418 184 207 255
77.1774 130.487 111.274 212 224 255
114.822 115.325 104.236 255 126 0
110.382 155.944 113.509 255 251 255
28.4939 40.5516 112.771 189 210 255
24.0383 102.637 109.633 192 212 255
83.8032 141.074 115.16 255 244 234
76.3208 209.386 111.792 185 208 255
186.763 127.431 110.322 196 214 255
168.284 108.745 116.205 191 211 255
114.397 112.312 114.985 242 242 255
186.069 78.5338 114.21 183 206 255
135.566 61.2378 107.967 233 236 255
72.602 121.44 104.084 255 243 232
158.319 158.307 109.648 255 247 238
161.117 160.122 110.929 199 216 255
113.644 117.92 107.693 242 241 255
95.5367 103.142 111.407 242 242 255
56.2135 116.684 113.949 215 226 255
91.4354 94.315 111.482 218 228 255
99.2687 79.3904 113.703 221 230 255
79.7131 145.944 111.697 255 207 169
134.535 133.727 108.553 255 244 234
171.92 114.957 109.242 201 217 255
78.5045 182.472 112.52 186 208 255
54.3521 23.8152 110.301 185 207 255
115.848 109.575 118.663 255 233 215
116.612 133.204 121.289 211 224 255
87.4728 129.028 108.818 209 222 255
119.655 115.635 118.904 255 212 178
54.8836 123.112 112.482 255 230 210
79.4774 111.653 107.469 200 217 255
117.189 188.292 106.748 188 209 255
181.036 55.9563 111.003 224 231 255
52.4632 109.384 112.327 202 218 255
100.77 35.6193 109.618 198 216 255
53.5551 163.426 114.563 227 233 255
171.693 200.513 113.221 176 202 255
106.393 19.211 108.647 192 212 255
145.422 180.032 112.528 206 221 255
80.6505 175.811 115.29 208 222 255
118.841 132.871 118.419 255 240 228
86.0354 115.24 117.575 228 234 255
124.541 169.066 109.327 215 226 255
149.528 117.273 119.608 247 244 255
114.942 118.908 113.511 201 218 255
113.084 146.241 111.262 242 242 255
118.598 152.278 112.92 211 224 255
155.533 97.0635 118.991 225 232 255
31.6283 39.5334 116 191 211 255
140.104 131.088 119.351 236 238 255
42.9827 144.194 110.329 195 214 255
219.876 127.9 114.286 190 211 255
96.1756 168.314 111.489 228 233 255
127.422 190.422 108.555 185 207 255
81.125 52.1575 109.822 201 218 255
50.3278 146.648 114.668 203 219 255
111.52 85.4414 113.251 255 241 229
20.44 151.725 115.173 206 221 255
94.7547 174.566 111.243 205 220 255
129.128 158.919 111.769 210 223 255
6.54072 137.508 109.466 188 210 255
77.384 21.1886 112.238 190 210 255
99.2049 88.7677 111.362 219 229 255
136.812 71.7955 123.821 226 232 255
98.6663 86.5739 111.968 255 249 241
70.2917 140.758 108.343 210 223 255
210.157 50.7434 110.624 185 207 255
52.049 108.422 111.531 217 227 255
128.042 144.884 109.328 255 239 226
20.1329 92.8302 108.347 192 212 255
87.3959 140.041 113.7 220 229 255
117.324 115.259 114.815 255 232 213
63.9787 48.8317 111.313 200 217 255
127.643 135.767 107.502 224 231 255
113.103 104.916 116.931 216 226 255
98.3045 173.044 117.581 231 236 255
127.387 133.835 110.228 219 228 255
155.05 41.7346 116.586 206 221 255
114.582 100.783 115.326 255 251 245
159.518 93.2299 117.397 196 214 255
112.447 97.9975 118.475 237 238 255
118.337 73.4543 113.932 214 226 255
91.2591 48.3474 111.249 255 212 177
105.401 121.387 103.688 210 223 255
59.8189 118.2 115.769 190 211 255
94.7325 174.579 111.228 202 218 255
53.9829 40.1303 113.703 204 219 255
128.305 146.332 108.123 202 218 255
60.2285 44.7032 110.983 210 223 255
111.721 87.9484 112.719 255 226 203
93.6313 118.659 111.366 209 223 255
120.815 128.875 107.631 223 230 255
94.2779 174.619 111.333 206 221 255
101.705 71.8773 113.031 194 213 255
146.566 147.174 110.785 208 222 255
61.7484 183.332 107.99 198 216 255
126.098 113.804 106.992 207 221 255
110.033 119.647 108.45 255 229 208
152.959 89.9119 107.754 220 229 255
143.074 81.2792 116.062 204 219 255
91.1773 132.939 108.07 246 244 255
14.7124 77.7885 110.926 192 212 255
180.025 130.663 119.178 215 226 255
115.285 113.566 114.041 255 245 236
64.4616 129.92 110.08 212 224 255
188.891 87.0531 111.873 189 210 255
203.774 127.724 113.618 191 211 255
183.497 25.3215 112.635 204 220 255
111.702 153.243 114.317 216 226 255
178.647 106.244 109.405 189 210 255
132.368 199.02 111.492 194 213 255
219.856 112.052 115.154 190 210 255
137.993 151.802 115.113 187 209 255
89.5141 177.961 111.09 196 214 255
105.347 110.894 107.939 255 240 226
123.357 105.111 114.722 241 241 255
201.753 35.3411 111.188 181 205 255
169.491 106.992 115.155 209 222 255
165.082 154.36 112.282 192 212 255
61.2583 108.361 117.513 255 229 209
101.752 117.542 113.236 231 235 255
107.933 191.415 118.559 205 220 255
149.968 93.9358 111.52 255 249 242
94.9316 175.499 110.529 234 237 255
139.956 165.621 109.083 194 213 255
39.5785 137.013 114.465 195 214 255
93.3925 160.126 112.432 249 246 255
172.644 100.423 111.232 195 214 255
70.621 147.39 113.038 193 213 255
97.3682 89.9645 109.943 255 249 255
193.573 55.2565 111.334 185 207 255
41.2713 81.375 117.815 214 225 255
171.045 49.6535 112.892 189 210 255
138.46 148.841 107.554 212 224 255
116.539 125.731 113.585 223 231 255
154.361 75.6889 108.653 196 214 255
154.362 103.177 119.154 203 219 255
54.9624 128.18 111.116 196 214 255
195.542 111.222 113.379 199 216 255
129.593 76.656 116.127 215 226 255
94.9482 91.7778 118.764 227 233 255
61.8744 37.637 106.343 191 211 255
95.062 174.513 111.162 212 224 255
144.411 189.512 100.999 202 218 255
23.3172 123.212 114.873 255 209 172
42.5714 104.91 108.454 198 216 255
106.361 151.111 117.04 229 234 255
99.9914 108.196 107.569 255 245 235
98.6562 76.0147 115.568 220 229 255
60.4539 115.905 109.79 240 240 255
104.906 100.031 109.268 255 244 233
173.732 120.535 111.534 203 218 255
117.83 39.4258 117.653 189 210 255
66.8371 97.7501 117.406 196 214 255
107.27 78.3337 108.385 224 231 255
166.037 109.382 106.002 255 228 207
134.936 17.0615 112.066 192 212 255
137.748 198.848 113.12 192 212 255
128.522 35.9851 109.982 195 214 255
41.0741 45.9159 115.354 196 214 255
84.0168 91.4861 118.215 203 219 255
140.629 169.293 111.68 255 252 247
94.7427 174.552 111.211 193 212 255
86.1881 153.73 112.318 238 239 255
95.3629 90.2772 110.676 216 226 255
194.836 29.3586 112.382 190 211 255
114.915 185.247 110.904 187 209 255
89.6256 55.1291 116.178 221 229 255
126.2 113.714 114.134 243 242 255
112.734 116.6 109.926 223 230 255
112.57 116.697 108.237 255 245 235
77.9595 138.037 110.233 255 235 218
47.1976 188.174 113.41 187 209 255
141.007 122.049 105.59 208 222 255
135.44 158.556 110.493 195 214 255
140.186 18.2874 111.53 196 214 255
122.608 118.45 109.64 255 224 200
96.683 123.234 105.113 224 231 255
143.23 73.4628 113.977 210 223 255
112.01 93.5821 115.373 214 225 255
67.0635 110.73 111.92 198 216 255
138.617 99.1217 110.44 211 223 255
79.5443 117.222 105.863 214 226 255
106.122 168.237 112.028 255 234 217
106.079 108.231 109.107 255 254 250
102.78 138.717 114.746 255 234 217
172.372 105.462 115.928 211 224 255
117.555 119.357 117.784 255 236 220
54.7807 95.9057 115.065 202 218 255
123.593 33.9404 111.935 192 212 255
72.5981 133.771 112.428 255 238 223
6.37265 88.0194 115.397 203 218 255
134.445 103.142 104.474 207 221 255
213.918 85.6332 112.186 191 211 255
115.073 114.703 109.051 246 244 255
101.01 138.457 113.694 255 229 209
78.1959 142.633 114.766 255 226 202
133.91 101.856 107.505 230 235 255
64.1924 80.0616 112.348 255 223 197
60.2141 94.3414 116.78 197 215 255
32.7313 129.295 113.145 204 219 255
94.7585 174.564 111.246 193 212 255
145.867 116.96 108.28 255 255 252
94.7076 174.606 111.173 214 225 255
149.201 81.4233 112.449 237 239 255
38.0307 89.6327 112.959 196 214 255
127.097 113.307 110.745 255 235 219
162.75 123.249 114.709 255 255 251
97.0403 100.95 103.894 255 251 245
131.385 122.291 114.868 232 236 255
91.7663 84.9953 111.244 255 250 255
119.421 105.164 117.435 255 218 189
131.922 79.2354 113.493 255 216 185
123.676 127.042 116.444 225 232 255
45.3541 124.164 112.928 203 219 255
107.3 200.222 112.039 209 222 255
137.697 161.805 116.481 255 252 246
114.178 46.2781 110.916 204 219 255
113.194 112.263 113.85 255 241 229
64.8031 142.96 116.771 208 222 255
56.3396 112.004 112.375 255 241 228
91.0445 129.147 113.376 220 229 255
142.316 193.539 113.674 215 226 255
66.0315 130.789 108.637 187 209 255
87.7087 94.5867 108.04 255 219 190
48.866 105.141 111.282 205 220 255
