ply
format ascii 1.0
element vertex 1341
property float x
property float y
property float z
property uchar red
property uchar green
property uchar blue
end_header
178.909 18.5054 108.895 193 213 255
93.9124 173.919 110.947 213 225 255
93.7826 72.2877 110.513 199 216 255
122.264 184.723 109.513 207 221 255
47.9536 66.1275 98.9356 198 216 255
69.4801 180.843 100.596 255 244 233
66.5341 138.937 100.151 226 233 255
46.3163 201.502 107.255 184 207 255
126.793 129.37 95.7653 222 230 255
113.646 146.92 103.63 216 226 255
123.27 117.196 103.082 255 237 221
87.3319 167.958 111.115 189 210 255
3.78888 196.618 110.788 188 210 255
84.8464 181.192 113.2 196 214 255
59.685 123.325 94.9967 209 223 255
133.762 165.915 110.211 194 213 255
127.268 117.018 112.639 255 230 210
133.898 127.38 110.596 222 230 255
68.1113 171.612 102.946 229 234 255
93.8672 173.908 110.952 255 242 230
154.298 126.869 121.371 222 230 255
93.8659 173.908 110.952 209 223 255
94.0247 173.523 110.926 206 221 255
126.9 38.1864 113.644 255 254 250
103.064 54.8602 116.545 214 225 255
117.72 104.286 101.512 255 194 145
81.7994 146.123 101.374 214 225 255
104.944 109.46 119.991 243 242 255
98.5813 133.403 113.995 255 250 243
108.504 149.584 117.619 229 234 255
115.336 57.6966 121.639 197 215 255
188.119 158.006 224.88 221 229 255
137.412 184.022 113.113 191 211 255
116.358 99.7394 136.66 213 225 255
160.327 167.254 114.983 193 212 255
98.9034 113.943 119.28 222 230 255
26.4647 70.6803 108.805 190 210 255
170.16 121.48 105.849 215 226 255
102.688 116.534 112.19 202 218 255
129.378 77.0017 104.876 254 248 255
129.231 132.271 124.889 203 219 255
93.9955 173.937 110.933 196 214 255
190.408 162.783 116.563 185 207 255
42.9834 66.1679 114.186 183 206 255
93.7641 174.052 111.021 208 222 255
61.0103 100.337 114.659 207 221 255
129.88 108.064 122.722 255 214 181
123.375 114.76 109.252 201 217 255
157.964 156.6 110.527 210 223 255
83.6815 162.839 124.158 255 226 203
199.015 37.2919 110.274 196 214 255
64.0456 140.552 107.029 205 220 255
129.341 34.5424 118.276 195 214 255
93.9217 157.093 111.862 187 209 255
108.841 168.844 121.585 255 154 59
123.813 109.906 110.808 227 233 255
43.0082 164.708 110.016 198 215 255
205.836 59.9407 115.38 220 229 255
55.3796 109.552 119.962 181 205 255
180.067 181.658 115.6 186 208 255
103.224 162.757 108.087 221 230 255
0.816866 131.876 115.475 200 217 255
103.698 129.293 105.964 227 233 255
112.877 85.1438 114.061 237 239 255
81.2597 129.732 98.4036 205 220 255
62.3003 42.0101 104.444 188 210 255
100.502 75.5802 118.234 202 218 255
116.682 111.16 120.415 231 235 255
78.0271 139.811 109.023 195 214 255
54.5868 133.557 113.531 193 213 255
115.185 127.246 125.506 255 230 210
94.5962 174.184 110.989 255 228 206
93.964 173.909 110.935 210 223 255
43.9405 57.908 117.909 197 215 255
206.029 10.8311 103.528 181 205 255
130.738 110.874 117.587 255 195 147
111.023 217.14 115.519 192 212 255
82.0902 40.4002 110.628 198 215 255
13.0545 188.148 99.4026 187 209 255
171.25 85.9862 125.66 219 228 255
200.636 146.649 94.0062 255 246 237
126.821 139.069 121.64 209 222 255
112.801 114.101 119.338 255 242 230
53.9433 223.213 150.484 255 241 229
67.6721 131.327 107.543 190 211 255
103.531 168.271 114.577 206 221 255
145.066 6.02211 110.312 183 206 255
69.4339 149.5 114.806 202 218 255
116.703 103.566 106.587 205 220 255
48.0754 102.947 108.453 208 222 255
79.3205 33.7627 108.731 216 226 255
181.7 57.8444 108.487 189 210 255
148.413 86.2557 105.382 190 211 255
86.0762 39.1774 140.705 199 216 255
81.4542 88.1796 113.243 195 214 255
165.766 17.7982 118.172 196 214 255
67.9799 128.016 119.088 208 221 255
103.771 114.791 117.216 221 230 255
98.5055 97.3935 113.419 203 219 255
152.015 90.6526 113.17 255 250 255
75.5424 183.108 92.8895 212 224 255
48.7176 104.16 99.6498 206 221 255
123.847 77.5023 130.292 223 231 255
93.0352 51.4132 112.383 240 241 255
124.947 89.7468 106.843 255 239 225
50.7734 189.764 112.622 189 210 255
114.906 122.22 112.561 241 241 255
93.8914 173.914 110.95 218 228 255
71.5222 131.162 199.144 210 223 255
93.8836 173.912 110.951 196 214 255
45.4811 143.265 111.112 217 227 255
111.503 145.495 116.58 255 244 234
153.726 99.0426 92.3523 204 219 255
89.1757 141.893 116.502 212 224 255
114.43 113.906 118.188 255 245 236
96.063 178.267 113.862 255 249 242
117.129 117.912 117.038 255 251 255
54.9798 99.0367 110.586 198 215 255
118.087 113.936 108.302 255 251 255
153.4 84.3698 116.464 202 218 255
117.523 118.257 113.846 215 226 255
93.9312 173.921 110.941 201 217 255
128.851 123.575 108.573 255 231 211
46.0818 134.184 132.514 214 226 255
93.867 173.908 110.952 202 218 255
93.842 173.902 110.954 201 217 255
121.307 125.084 117.38 255 216 185
100.957 120.557 117.956 255 244 233
170.252 126.093 98.9372 253 248 255
108.005 110.754 109.031 255 248 241
127.188 113.553 127.696 255 209 173
69.0522 68.0876 112.499 194 213 255
129.575 75.4176 115.245 255 241 228
44.2675 162.083 111.283 200 217 255
112.673 87.7381 113.13 228 233 255
17.8396 73.9702 123.473 239 240 255
109.644 100.311 111.295 207 221 255
62.7202 171.738 106.077 206 221 255
116.627 111.393 110.573 255 220 193
106.737 114.126 123.703 245 243 255
147.179 65.3649 123.827 228 234 255
120.188 159.66 116.351 204 219 255
136.596 167.652 111.146 199 216 255
122.31 77.4388 108.391 225 232 255
82.3923 151.209 109.872 235 238 255
37.5403 82.8475 115.347 238 239 255
73.2461 135.56 117.14 191 211 255
102.036 131.245 99.7425 202 218 255
94.1822 173.954 110.866 255 247 239
57.4012 87.6571 110.635 204 219 255
83.9851 45.2518 71.2078 204 219 255
82.026 16.8754 102.888 255 240 226
129.802 8.27556 120.395 202 218 255
125.278 128.594 114.632 220 229 255
110.704 116.217 115.485 240 241 255
112.706 170.101 107.095 215 226 255
102.484 120.887 122.37 255 248 240
143.949 117.078 113.487 226 232 255
84.3686 158.734 106.199 209 222 255
45.0805 98.3608 105.19 219 228 255
132.231 108.651 112.964 255 237 222
86.5694 159.96 112.36 255 250 244
136.818 163.038 115.411 188 209 255
21.185 54.4854 111.851 185 208 255
93.833 173.899 110.955 208 222 255
140.099 166.96 153.177 255 252 247
96.2367 66.8776 116.19 203 219 255
112.357 149.609 114.962 255 190 136
98.1205 89.8808 110.716 255 240 227
93.8648 173.908 110.953 255 251 255
150.165 82.5574 112.646 255 254 251
147.074 125.856 115.059 211 224 255
92.4978 175.3 109.487 255 248 240
93.5756 30.9746 107.473 211 224 255
124.406 112.816 119.134 227 233 255
108.173 106.203 113.746 208 222 255
16.4328 50.5012 114.061 191 211 255
61.5978 60.1995 122.511 217 227 255
95.3987 114.186 117.132 199 216 255
115.663 145.569 100.773 230 235 255
104.729 118.584 110.727 204 219 255
129.792 120.699 110.732 226 233 255
93.8512 173.904 110.954 194 213 255
152.035 111.037 101.555 234 237 255
124.061 78.3388 112.106 195 213 255
86.6695 94.4077 117.49 221 229 255
104.945 119.281 111.984 255 179 115
52.151 89.9522 108.336 201 218 255
67.5418 106.093 117.129 255 247 238
136.219 90.4196 117.687 255 250 243
65.4193 106.143 110.688 212 224 255
118.625 117.061 99.0159 249 245 255
93.7288 173.914 110.943 255 227 205
135.482 135.054 112.202 255 236 220
65.1914 124.358 108.382 183 206 255
72.8035 44.7541 114.197 197 215 255
117.425 52.0647 119.917 196 214 255
137.491 109.964 111.298 221 230 255
165.777 173.182 118.041 184 207 255
79.2933 28.4666 121.852 192 212 255
193.982 11.5016 114.795 187 209 255
128.253 114.933 111.615 255 0 0
134.027 71.2336 101.91 204 219 255
93.6203 173.578 110.731 190 211 255
104.506 103.352 118.875 190 210 255
110.587 120.681 108.106 236 238 255
106.785 125.395 133.03 255 240 226
80.6522 132.125 131.719 248 245 255
204.841 103.323 114.59 188 209 255
138.901 85.7209 85.5465 231 236 255
134.787 147.837 135.7 202 218 255
106.123 130.346 109.684 241 241 255
87.3759 142.998 109.836 201 217 255
93.8584 139.982 121.171 214 226 255
153.112 98.2204 112.202 255 175 106
116.93 107.678 101.329 255 236 220
143.288 65.6431 113.262 200 217 255
139.987 146.862 112.157 247 244 255
218.686 148.375 113.061 194 213 255
73.6106 155.258 121.334 193 213 255
52.693 117.345 97.8728 222 230 255
72.8427 75.1238 114.424 246 244 255
166.483 50.5452 116.665 188 209 255
131.373 133.974 125.967 216 226 255
178.971 50.785 112.832 196 214 255
138.49 152.326 110.446 255 253 248
70.2177 132.194 98.4694 210 223 255
125.055 108.788 126.615 255 198 152
50.1865 127.733 113.39 195 214 255
112.065 83.1429 108.868 255 244 233
104.013 102.12 110.854 255 228 207
93.8597 173.906 110.953 198 216 255
106.023 110.319 121.579 255 248 241
5.27278 77.4472 121.124 195 214 255
110.812 141.283 116.269 255 243 232
217.529 128.996 117.509 187 209 255
100.691 144.35 104.752 209 222 255
135.374 116.178 115.282 255 221 195
140.531 20.7905 107.63 213 225 255
101.5 100.859 104.609 226 232 255
108.745 106.694 93.911 209 222 255
119.125 130.18 105.379 255 217 187
82.685 157.799 120.334 193 212 255
93.889 173.913 110.95 235 238 255
102.18 142.215 120.944 191 211 255
82.2562 154.066 113.878 242 242 255
115.085 145.561 98.9123 249 245 255
74.5468 191.849 101.478 209 222 255
62.168 111.567 128.652 242 241 255
93.9509 174.306 111.042 255 238 224
119.229 140.318 86.258 205 220 255
113.895 109.211 114.755 216 227 255
105.682 144.412 114.576 255 221 193
110.101 112.683 101.6 215 226 255
101.088 159.414 108.982 209 222 255
106.549 188.529 111.211 193 213 255
105.277 85.7734 111.02 208 221 255
141.187 106.563 117.13 199 216 255
128.994 86.0978 107.159 191 211 255
93.8835 173.912 110.95 255 246 237
94.8224 120.605 111.634 205 220 255
93.8505 173.904 110.954 195 214 255
217.011 144.985 120.423 179 204 255
105.422 114.265 117.932 212 224 255
158.221 141.375 105.529 203 219 255
93.0599 173.397 110.985 212 224 255
169.349 86.6 123.022 255 252 247
93.9047 173.917 110.948 207 221 255
106.818 136.036 109.028 183 206 255
93.8555 173.905 110.953 255 239 225
93.8358 173.9 110.955 255 253 248
93.9922 173.939 110.941 197 215 255
107.514 33.0798 111.981 211 223 255
114.771 90.1596 114.065 199 216 255
96.7039 158.533 121.474 196 214 255
58.048 114.627 122.812 205 220 255
129.992 138.268 107.005 243 242 255
123.479 84.7823 137.364 213 224 255
168.681 131.531 107.809 208 221 255
108.513 119.667 114.313 255 241 229
106.799 142.91 112.791 179 204 255
131.145 86.892 112.699 217 227 255
163.27 59.7179 113.646 204 219 255
188.92 81.2011 140.679 252 247 255
153.224 137.566 208.957 255 221 193
56.1673 163.823 113.996 204 219 255
83.8372 214.315 107.62 226 232 255
115.103 106.401 116.293 255 113 0
84.96 140.008 112.786 255 254 251
146.177 117.473 115.934 193 212 255
115.566 96.6402 112.795 255 238 224
112.914 89.1796 112.869 213 225 255
121.211 122.226 96.5475 255 255 251
162.785 130.789 118.587 231 235 255
75.0899 134.826 98.1293 192 212 255
93.8593 173.906 110.953 202 218 255
154.327 169.75 117.193 188 209 255
83.7767 142.52 111.556 255 252 246
8.60042 109.013 110.01 190 211 255
118.863 85.7859 126.946 241 241 255
20.7128 173.349 111.861 194 213 255
138.464 94.963 100.611 211 224 255
113.307 10.156 118.903 198 215 255
185.619 121.142 115.148 204 219 255
103.785 175.963 108.379 255 229 207
115.174 136.412 115.196 212 224 255
82.7392 105.909 106.729 252 247 255
145.628 162.94 134.487 185 208 255
80.3314 43.3663 115.408 203 219 255
97.6955 192.55 103.841 190 211 255
93.761 171.47 112.809 200 217 255
87.8354 112.089 108.091 255 224 199
108.63 117.556 111.822 188 209 255
93.6974 173.904 111.065 215 226 255
102.969 128.039 98.3651 255 235 218
128.005 155.438 114.141 196 214 255
143.348 85.34 128.584 223 231 255
93.8983 173.916 110.948 255 250 243
205.113 143.181 118.646 204 219 255
162.702 98.5536 123.35 216 226 255
43.841 108.73 81.8404 197 215 255
110.511 161.096 90.4372 255 197 150
99.3181 122.847 106.546 239 240 255
93.4035 118.929 106.754 187 209 255
117.901 83.7428 111.198 255 198 151
91.6216 108.181 118.509 255 249 255
178.638 107.407 76.905 216 226 255
142.341 136.903 119.864 189 210 255
94.6415 173.79 111.159 197 215 255
159.253 161.018 113.767 183 206 255
85.9019 93.1233 109.623 239 240 255
114.281 110.391 110.632 255 206 167
33.4462 133.069 125.802 196 215 255
157.569 21.1976 119.993 182 206 255
148.407 166.993 110.427 202 218 255
120.796 61.8786 112.894 217 227 255
81.324 23.0852 91.6185 243 242 255
63.8689 90.2938 110.259 229 234 255
54.9502 183.21 112.6 218 228 255
109.605 137.061 101.673 227 233 255
174.079 150.797 92.1791 196 214 255
56.8372 95.2965 116.583 201 217 255
158.479 84.0137 92.4285 255 250 243
199.824 17.1372 106.912 185 208 255
59.9381 21.9863 136.597 201 218 255
100.799 107.839 119.247 237 239 255
123.464 82.5129 106.908 194 213 255
93.8701 173.909 110.952 213 225 255
113.491 158.177 119.561 191 211 255
115.382 143.393 104.847 255 245 236
125.09 126.812 104.395 255 224 200
111.073 112.008 111.209 255 220 193
220.5 121.206 119.287 184 207 255
176.95 16.9794 101.501 187 208 255
73.8099 68.9065 113.997 195 213 255
108.047 105.977 107.78 255 216 186
98.0242 128.278 116.993 255 232 213
113.92 97.2099 119.738 255 214 182
49.0985 19.6867 134.026 193 213 255
77.1408 149.914 114.339 213 225 255
131.652 86.7415 103.937 214 225 255
126.3 131.299 109.45 255 219 191
117.273 110.995 120.324 205 220 255
189.915 169.95 78.2744 204 219 255
108.875 130.748 111.371 226 232 255
124.184 117.534 111.956 224 231 255
123.007 76.4286 108.287 255 249 241
131.955 39.4018 114.999 196 214 255
102.432 98.2924 105.512 255 203 161
66.5106 152.276 126.007 221 229 255
73.6627 197.404 112.753 202 218 255
107.077 93.2357 121.08 202 218 255
173.927 106.633 114.005 234 237 255
56.5461 89.3871 113.17 205 220 255
65.7806 133.865 106.967 217 227 255
82.888 150.532 128.948 204 219 255
199.214 89.5088 115.697 193 213 255
109.468 166.399 129.294 182 205 255
115.306 156.106 115.47 255 249 255
162.377 23.9889 108.944 195 214 255
124.745 183.539 128.197 255 250 244
114.662 96.5297 117.951 223 231 255
72.9561 80.0386 114.123 255 249 242
59.8476 11.4937 83.9179 219 228 255
119.581 27.4572 116.664 255 206 166
66.3472 160.622 111.119 187 209 255
63.8022 111.202 115.673 192 212 255
115.151 125.241 110.649 255 251 244
128.536 162.62 107.599 215 226 255
142.749 3.0465 124.656 190 211 255
175.959 124.935 81.0474 196 214 255
73.6487 133.485 120.57 207 221 255
83.9949 47.1172 118.754 232 236 255
93.8384 173.901 110.955 192 212 255
115.818 95.5959 119.825 255 237 221
27.9844 198.893 82.4067 217 227 255
99.2157 11.4289 118.61 202 218 255
97.2539 136.022 110.944 255 245 236
165.746 149.418 156.752 195 214 255
129.885 79.3769 110.988 205 220 255
114.432 42.11 110.575 189 210 255
143.348 95.709 119.335 220 229 255
84.5766 182.123 119.27 255 209 172
108.741 125.395 117.775 255 216 185
96.1427 145.896 98.9562 206 221 255
37.9059 123.263 112.618 192 212 255
116.133 119.78 113.596 216 227 255
69.8756 45.6029 101.12 191 211 255
116.176 103.232 112.413 243 242 255
176.666 52.1791 109.699 200 217 255
174.041 4.21337 118.507 191 211 255
126.843 117.496 106.62 255 194 144
93.8608 173.906 110.953 188 209 255
110.884 108.208 113.389 255 192 141
108.031 101.038 109.519 253 248 255
93.9139 173.919 110.946 214 225 255
61.3326 107.682 112.262 215 226 255
93.9089 173.918 110.947 195 214 255
99.5114 98.4823 108.593 227 233 255
69.8915 5.49938 123.14 186 208 255
133.644 114.376 110.322 255 223 198
209.424 118.008 119.83 192 212 255
102.131 180.474 126.227 255 250 255
180.297 29.1438 115.023 188 210 255
163.513 117.769 124.397 205 220 255
106.221 98.0416 121.323 255 225 202
167.331 52.0364 116.251 196 214 255
82.1154 61.8282 112.554 204 219 255
116.666 128.301 109.751 255 238 223
102.583 124.086 111.284 255 216 185
52.082 107.69 128.054 230 234 255
119.628 54.4058 116.165 255 253 248
101.546 86.3135 116.989 192 212 255
48.3917 31.5103 129.663 205 220 255
90.8513 127.422 123.229 255 239 224
121.998 3.45312 101.158 183 206 255
134.146 84.0647 112.775 186 208 255
97.9447 44.2777 112.968 185 207 255
130.041 128.46 124.5 255 238 223
28.8527 169.153 119.412 223 230 255
94.2496 173.946 109.952 208 222 255
118.179 111.013 107.315 255 231 211
35.3451 51.5396 111.698 179 204 255
108.83 112.173 117.123 191 211 255
140.292 92.4145 111.776 195 214 255
138.747 1.95945 103.871 186 208 255
86.7127 32.7325 106.56 195 214 255
30.616 172.779 111.671 193 213 255
136.217 113.828 115.284 225 232 255
79.2852 159.515 107.408 187 209 255
94.028 173.93 110.934 208 222 255
129.106 144.218 134.36 207 221 255
117.996 129.008 114.35 229 234 255
92.3707 173.054 108.826 255 219 190
104.711 122.681 119.159 203 218 255
106.664 86.3383 120.184 241 241 255
93.8258 173.907 110.954 218 228 255
93.8721 173.909 110.951 255 250 244
104.038 108.836 111.008 203 219 255
93.8694 173.909 110.952 255 252 248
144.509 154.297 144.406 181 205 255
136.028 181.092 113.719 193 213 255
53.3189 103.721 100.283 215 226 255
162.263 130.065 127.871 194 213 255
59.8164 162.484 109.386 200 217 255
121.845 124.312 113.556 255 185 126
196.373 30.5359 98.0259 197 215 255
93.6362 122.2 107.445 208 222 255
115.57 132.451 98.9353 203 219 255
118.303 44.7634 68.9352 255 243 231
72.8941 167.022 121.749 212 224 255
122.737 107.701 97.1608 255 254 250
93.8634 173.907 110.953 204 220 255
125.62 115.304 115.132 255 171 97
111.762 111.931 106.397 199 216 255
93.8338 173.899 110.955 209 223 255
110.203 103.527 107.539 200 217 255
98.1213 68.1275 115.839 255 249 255
48.0385 116.141 151.905 255 238 224
93.9147 173.919 110.946 216 226 255
173.305 125.662 92.9631 188 209 255
149.147 99.9196 102.645 231 235 255
80.9286 172.708 114.524 198 215 255
111.606 105.796 109.306 255 173 101
93.8956 173.915 110.949 202 218 255
82.252 136.075 101.995 255 237 222
110.441 78.6891 116.181 198 216 255
109.496 107.406 116.578 194 213 255
105.109 112.23 99.0712 255 252 247
130.79 86.1075 109.209 251 246 255
105.209 218.637 123.934 255 216 185
93.8667 173.908 110.953 202 218 255
63.0067 99.5333 106.787 204 219 255
92.8024 174.191 111.883 190 210 255
103.082 71.5528 116.179 200 217 255
87.3311 169.82 113.522 223 231 255
89.6046 184.328 114.773 255 230 210
61.8283 109.187 130.168 199 216 255
93.8646 173.907 110.953 202 218 255
92.9238 65.491 114.073 190 211 255
26.802 122.21 143.989 207 221 255
94.3621 89.5012 108.605 191 212 255
153.252 93.348 119.669 219 229 255
103.667 106.646 123.853 206 221 255
28.111 120.033 106.545 193 212 255
93.9546 173.928 110.94 255 212 178
132.127 23.7204 105.257 210 223 255
191.259 148.9 118.968 185 207 255
134.935 86.896 117.848 247 244 255
106.936 127.253 103.52 255 231 212
148.405 108.64 117.677 213 225 255
193.272 31.0063 109.657 191 211 255
93.7904 172.239 110.024 210 223 255
94.3345 173.228 110.542 255 235 219
102.593 105.673 101.467 221 230 255
116.745 65.2338 105.917 198 216 255
104.729 140.634 107.736 247 244 255
108.869 108.263 118.338 205 220 255
112.459 107.262 117.517 255 249 255
85.509 150.289 114.16 215 226 255
62.3273 72.2423 74.9677 208 222 255
118.514 155.781 115.588 201 217 255
134.271 77.0742 138.205 251 247 255
115.667 87.0273 110.791 235 237 255
213.955 153.76 116.679 219 228 255
127.485 124.481 122.396 255 250 244
87.6807 152.333 116.936 255 237 223
121.859 92.4076 117.789 222 230 255
93.8637 173.907 110.953 197 215 255
92.0626 51.0098 114.06 180 204 255
93.9423 173.924 110.937 192 212 255
108.202 191.959 109.19 193 212 255
97.5807 116.476 121.683 234 237 255
93.8263 173.897 110.955 188 210 255
60.9563 67.8867 132.913 255 251 245
93.8596 173.906 110.953 214 225 255
111.585 11.6188 100.088 194 213 255
80.8449 152.989 108.214 229 234 255
120.371 188.079 108.216 219 228 255
93.8561 173.905 110.953 211 224 255
116.785 37.9635 116.409 204 219 255
149.789 89.7848 113.415 207 221 255
110.424 102.991 102.43 255 239 225
214.26 86.5449 109.714 211 223 255
93.8148 174.127 110.99 199 216 255
93.8708 173.911 110.956 201 218 255
113.303 112.632 114.066 224 231 255
89.4296 173.834 113.265 255 252 247
46.8988 62.4225 99.7485 193 212 255
93.7443 174.008 110.982 214 225 255
103.588 97.6436 100.564 255 218 188
111.551 135.626 105.95 211 224 255
117.089 92.557 111.636 255 186 128
150.272 15.9262 105.872 207 221 255
76.6563 29.2761 101.186 196 214 255
137.391 58.3913 116.965 189 210 255
127.002 76.3599 105.364 216 226 255
93.9333 173.925 110.942 194 213 255
68.9333 82.5811 113.602 215 226 255
66.485 119.408 112.826 204 219 255
54.4343 88.5667 97.5543 235 238 255
74.7785 64.0342 112.296 255 247 238
209.736 151.101 116.269 185 207 255
93.8633 173.907 110.953 207 221 255
26.2021 86.3725 112.222 189 210 255
63.8117 134.209 110.683 186 208 255
168.584 89.7936 110.701 209 222 255
122.846 105.308 116.782 255 202 159
81.0679 160.538 111.972 191 211 255
61.407 67.892 120.215 213 224 255
93.8653 173.908 110.952 195 214 255
162.137 117.906 103.907 233 237 255
76.6849 73.3446 112.613 255 232 213
157.102 110.345 114.013 197 215 255
110.112 11.5841 110.486 191 211 255
193.318 119.606 72.2554 255 205 165
215.524 147.974 112.731 186 208 255
120.016 85.1269 126.932 255 236 220
102.315 186.543 112.08 212 224 255
52.8587 135.998 110.454 219 228 255
126.832 80.3679 105.418 219 228 255
99.5644 108.896 102.049 194 213 255
102.555 101.421 111.648 209 223 255
126.054 115.18 115.107 255 249 255
136.771 82.0602 100.875 228 234 255
93.7345 173.903 110.95 193 213 255
47.1695 127.616 114.086 203 219 255
76.3194 108.793 112.781 219 228 255
146.759 100.78 106.111 200 217 255
131.989 159.946 112.013 195 214 255
61.0358 161.861 73.8433 184 207 255
63.0898 90.3569 113.167 200 217 255
152.598 103.702 112.984 255 251 255
111.353 107.026 107.024 204 219 255
93.8631 173.907 110.953 193 212 255
63.8247 61.9865 109.713 184 207 255
115.56 77.1145 126.734 192 212 255
93.8763 173.91 110.951 193 213 255
132.582 38.5313 114.817 193 212 255
93.8656 173.908 110.953 206 221 255
223.97 55.9972 109 185 208 255
84.3097 142.404 108.381 255 246 238
180.221 80.2364 118.618 201 218 255
219.457 113.03 117.821 191 211 255
108.45 88.3387 111.161 209 222 255
54.0511 4.65342 88.7539 196 215 255
81.3809 37.4965 110.762 212 224 255
48.892 100.486 111.866 185 207 255
71.3446 55.1711 105.866 186 208 255
116.817 119.845 99.9316 243 242 255
121.862 176.183 113.796 188 210 255
112.128 83.4131 111.407 226 232 255
128.148 77.1302 120.719 216 226 255
100.061 150.29 114.75 210 223 255
93.8743 173.904 110.941 214 225 255
162.518 162.514 113.657 198 216 255
111.13 174.225 109.139 207 221 255
122.884 134.462 99.6128 255 195 145
88.8483 150.867 130.813 201 218 255
108.352 107.937 110.98 255 229 208
84.996 137.282 107.545 200 217 255
219.36 74.4326 111.861 187 209 255
142.06 90.9493 110.931 191 211 255
5.88047 90.5712 113.296 198 216 255
108.512 170.397 103.301 208 222 255
70.431 115.101 114.842 255 218 188
177.619 38.3033 112.037 181 205 255
21.9076 49.7014 115.295 198 216 255
93.4457 174.064 111.165 201 218 255
150.281 5.60656 106.312 196 214 255
100.751 131.582 101.524 255 233 216
97.2244 163.755 134.172 197 215 255
106.905 121.686 124.437 255 249 255
162.032 2.88776 121.965 188 209 255
35.769 50.9397 107.776 182 206 255
93.5544 173.977 111.064 201 218 255
58.9666 139.521 102.005 191 212 255
89.6045 192.409 99.2912 194 213 255
114.456 121.994 101.737 238 239 255
110.31 100.285 119.632 208 222 255
93.8483 173.905 110.953 209 222 255
93.8975 173.915 110.949 220 229 255
92.9156 111.101 113.016 236 238 255
160.935 43.7753 116.725 189 210 255
93.8346 173.9 110.955 198 216 255
79.6741 39.5541 107.415 213 225 255
154.202 110.228 117.063 206 220 255
63.2449 140.808 99.3564 199 216 255
106.504 157.91 100.123 255 247 239
140.882 106.59 116.244 202 218 255
125.986 127.1 93.9348 255 201 157
77.1089 3.93385 104.25 181 205 255
110.655 128.914 109.828 218 228 255
93.982 173.933 110.935 255 251 255
117.501 193.854 107.591 249 246 255
93.9399 173.985 110.856 200 217 255
156.708 127.589 109.409 189 210 255
75.5962 146.061 115.842 249 245 255
141.963 83.294 91.1371 215 226 255
116.787 127.232 99.685 240 240 255
102.778 125.696 107.908 217 227 255
93.8555 173.905 110.954 204 219 255
40.9859 134.459 117.141 206 220 255
107.762 142.916 107.877 237 239 255
93.8633 173.908 110.952 212 224 255
140.435 85.7642 108.387 203 219 255
87.2991 174.829 111.071 255 186 128
151.884 170.665 113.021 255 231 211
104.98 102.954 112.767 199 216 255
138.516 106.819 31.8867 186 208 255
93.8618 173.907 110.953 239 240 255
119.532 98.1713 107.341 229 234 255
65.3156 53.2926 114.704 216 226 255
117.349 137.463 104.736 255 234 217
10.4866 121.899 110.22 189 210 255
66.9521 116.034 111.871 253 248 255
106.804 84.528 114.532 211 223 255
137.984 92.7627 108.849 246 244 255
110.416 146.667 116.819 202 218 255
93.8775 173.911 110.951 196 215 255
145.245 31.5943 112.523 194 213 255
131.012 46.2774 118.435 190 211 255
13.9512 145.519 119.615 217 227 255
93.9462 173.947 110.942 255 236 221
105.359 99.3244 115.612 241 241 255
127.973 113.679 103.477 226 232 255
29.7589 110.499 112.421 201 217 255
216.654 123.747 119.23 189 210 255
93.8613 173.907 110.953 213 225 255
115.44 64.1536 118.337 199 216 255
133.537 126.231 109.386 222 230 255
11.6378 60.7766 105 183 206 255
107.175 117.375 123.401 255 241 228
88.3506 184.693 111.854 255 249 242
93.7607 173.904 110.955 202 218 255
116.656 127.943 115.309 211 224 255
93.8662 173.908 110.952 255 223 198
107.76 99.2541 109.55 216 226 255
153.252 48.3257 116.108 202 218 255
107.318 147.532 117.597 202 218 255
183.086 0.198349 101.415 210 223 255
109.695 131.897 98.6486 255 227 204
85.7826 86.5086 109.512 201 217 255
105.533 165.595 93.7899 194 213 255
132.979 146.747 111.557 213 225 255
93.9203 149.762 119.023 240 241 255
190.178 127.213 135.128 194 213 255
106.252 103.465 110.636 249 246 255
77.4095 60.2681 112.896 187 209 255
157.95 149.03 111.375 230 235 255
93.8635 173.907 110.953 218 228 255
102.98 173.383 110.945 215 226 255
132.086 80.1507 105.08 207 221 255
128.995 79.1606 101.605 233 236 255
117.368 134.688 112.749 227 233 255
116.673 113.652 111.652 244 243 255
223.573 134.052 110.677 188 209 255
102.702 11.5566 102.518 178 203 255
158.117 94.1774 110.197 192 212 255
108.965 176.838 102.886 255 187 131
66.5358 69.7289 110.486 216 227 255
93.8448 173.902 110.954 197 215 255
136.758 143.803 133.546 191 211 255
79.7041 32.7982 85.3992 204 219 255
112.187 115.258 112.301 255 253 249
73.166 162.656 103.354 221 229 255
120.235 116.164 109.955 214 225 255
93.9784 173.929 110.935 204 219 255
26.5778 144.779 114.991 209 222 255
187.602 23.9379 110.54 204 219 255
215.137 154.602 116.61 196 214 255
93.8647 173.907 110.953 235 238 255
93.7786 173.843 110.915 225 232 255
122.265 79.4914 106.964 255 229 209
93.7083 173.884 111.057 206 221 255
80.9299 190.423 120.644 204 219 255
177.428 130.411 109.16 218 227 255
117.864 67.1446 118.759 216 226 255
93.9942 173.947 110.939 201 217 255
118.883 110.743 121.957 224 231 255
124.522 125.412 101.45 208 222 255
175.605 20.8619 110.858 219 228 255
93.8526 173.904 110.954 255 253 248
101.905 84.477 117.878 235 238 255
109.393 190.689 111.208 203 218 255
122.327 113.469 96.8828 212 224 255
122.005 110.149 105.927 255 191 138
114.985 119.814 115.299 187 208 255
93.8036 173.813 111.071 215 226 255
127.324 110.199 100.966 242 242 255
41.9605 42.2461 111.94 192 212 255
106.212 111.079 110.538 255 245 235
83.6997 96.9297 114.92 188 209 255
127.014 78.5363 115.33 255 249 255
223.326 148.244 120.526 191 211 255
127.768 202.397 119.32 190 210 255
113.897 122.182 119.876 204 219 255
96.1121 130.088 112.419 255 198 152
115.75 125.049 115.212 255 230 210
101.279 138.708 115.386 235 238 255
83.5983 74.4304 111.594 255 244 234
63.8596 83.8866 95.0015 197 215 255
98.0582 147.745 108.625 201 217 255
93.9538 173.927 110.938 242 242 255
115.979 124.933 101.076 255 215 183
108.844 112.918 105.267 255 240 227
111.019 111.073 120.538 255 185 126
66.5988 41.5948 110.035 189 210 255
103.806 68.2155 117.975 229 234 255
95.6033 180.248 120.732 230 235 255
117.152 113.089 113.037 216 227 255
93.8289 173.898 110.955 255 249 241
175.019 116.042 118.402 197 215 255
57.2767 105.006 124.271 213 225 255
108.926 157.999 112.812 226 232 255
128.165 119.334 111.372 195 213 255
79.575 136.905 102.158 255 248 241
83.9948 56.9239 110.09 195 214 255
106.944 102.697 115.259 255 234 217
33.6176 85.7415 124.045 204 219 255
93.8962 173.915 110.949 189 210 255
113.017 83.0746 121.367 221 230 255
93.8537 173.905 110.954 199 216 255
145.155 13.4687 116.894 194 213 255
123.493 150.101 120.495 185 207 255
61.2227 49.8338 116.216 196 215 255
48.3452 43.1317 93.703 205 220 255
93.8634 173.907 110.953 198 216 255
82.0265 144.074 134.562 235 238 255
84.6837 50.0146 111.079 206 220 255
52.0669 160.366 109.179 187 209 255
152.513 104.479 105.616 250 246 255
93.9568 173.905 110.936 202 218 255
75.3956 135.22 109.16 209 222 255
154.604 120.179 113.915 180 205 255
105.475 57.095 117.171 204 219 255
93.9058 173.917 110.948 191 211 255
121.317 84.9449 110.39 203 218 255
88.4855 186.925 113.244 189 210 255
108.384 133.479 107.176 255 126 0
127.537 120.993 111.999 255 250 244
18.0427 89.7003 114.755 189 210 255
60.4606 76.8604 108.401 209 222 255
110.983 100.336 92.8458 255 249 255
103.398 89.9689 121.717 204 219 255
13.2363 188.699 98.9899 203 219 255
131.292 19.1893 115.865 185 208 255
97.2196 189.572 101.763 235 237 255
119.713 144.16 117.47 255 245 234
93.8996 173.917 110.948 205 220 255
213.88 95.2776 119.714 189 210 255
72.5782 77.5904 112.472 197 215 255
47.2505 75.2158 97.0782 231 235 255
98.6671 179.964 96.0041 228 233 255
89.1664 183.318 111.825 227 233 255
146.391 152.364 115.986 212 224 255
140.269 152.271 109.811 239 240 255
104.776 105.648 121.1 255 255 251
60.5673 32.3611 110.842 185 207 255
14.2374 176.506 116.645 188 210 255
62.3514 72.7746 128.389 255 241 229
84.8508 184.937 107.011 255 242 230
118.167 96.5987 108.912 208 222 255
128.24 192.673 116.692 197 215 255
30.8489 162.116 112.685 211 224 255
20.1714 122.565 107.809 189 210 255
97.4293 222.004 116.029 185 208 255
93.8374 173.9 110.955 195 214 255
118.476 152.688 110.173 221 229 255
11.0213 157.163 113.254 188 210 255
63.1807 47.8798 96.779 182 205 255
76.5451 90.9272 110.095 205 220 255
107.647 106.73 108.104 249 245 255
93.8777 173.911 110.951 192 212 255
124.07 136.114 109.265 244 243 255
177.61 140.916 111.011 181 205 255
42.0005 143.642 112.266 208 222 255
51.6959 72.5784 103.264 199 216 255
107.981 105.906 109.121 204 219 255
109.204 103.464 109.52 255 231 211
111.736 128.282 121.249 255 254 251
50.4836 121.761 113.343 208 222 255
118.564 170.976 102.486 203 219 255
114.109 110.96 117.754 218 228 255
107.15 98.515 118.324 227 233 255
102.265 96.5187 115.886 187 208 255
153.723 57.0807 113.42 192 212 255
112.114 103.338 100.529 213 224 255
132.548 128.207 108.717 207 221 255
161.162 32.3207 116.02 244 243 255
52.5488 80.9802 123.292 189 210 255
26.9571 223.85 110.985 187 209 255
25.0977 46.7685 108.906 180 204 255
92.9048 174.336 111.277 255 249 241
93.8769 173.91 110.951 199 216 255
84.8691 78.1503 113.994 208 222 255
120.553 96.7538 109.922 237 239 255
106.896 105.786 115.755 255 253 249
93.8604 173.906 110.953 219 228 255
93.8626 173.907 110.953 207 221 255
92.4788 123.231 113.357 255 249 242
102.005 102.866 107.69 216 226 255
41.1514 112.356 95.9248 212 224 255
58.6737 89.864 104.431 206 220 255
88.4918 171.25 106.152 238 239 255
205.048 42.3292 112.083 193 212 255
128.897 73.1323 105.922 246 244 255
131.67 65.3716 125.892 255 218 189
86.0868 30.5083 85.681 196 214 255
123.259 142 109.855 252 247 255
100.051 138.6 92.267 225 232 255
9.52303 110.74 110.176 183 206 255
196.952 118.977 116.708 201 217 255
89.5243 106.082 105.859 255 254 250
162.145 140.744 114.126 203 218 255
97.6471 54.0754 120 184 207 255
93.8933 173.915 110.949 203 218 255
95.1551 102.132 104.712 255 251 246
68.4445 141.234 100.518 207 221 255
112.592 145.11 113.483 249 246 255
148.92 93.4669 132.125 202 218 255
179.309 6.10843 111.335 184 207 255
144.889 97.4739 111.475 181 205 255
114.943 152.632 116.675 207 221 255
198.706 44.3338 111.633 186 208 255
121.003 83.596 111.281 225 232 255
102.402 123.517 107.931 206 220 255
215.725 22.7901 110.269 184 207 255
93.8698 173.909 110.952 191 211 255
152.062 94.3911 114.526 231 235 255
119.053 120.871 112.078 254 248 255
93.6237 174.011 111.029 206 220 255
93.8034 173.892 110.955 204 219 255
159.959 123.527 107.485 255 237 222
79.461 145.716 103.461 255 253 249
105.882 147.042 93.0747 255 225 200
101.962 108.273 124.258 218 227 255
114.257 143.123 117.145 218 228 255
167.888 82.6206 76.2705 206 220 255
66.4269 142.609 112.372 197 215 255
101.995 141.021 98.0473 255 247 238
24.747 108.391 111.394 202 218 255
113.231 51.005 118.451 199 216 255
96.5056 35.4139 102.599 191 211 255
96.4148 83.1491 107.568 255 239 226
110.516 106.178 114.754 255 248 241
188.381 163.869 109.385 190 211 255
110.313 108.428 112.261 233 237 255
116.181 104.152 112.576 217 227 255
122.926 109.853 117.27 249 246 255
147.123 90.9844 114.341 255 223 198
93.8697 173.909 110.952 231 235 255
108.039 109.448 113.44 255 244 234
169.532 79.6036 113.479 218 227 255
108.779 119.702 109.157 208 221 255
114.624 95.5845 107.619 255 242 229
110.4 21.1884 86.7409 195 214 255
6.20251 60.6493 159.926 204 219 255
134.572 85.4763 112.084 215 226 255
113.196 129.015 144.048 218 228 255
113.776 119.163 112.369 217 227 255
61.7623 108.991 111.406 196 214 255
154.303 103.274 114.823 255 253 248
93.8749 173.91 110.951 206 220 255
106.213 130.634 101.393 255 216 185
123.724 58.7701 123.158 194 213 255
123.89 117.563 104.835 226 232 255
209.8 144.159 114.614 198 216 255
114.438 130.282 95.6242 255 251 246
93.845 173.902 110.954 207 221 255
42.3986 149.989 110.332 196 214 255
128.081 142.889 109.581 182 205 255
75.001 49.7711 111.761 201 218 255
94.0253 173.969 110.902 255 236 220
58.8572 2.27945 95.7394 185 207 255
148.85 95.624 108.101 195 214 255
121.362 146.806 122.916 255 196 149
131.385 123.484 108.099 202 218 255
103.098 181.2 114.383 210 223 255
93.9034 173.882 110.954 192 212 255
147.358 117.411 107.563 255 224 200
181.647 69.7052 115.363 236 238 255
113.6 125.754 115.772 255 245 235
112.871 123.344 108.518 245 243 255
74.7013 65.8725 110.519 198 215 255
25.0411 121.457 133.438 236 238 255
106.375 131.227 97.6717 195 213 255
173.446 97.6773 144.608 255 252 247
120.492 109.133 112.211 255 226 203
93.526 139.603 102.794 255 236 221
158.206 100.552 102.401 184 207 255
153.433 48.0892 110.192 194 213 255
47.681 20.5688 110.045 189 210 255
113.352 130.648 118.686 255 217 187
110.537 10.3396 108.092 197 215 255
20.4237 157.265 114.976 197 215 255
132.219 87.3792 108.459 209 222 255
65.2447 119.298 120.371 238 239 255
103.575 119.754 127.352 232 236 255
101.383 181.693 110.725 196 214 255
117.719 110.181 122.232 255 250 244
118.228 114.745 119.16 197 215 255
93.8498 173.904 110.954 223 231 255
130.43 115.125 106.934 255 250 255
109.079 143.207 117.487 255 238 223
110.221 105.525 109.973 255 232 214
124.886 105.519 102.604 248 245 255
110.264 114.857 109.624 216 226 255
93.8533 173.905 110.954 201 217 255
104.185 102.729 107.358 255 251 245
139.157 29.7378 112.733 187 209 255
88.8063 140.634 104.939 218 228 255
74.8253 96.783 121.697 204 219 255
93.9072 173.918 110.947 192 212 255
120.609 48.1993 116.702 213 225 255
196.996 48.1215 111.324 195 214 255
106.751 94.6605 109.258 255 246 236
93.8665 173.908 110.952 255 245 235
68.2387 123.885 113.161 205 220 255
106.366 175.764 125.077 206 221 255
56.5191 121.738 105.679 197 215 255
15.2993 42.7514 111.453 214 225 255
93.5865 175.248 110.708 193 212 255
116.705 156.799 121.784 255 229 208
99.9864 108.825 112.507 255 252 246
43.5991 35.0962 105.718 191 211 255
110.651 222.445 104.657 204 219 255
43.0964 80.5963 120.272 195 214 255
115.431 92.0329 111.452 255 251 245
148.701 110.296 114.015 224 231 255
78.9876 103.629 110.829 218 228 255
93.8497 173.904 110.954 204 219 255
108.44 108.208 110.648 212 224 255
121.578 120.859 98.1671 255 69 0
94.0465 173.966 111.153 200 217 255
107.595 126.925 87.8602 208 221 255
103.681 91.0541 123.908 242 241 255
121.332 128.757 106.388 255 250 255
118.414 90.6563 115.791 234 237 255
51.9596 63.9678 101.95 223 231 255
113.509 129.259 105.301 255 210 174
136.702 97.8327 120.967 255 184 125
122.028 136.41 181.786 210 223 255
124.538 107.411 109.767 255 237 221
104.454 102.015 105.324 255 250 244
117.568 100.49 115.9 223 231 255
109.416 118.999 103.062 255 253 249
207.47 116.335 114.261 188 210 255
71.1373 43.7177 110.304 194 213 255
132.395 95.8739 109.316 209 223 255
161.982 111.213 107.816 255 255 251
118.511 102.767 118.236 213 224 255
93.7311 173.847 111.035 183 206 255
126.812 125.376 109.029 215 226 255
24.5031 222.936 105.747 186 208 255
149.199 91.9015 101.466 255 253 249
140.116 199.912 117.62 202 218 255
127.375 78.1737 109.776 255 245 236
112.273 113.781 112.204 255 229 208
156.532 113.838 108.17 201 218 255
163.912 27.1744 106.146 225 232 255
85.5578 151.408 111.297 212 224 255
118.862 77.8879 109.816 255 236 220
93.8724 173.909 110.952 194 213 255
190.531 30.0141 113.472 189 210 255
198.3 142.67 119.303 205 220 255
99.6836 124.389 110.622 193 212 255
154.629 124.207 112.856 255 255 252
194.285 68.7482 113.201 184 207 255
133.246 88.4003 94.3589 203 219 255
112.234 137.644 106.732 243 242 255
100.619 148.728 116.062 255 249 255
93.8688 173.908 110.952 196 214 255
11.0637 171.15 113.43 191 211 255
93.8874 173.913 110.95 189 210 255
117.179 134.689 112.919 213 225 255
144.401 84.0757 147.122 234 237 255
116.794 112.603 114.976 255 225 201
97.2959 190.531 101.809 219 228 255
93.8879 173.913 110.95 209 222 255
155.158 4.44467 126.775 194 213 255
104.578 94.754 106.174 255 247 239
98.8068 114.368 119.748 255 237 222
76.8156 117.564 115.666 199 216 255
75.3526 155.687 119.605 255 220 192
94.6148 174.184 110.77 226 232 255
112.966 192.179 115.914 183 206 255
100.391 140.778 112.244 255 249 242
160.428 32.8138 106.779 203 219 255
93.8154 173.894 110.956 209 222 255
114.111 12.1608 124.953 181 205 255
138.159 119.745 120.836 255 233 214
94.4393 174.358 110.905 255 240 227
122.413 88.4141 112.053 214 225 255
148.41 157.033 113.429 225 232 255
104.132 96.1005 104.918 237 239 255
118.959 112.125 113.116 255 203 162
156.56 14.5969 113.293 204 220 255
93.8693 173.909 110.952 194 213 255
93.82 173.896 110.959 231 235 255
123.551 126.16 104.986 215 226 255
170.553 3.92693 108.051 180 204 255
93.8627 173.907 110.953 194 213 255
108.1 112.406 121.98 211 224 255
95.6746 149.979 107.796 205 220 255
115.681 107.115 112.172 215 226 255
102.273 122.572 119.049 217 227 255
37.1084 177.64 110.569 230 235 255
107.957 2.97293 93.0369 192 212 255
175.5 114.889 122.697 211 223 255
65.5736 64.1786 99.5313 200 217 255
113.987 118.288 115.459 255 189 135
130.355 116.211 98.4511 248 245 255
144.83 163.96 123.129 210 223 255
135 138.506 133.437 186 208 255
147.11 107.505 164.078 209 222 255
102.55 12.8361 122.661 186 208 255
203.012 141.076 119.85 194 213 255
218.191 133.748 118.595 187 209 255
167.41 157.849 126.632 186 208 255
117.051 150.486 105.428 216 227 255
110.362 109.391 117.424 255 47 0
100.443 213.791 112.259 208 222 255
209.788 88.017 115.046 181 205 255
181.679 105.623 114.123 201 217 255
125.179 131.948 124.106 248 245 255
101.011 100.125 100.549 242 242 255
113.73 77.2471 122.165 215 226 255
94.2199 174.215 111.149 255 255 251
93.4374 125.645 110.451 200 217 255
149.306 45.754 113.977 194 213 255
85.5869 159.498 114.953 222 230 255
150.321 71.3335 116.699 199 216 255
143.924 113.275 113.553 234 237 255
111.224 131.168 117.795 228 234 255
111.76 119.164 107.476 255 237 222
92.247 173.575 110.436 200 217 255
187.198 19.3637 115.603 179 204 255
119.812 205.242 103.092 200 217 255
93.8612 173.907 110.953 199 216 255
64.7438 43.0565 118.64 191 211 255
109.843 153.058 117.046 211 224 255
108.222 28.8692 111.998 205 220 255
121.675 181.331 111.074 195 214 255
92.3616 172.939 111.113 205 220 255
78.4239 91.3089 113.724 215 226 255
142.791 80.4229 113.036 248 245 255
124.897 95.43 112.609 255 254 250
61.2203 61.4429 129.736 218 228 255
103.951 113.097 122.398 221 230 255
128.073 130.796 105.591 251 247 255
93.8282 173.898 110.957 193 212 255
125.068 119.549 111.022 210 223 255
112.311 135.122 136.152 255 249 255
93.8639 173.907 110.953 229 234 255
116.743 93.5598 127.349 209 222 255
91.6722 159.818 118.124 255 255 252
143.161 55.0599 113.672 193 213 255
40.0556 76.9941 105.809 214 225 255
110.88 102.828 109.293 205 220 255
92.6353 173.358 110.979 255 222 196
111.07 86.6266 117.396 198 216 255
107.024 168.049 134.881 200 217 255
28.6906 154.192 110.6 255 212 178
201.742 53.9542 111.566 186 208 255
128.038 118.999 97.6351 238 239 255
116.917 82.3681 105.958 193 213 255
128.104 130.591 112.415 255 254 249
56.808 109.881 108.389 203 219 255
72.0504 211.414 113.982 212 224 255
113.47 91.3837 109.498 228 234 255
150.621 94.1063 107.584 206 221 255
120.529 88.1433 115.888 255 198 151
80.5562 27.5954 119.212 211 224 255
93.872 173.909 110.952 215 226 255
139.405 69.8401 98.7009 217 227 255
125.128 201.39 110.289 194 213 255
106.26 102.902 118.572 255 254 250
9.9577 194.286 102.559 191 212 255
141.333 81.2516 125.913 228 233 255
142.049 74.2629 125.462 209 222 255
93.9105 173.919 110.947 205 220 255
130.515 136.615 130.32 255 214 181
103.392 101.029 111.205 210 223 255
177.948 39.2565 112.336 186 208 255
93.8742 173.91 110.952 204 219 255
114.391 118.184 101.252 198 216 255
93.8563 173.905 110.953 255 250 255
89.6664 138.006 115.908 201 217 255
101.926 127.821 111.862 255 249 242
90.1048 130.167 113.157 255 230 209
119.572 120.795 117.496 255 234 217
80.5237 35.2251 104.64 185 208 255
47.796 145.22 102.667 205 220 255
117.113 135.164 98.4673 216 227 255
93.8969 173.915 110.949 225 232 255
103.062 141.15 116.54 208 222 255
93.8704 173.909 110.952 223 231 255
167.139 136.84 143.072 207 221 255
122.27 84.9844 103.761 238 240 255
130.028 105.988 123.828 255 202 160
93.7791 173.892 110.954 254 248 255
127.217 122.743 112.348 255 224 199
113.981 118.136 123.941 255 244 233
171.818 154.241 103.015 214 225 255
128.387 125.596 118.875 255 253 249
52.6196 26.6855 120.916 200 217 255
91.3352 96.1272 107.785 193 212 255
120.733 118.705 110.76 229 234 255
93.8493 173.904 110.954 250 246 255
83.8476 55.0544 115.46 179 203 255
152.345 112.004 115.821 196 214 255
124.577 104.77 111.994 217 227 255
110.593 115.678 111.557 213 225 255
27.0734 54.1842 109.147 204 219 255
105.849 21.0553 117.513 205 220 255
129.908 115.208 123.969 243 242 255
123.783 89.7895 111.621 211 223 255
90.7794 165.811 103.02 240 241 255
122.655 157.451 116.972 255 241 228
89.1946 96.5887 117.257 243 242 255
143.553 110.551 148.112 197 215 255
24.1184 88.7686 107.172 200 217 255
121.764 126.865 113.326 210 223 255
60.8239 94.6941 110.683 255 248 241
150.676 19.5371 113.912 199 216 255
103.942 131.13 102.641 255 222 196
164.588 154.452 162.4 226 232 255
219.293 48.997 111.896 195 213 255
93.8609 173.906 110.953 200 217 255
129.101 115.352 106.24 255 245 235
90.5392 87.6629 115.885 213 225 255
116.351 115.633 107.77 242 242 255
174.437 74.8481 105.515 230 235 255
219.556 134.912 113.339 194 213 255
138.203 84.7674 102.494 255 215 184
162.49 84.6773 114.009 198 216 255
118.755 160.121 106.779 195 214 255
123.379 127.507 112.375 201 218 255
117.984 68.8868 123.102 186 208 255
103.259 93.8983 114.57 195 213 255
93.8524 173.904 110.954 200 217 255
69.8909 101.493 110.095 204 219 255
104.641 132.378 113.203 255 230 210
129.151 92.7301 107.448 203 219 255
118.162 84.4863 110.676 213 225 255
114.589 20.7513 108.077 184 207 255
50.4598 108.926 131.343 201 217 255
48.2923 37.9356 106.844 199 216 255
16.6179 63.3059 118.366 181 205 255
55.8761 58.5124 116.024 182 205 255
52.748 112.099 93.6862 245 243 255
112.8 104.941 106.079 238 239 255
107.865 109.483 108.97 206 220 255
68.8337 140.946 114.735 208 221 255
81.7977 54.6844 111.843 198 216 255
116.83 142.566 106.205 255 232 214
121.674 69.9731 123.644 195 214 255
70.6359 73.7374 104.176 255 241 228
114.68 102.94 128.199 255 245 235
109.486 120.335 107.613 227 233 255
61.5646 146.284 112.968 202 218 255
115.244 128.801 96.3131 255 222 196
61.4835 109.714 113.188 193 213 255
124.904 106.801 123.407 245 243 255
133.088 129.592 121.144 213 225 255
142.889 23.8024 112.328 198 215 255
21.2431 90.5446 115.599 216 226 255
124.673 102.229 110.162 209 223 255
113.279 85.7689 126.783 193 212 255
93.8205 173.878 110.941 192 212 255
116.732 111.753 119.691 255 248 241
107.826 110.347 121.223 237 239 255
137.497 52.8941 113.773 198 215 255
34.8705 103.252 119.769 208 222 255
21.9393 92.1609 112.233 185 207 255
77.6648 32.2463 103.316 217 227 255
59.1246 121.296 122.275 219 228 255
69.9785 52.0818 114.167 255 245 236
102.123 139.266 108.479 236 238 255
162.279 116.222 108.383 201 218 255
93.88 173.911 110.951 221 229 255
182.517 97.4417 109.882 194 213 255
14.9747 203.982 106.746 184 207 255
93.8583 173.906 110.953 233 236 255
98.5272 114.647 113.597 255 205 164
144.478 62.3587 111.19 228 233 255
93.8479 173.903 110.954 224 231 255
80.1722 167.183 100.331 255 249 255
123.869 149.816 118.535 190 211 255
94.2078 113.404 102.351 231 235 255
48.896 93.5132 116.54 204 219 255
117.541 132.991 100.325 208 222 255
109.202 154.023 118.363 255 249 242
93.9803 173.927 110.931 199 216 255
105.982 16.4466 71.4498 212 224 255
116.007 87.0318 131.623 200 217 255
93.9278 173.905 110.938 199 216 255
47.0094 115.769 132.711 255 232 214
131.387 121.644 117.026 232 236 255
93.9002 173.916 110.948 184 207 255
178.298 130.042 114.734 197 215 255
115.768 157.116 114.909 255 214 181
161.043 176.783 110.832 221 230 255
154.791 50.7856 110.339 227 233 255
82.0306 165.28 113.55 229 234 255
196.993 73.4923 115.49 192 212 255
134.035 197.145 125.438 194 213 255
110.173 59.3891 118.852 198 216 255
115.49 123.504 99.2511 198 216 255
124.31 141.043 105.899 255 149 47
112.684 140.063 108.045 206 220 255
93.9714 173.927 110.943 203 218 255
120.796 107.377 109.326 241 241 255
99.6278 150.145 104.129 255 231 212
122.952 131.548 108.551 255 231 212
143.359 139.754 113.473 228 234 255
11.2647 168.004 108.129 190 211 255
93.8959 173.915 110.949 196 215 255
108.893 87.2348 110.027 200 217 255
102.382 101.259 117.057 211 223 255
41.2233 117.263 146.993 199 217 255
88.4815 41.7233 105.534 196 215 255
113.472 121.962 110.152 216 226 255
207.637 10.9934 105.895 192 212 255
151.12 131.63 65.0356 210 223 255
107.016 101.927 118.707 226 232 255
69.0937 131.801 107.604 185 207 255
42.056 114.671 107.324 213 224 255
68.1094 64.4424 114.162 220 229 255
72.661 107.167 118.732 204 219 255
197.602 18.8822 117.832 195 214 255
60.4086 28.4446 99.9332 198 216 255
189.809 115.84 121.815 211 224 255
126.54 74.9793 120.816 212 224 255
116.017 76.7908 115.403 218 228 255
206.758 83.0308 109.664 188 209 255
93.896 173.915 110.949 199 216 255
93.8171 173.894 110.954 214 225 255
100.623 115.131 112.657 244 242 255
115.586 184.138 112.948 189 210 255
211.144 23.6472 88.6385 188 209 255
60.4169 126.609 112.014 255 246 236
167.821 174.813 128.596 198 216 255
127.928 83.4439 104.492 185 207 255
75.3381 111.294 124.206 195 214 255
114.837 70.1029 124.109 255 241 228
113.74 108.183 99.3588 218 228 255
209.152 39.5259 106.529 212 224 255
137.714 60.2712 118.407 218 227 255
93.8675 173.908 110.952 202 218 255
123.988 118.072 105.43 255 250 255
154.086 176.069 125.05 213 225 255
61.4776 157.82 109.851 213 225 255
88.4911 154.461 109.61 220 229 255
66.4563 115.955 109.696 192 212 255
80.6015 151.608 106.089 219 228 255
93.8593 173.909 110.953 213 225 255
119.413 91.1639 118.809 255 254 250
57.7017 89.2612 98.3456 220 229 255
36.3672 187.979 112.259 201 218 255
65.2071 102.255 112.622 212 224 255
94.3493 156.675 111.136 234 237 255
118.827 98.1904 111.677 255 237 223
190.976 33.7401 116.18 216 227 255
169.744 31.6734 112.558 193 213 255
112.876 102.581 115.644 208 221 255
114.376 68.3321 120.446 213 225 255
89.0519 94.8222 116.113 248 245 255
70.234 84.0666 95.8494 195 214 255
88.3608 127.696 115.64 211 223 255
65.0056 23.4508 92.2758 186 208 255
30.2431 46.6595 116.656 206 220 255
176.99 29.765 112.663 255 217 187
133.423 107.305 104.01 255 233 216
93.9212 173.921 110.945 211 224 255
109.199 113.172 110.651 223 231 255
163.771 98.44 123.243 201 218 255
91.4625 7.75247 109.767 195 213 255
93.8566 173.905 110.953 240 240 255
93.8672 173.908 110.952 229 234 255
