ply
format ascii 1.0
element vertex 1341
property float x
property float y
property float z
property uchar red
property uchar green
property uchar blue
end_header
93.3911 173.33 111.343 255 246 238
136.742 86.6923 111.745 190 211 255
2.52209 176.044 121.467 178 203 255
124.453 75.1936 106.419 197 215 255
130.273 101.176 133.815 255 240 227
110.598 121.458 110.683 255 185 127
118.557 152.499 108.5 226 232 255
135.558 100.7 162.394 196 214 255
178.386 68.5749 111.15 207 221 255
93.3914 173.329 111.344 197 215 255
76.3552 116.31 112.29 208 222 255
101.138 28.9249 136.326 216 226 255
110.943 116.868 143.594 205 220 255
118.335 120.003 107.265 255 183 123
131.38 136.433 108.815 255 245 235
149.468 93.2131 112.532 206 221 255
92.1494 224.096 105.106 184 207 255
128.342 43.5013 118.596 187 209 255
93.4951 144.1 92.1638 230 235 255
148.833 124.79 111.648 202 218 255
58.0348 137.952 112.647 255 192 140
89.2533 128.607 116.923 210 223 255
108.591 80.0676 119.677 204 219 255
40.5946 130.606 115.127 199 216 255
93.3858 173.348 111.328 208 222 255
92.0668 175.246 108.98 220 229 255
183.133 112.069 105.863 227 233 255
87.7443 182.287 108.107 243 242 255
148.014 108.301 112.311 203 218 255
156.241 115.243 113.831 182 206 255
119.958 72.2206 113.124 188 209 255
106.792 102.12 108.424 255 229 208
71.4913 147.227 122.695 255 240 226
93.3869 173.344 111.331 200 217 255
57.7321 71.8315 109.028 243 242 255
123.754 152.967 107.863 207 221 255
123.163 86.2604 109.527 199 216 255
66.6121 80.3963 94.9815 255 253 248
127.145 80.8832 99.3998 255 253 249
111.945 103.499 114.093 255 221 193
103.068 162.164 120.635 199 216 255
93.3905 173.332 111.342 198 216 255
93.6045 136.191 111.434 255 227 204
150.932 81.7712 123.655 202 218 255
85.7025 38.2537 106.215 255 252 247
93.7209 172.754 110.885 255 249 242
84.4737 117.131 116.683 211 224 255
150.041 103.188 100.559 216 227 255
121.796 142.444 91.844 238 239 255
160.87 147.214 137.081 204 219 255
108.743 117.996 110 255 246 237
93.3954 173.317 111.354 202 218 255
59.8148 61.8571 103.996 196 214 255
67.4578 187.742 112.757 255 234 216
56.6517 127.521 114.504 209 222 255
126.334 91.017 96.3983 222 230 255
106.615 118.397 117.554 255 248 241
101.341 95.0838 109.462 188 209 255
94.7351 107.36 100.068 253 248 255
72.4131 86.6572 116.261 181 205 255
106.113 135.546 112.773 255 207 170
93.3925 173.326 111.347 208 222 255
61.7734 158.734 118.464 217 227 255
187.887 109.442 60.4064 198 216 255
108.617 93.4542 122.478 255 245 235
88.0666 127.196 118.62 255 247 239
110.361 106.301 111.551 216 227 255
63.8796 120.039 107.302 195 214 255
148.541 99.276 106.146 198 215 255
121.946 173.676 112.611 192 212 255
149.631 119.805 107.078 193 213 255
107.69 77.152 114.657 200 217 255
101.27 107.854 57.9602 255 246 237
110.902 99.7451 107.675 240 240 255
93.3962 173.315 111.356 255 216 185
128.964 88.6736 106.816 211 223 255
173.302 116.216 137.503 213 225 255
121.661 155.212 109.533 255 253 249
93.3918 173.328 111.345 227 233 255
115.371 88.4118 111.059 255 222 195
41.2455 163.602 111.268 198 216 255
108.947 87.5396 124.332 216 227 255
96.276 151.784 114.151 208 222 255
157.625 132.628 112.311 249 246 255
126.458 23.4514 110.749 185 208 255
128.852 126.636 103.613 255 246 237
147.932 78.9521 119.634 255 215 183
111.728 148.325 114.163 241 241 255
99.3358 108.53 100.667 255 211 176
123.612 125.275 109.265 255 247 239
132.703 94.8721 96.5835 204 219 255
200.877 98.6582 122.187 207 221 255
165.665 98.1889 116.799 232 236 255
125.116 134.803 99.1526 227 233 255
93.1888 173.123 111.318 255 217 187
221.618 134.151 113.116 191 211 255
134.08 106.014 117.12 193 213 255
122.705 115.331 118.588 255 189 135
108.732 89.7117 117.19 236 238 255
122.128 134.486 110.568 201 217 255
101.714 103.984 125.502 255 250 243
113.83 106.621 111.104 224 231 255
86.6329 149.015 110.49 217 227 255
107.009 94.1159 118.267 199 216 255
42.7063 55.5203 102.594 197 215 255
157.228 137.37 111.659 196 215 255
115.71 139.082 101.55 255 255 252
80.4544 143.215 116.055 202 218 255
127.71 107.23 105.439 255 189 134
93.3898 173.334 111.34 207 221 255
93.3879 173.34 111.335 195 214 255
161.972 154.728 93.8203 255 114 0
111.827 128.549 112.588 206 221 255
107.185 100.025 107.271 202 218 255
52.1701 53.3685 112.936 207 221 255
165.606 26.4357 136.167 186 208 255
124.32 9.91678 112.755 201 218 255
190.415 44.9358 103.985 188 209 255
81.2554 55.1642 112.721 255 219 191
124.672 140.413 106.16 225 232 255
67.4517 158.738 116.303 197 215 255
164.741 124.297 116.971 193 213 255
90.9025 54.8134 113.937 255 240 227
109.703 127.221 106.391 255 236 220
99.6011 99.2955 124.926 226 232 255
112.391 107.443 113.752 219 229 255
106.828 106.444 112.323 215 226 255
101.328 48.4742 115.713 224 231 255
101.897 115.104 114.599 214 225 255
199.312 12.1595 131.05 187 209 255
146.406 51.8428 115.031 200 217 255
156.989 103.521 117.041 188 209 255
151.229 90.8353 107.155 228 234 255
162.43 138.816 110.84 202 218 255
93.3931 173.323 111.349 255 248 240
110.452 104.25 126.16 255 213 179
59.9587 125.581 106.835 255 235 219
150.805 51.7004 113.4 191 211 255
93.3876 173.34 111.334 201 217 255
93.6116 172.865 111.939 204 220 255
107.601 140.206 122.141 208 222 255
93.2289 6.97373 83.7086 216 227 255
212.769 30.888 131.535 194 213 255
115.365 112.4 118.194 255 218 189
148.122 114.733 114.318 210 223 255
98.6898 123.624 121.694 201 218 255
125.246 83.8677 105.476 225 232 255
87.6217 201.733 111.082 196 214 255
93.386 173.347 111.328 194 213 255
93.4358 173.219 111.448 203 219 255
106.692 107.029 115.053 255 205 166
92.7479 173.603 111.261 238 239 255
120.961 84.3724 131.052 255 233 215
136.214 118.979 114.54 236 238 255
35.7639 93.8303 99.7851 255 247 238
93.3865 173.345 111.33 186 208 255
118.119 160.429 106.895 199 216 255
86.5631 141.148 116.633 219 228 255
73.7484 183.499 90.3987 196 214 255
68.3037 52.1331 109.877 214 225 255
107.797 143.438 107.444 225 232 255
72.63 107.769 110.163 215 226 255
110.46 145.131 98.2371 255 239 225
192.103 139.562 118.033 209 222 255
68.2086 143.187 122.905 255 227 204
135.074 21.6082 110.557 205 220 255
57.5973 91.8546 114.436 204 219 255
41.5361 188.606 112.416 206 220 255
134.114 135.463 106.462 209 223 255
157.485 111.078 115.425 203 219 255
104.352 179.612 111.724 255 179 114
146.514 148.845 112.986 218 228 255
118.218 190.122 118.886 192 212 255
96.3192 138.791 117.83 205 220 255
65.8222 49.3976 110.843 196 214 255
108.219 137.101 102.708 224 231 255
206.751 3.87486 106.088 182 205 255
65.3243 20.1096 64.0784 208 222 255
71.1673 42.1493 104.891 198 216 255
64.4147 9.25283 104.984 191 211 255
103.935 112.82 103.026 255 206 168
101.001 117.663 103.105 255 178 112
179.061 138.586 144.31 189 210 255
102.951 109.004 111.827 255 230 210
112.531 134.246 96.7772 255 230 210
149.945 91.3347 119.961 202 218 255
51.9055 169.822 108.336 188 210 255
114.411 81.7233 117.119 221 229 255
135.709 108.738 115.723 211 223 255
145.916 19.9795 92.5093 193 213 255
89.6212 195.13 104.878 195 214 255
116.334 100.856 117.199 255 205 164
144.707 97.8314 117.982 210 223 255
78.9479 134.68 115.206 255 251 255
111.879 36.9147 113.368 188 209 255
122.281 109.589 116.979 240 240 255
113.11 94.4472 128.101 221 230 255
119.712 116.069 116.56 255 202 160
170.712 85.3657 110.411 200 217 255
93.1458 173.517 111.173 255 241 228
48.2758 44.5844 142.476 203 218 255
162.447 76.6096 111.573 209 222 255
93.389 173.336 111.338 218 228 255
94.9452 157.003 104.602 255 252 246
93.3997 173.306 111.364 192 212 255
114.347 115.342 107.69 223 231 255
109.464 109.064 111.478 202 218 255
94.3096 154.875 130.994 215 226 255
121.254 141.324 111.685 197 215 255
72.7537 63.5148 105.303 194 213 255
135.556 134.397 109.66 255 234 216
93.3847 173.352 111.324 206 221 255
129.209 124.093 111.837 255 193 142
110.208 89.8231 107.732 255 255 251
93.3883 173.171 111.404 255 250 244
47.2929 68.4686 79.6895 195 214 255
105.343 100.332 103.247 205 220 255
120.708 135.216 103.675 255 202 159
70.1302 102.084 113.254 221 229 255
137.595 93.2204 107.819 255 249 242
98.8755 142.309 110.642 254 248 255
93.5043 173.108 111.654 200 217 255
109.932 94.9349 112.567 242 242 255
93.3615 173.41 111.29 211 223 255
93.3879 173.34 111.334 206 221 255
105.431 153.437 110.711 198 215 255
138.156 119.404 118.469 255 234 217
126.873 79.4006 111.901 204 219 255
128.763 138.398 118.796 193 212 255
69.9938 166.719 97.017 211 224 255
127.559 133.12 119.957 213 225 255
93.388 173.34 111.335 205 220 255
72.0184 143.719 95.8393 229 234 255
108.252 74.1908 122.668 255 212 178
170.053 15.2543 121.077 213 225 255
122.696 77.3357 102.583 205 220 255
144.054 106.587 115.871 195 214 255
103.341 115.54 108.282 187 209 255
143.397 85.9993 108.159 201 217 255
118.987 121.221 109.584 255 208 170
125.496 120.189 113.74 230 235 255
169.246 156.09 143.916 229 234 255
76.1551 126.789 113.127 192 212 255
119.857 135.411 95.3289 255 239 225
122.169 15.5041 110.916 209 223 255
86.0937 126.602 123.089 202 218 255
140.851 56.8203 108.357 255 244 233
104.25 103.925 138.542 207 221 255
127.444 94.3578 112.248 200 217 255
140.565 73.0125 115.706 255 242 231
113.293 59.709 119.57 236 238 255
197.728 108.901 118.002 199 216 255
110.259 158.177 114.303 223 231 255
122.319 156.505 114.428 255 254 251
7.63201 82.1575 106.141 182 206 255
116.192 176.321 123.115 255 243 232
98.5078 159.622 98.9281 252 247 255
91.1566 100.245 109.325 255 225 201
186.303 156.27 118.544 184 207 255
163.328 78.2533 113.328 185 208 255
106.922 125.275 121.265 198 215 255
108.242 110.034 123.526 233 236 255
99.5297 150.626 101.182 234 237 255
37.7663 162.328 90.976 242 242 255
119.756 110.497 126.826 235 237 255
93.311 173.88 109.625 241 241 255
90.4296 185.535 109.914 255 229 209
152.602 108.302 113.363 200 217 255
121.583 92.5164 104.967 199 216 255
168.531 92.2936 105.341 233 237 255
113.132 127.973 101.595 241 241 255
100.132 157.745 121.989 188 209 255
125.649 120.538 97.4073 218 228 255
62.1154 78.0867 114.203 216 226 255
117.101 105.555 117.216 255 188 133
93.3936 173.321 111.352 192 212 255
103.126 157.517 111.38 219 228 255
86.1568 201.306 107.075 190 211 255
109.783 108.063 112.45 255 251 245
156.316 142.411 94.2354 201 218 255
112.837 136.395 113.102 237 239 255
16.9419 58.1268 106.694 191 211 255
93.3887 173.337 111.337 186 208 255
68.5859 66.2837 105.507 205 220 255
165.207 103.144 101.495 221 229 255
93.8128 202.166 108.969 189 210 255
99.1241 147.769 103.955 247 244 255
38.6691 63.3569 112.803 188 209 255
48.1271 145.787 108.983 205 220 255
93.3856 173.348 111.327 217 227 255
117.946 111.727 89.9249 255 202 159
112.517 110.317 109.272 255 205 166
109.059 130.477 103.471 196 214 255
93.3867 173.344 111.331 255 181 119
71.483 62.728 112.904 219 228 255
104.529 118.404 104.195 227 233 255
118.226 130.79 100.691 255 249 255
103.481 106.158 117.309 183 206 255
113.563 124.008 126.928 255 200 155
182.172 70.1859 117.272 187 208 255
117.565 77.9736 117.622 211 224 255
144.447 132.956 110.92 196 214 255
90.6684 181.074 111.167 216 226 255
110.075 91.4287 98.7921 243 242 255
41.8681 89.6533 87.9567 222 230 255
102.004 170.153 99.6816 255 235 218
158.486 77.5499 95.0659 246 244 255
101.865 130.433 91.4056 206 221 255
67.6773 150.245 92.4308 238 239 255
109.971 45.2362 115.988 179 204 255
89.6449 135.948 107.411 228 234 255
128.438 90.3835 105.138 255 249 242
117.932 78.9201 114.456 214 225 255
28.9907 130.909 114.114 188 209 255
106.384 136.787 92.6311 242 242 255
120.15 85.5659 103.464 207 221 255
129.45 104.446 111.913 193 213 255
112.154 122.007 104.435 222 230 255
32.4591 107.64 111.531 186 208 255
119.477 120.524 105.1 212 224 255
135.586 90.9683 126.159 204 219 255
97.1574 172.717 82.4815 225 232 255
170.539 140.302 93.9125 201 217 255
151.431 164.268 112.73 235 238 255
91.877 166.677 111.545 255 237 221
190.098 195.078 72.8769 255 249 243
99.547 178.663 105.923 201 217 255
93.3897 173.334 111.34 195 214 255
97.047 139.945 101.161 255 215 183
88.98 128.063 107.398 236 238 255
93.3905 173.331 111.342 255 245 236
161.835 123.806 112.559 255 255 251
153.604 127.194 67.6089 248 245 255
93.6172 172.917 112.065 206 220 255
93.4445 172.764 111.818 255 237 222
24.3098 58.2652 114.942 201 217 255
113.909 122.9 122.685 231 235 255
95.5155 147.12 80.1275 226 232 255
145.98 140.052 121.18 182 206 255
108.056 140.55 105.514 206 221 255
93.4062 173.29 111.378 255 194 144
118.932 105.441 117.835 203 219 255
110.722 116.964 110.004 255 246 237
106.177 134.044 102.348 200 217 255
104.508 164.994 117.66 255 245 235
85.8853 11.3954 115.314 212 224 255
117.122 126.701 112.038 202 218 255
59.0521 103.45 114.896 235 237 255
88.9681 172.925 110.288 208 222 255
6.27537 155.221 114.907 197 215 255
141.927 85.4644 120.173 223 231 255
100.934 82.6457 115.307 211 224 255
137.488 71.7619 124.999 209 222 255
68.4325 131.562 112.942 221 229 255
79.3941 222.339 117.248 197 215 255
82.6001 187.984 96.2065 205 220 255
93.4056 173.291 111.377 255 245 235
71.3115 97.8787 111.587 196 214 255
148.813 21.8472 108.021 182 206 255
93.474 173.458 111.273 220 229 255
135.099 117.49 102.439 220 229 255
63.201 74.4704 109.475 193 212 255
117.947 87.0064 117.147 255 237 221
100.92 101.531 125.883 244 243 255
103.525 111.45 112.006 205 220 255
113.855 122.551 99.9476 214 225 255
142.897 84.3195 114 195 214 255
100.504 115.002 132.609 212 224 255
132.098 132.043 110.706 209 223 255
182.237 80.4959 113.93 194 213 255
93.4032 173.297 111.372 216 227 255
75.4575 136.876 105.498 195 214 255
110.147 19.6239 89.7676 186 208 255
117.406 92.5661 123.114 201 217 255
63.1113 91.1928 111.578 194 213 255
102.973 193.386 105.052 191 211 255
108.256 109.407 102.228 255 192 139
93.4208 173.242 111.431 232 236 255
102.077 82.2465 116.858 209 223 255
173.744 99.9174 120.357 191 211 255
71.6691 171.587 118.425 195 214 255
82.9884 185.674 129.783 221 230 255
108.215 116.967 114.456 255 204 162
162.624 112.007 110.984 206 221 255
70.6951 62.5028 109.251 198 216 255
93.3872 173.343 111.332 235 238 255
93.3892 173.336 111.338 231 235 255
128.799 119.86 106.507 255 213 180
109.191 80.0826 117.64 206 220 255
93.3928 173.324 111.348 255 205 165
158.368 97.1749 113.165 196 214 255
133.175 127.085 111.996 219 228 255
102.781 88.0455 119.602 197 215 255
99.2241 97.3362 124.476 220 229 255
93.3967 173.315 111.358 255 246 237
120.963 78.6153 113.807 198 215 255
79.2194 177.825 114.475 227 233 255
117.474 117.229 81.2912 255 232 213
46.2155 131.763 142.581 213 225 255
120.439 103.333 99.1328 198 215 255
93.3486 173.375 111.33 255 228 207
53.1491 94.059 90.5314 197 215 255
126.833 111.717 108.713 211 224 255
213.201 62.8829 116.521 199 216 255
98.0922 132.606 110.877 224 232 255
104.829 101.35 118.64 255 253 248
56.7854 84.5915 113.165 207 221 255
89.3604 130.566 114.752 189 210 255
92.9413 170.444 116.267 255 139 20
118.236 24.751 111.199 200 217 255
147.555 40.4832 111.467 190 211 255
132.811 54.295 117.488 208 221 255
94.5052 50.0466 112.074 198 216 255
108.267 89.6823 125.251 237 239 255
113.462 144.376 105.834 214 225 255
99.1675 120.478 105.375 212 224 255
155.262 84.7252 99.9246 191 211 255
59.3851 95.5085 118.688 184 207 255
120.565 109.034 112.213 241 241 255
96.1959 134.107 118.591 255 230 211
60.4214 137.376 139.05 193 212 255
160.211 154.835 92.0282 187 209 255
105.952 135.037 114.411 255 249 243
85.9624 176.664 117.568 231 235 255
97.6466 104.317 112.535 208 222 255
36.8332 102.748 90.34 228 233 255
113.781 136.329 120.801 255 184 125
100.331 115.909 100.453 205 220 255
93.3852 173.349 111.327 200 217 255
121.79 139.47 105.137 216 226 255
133.141 76.4973 112.569 255 254 249
71.839 109.721 116.806 205 220 255
91.2359 143.723 110.336 221 229 255
153.399 117.034 112.288 199 216 255
154.818 136.804 107.347 240 240 255
13.5066 168.775 112.167 219 229 255
84.047 125.56 98.1208 235 237 255
111.154 121.237 102.396 237 239 255
103.063 115.185 97.1233 236 238 255
118.87 76.4181 110.868 218 228 255
116.102 121.249 99.6849 255 249 242
189.557 44.3656 112.453 214 225 255
116.11 149.516 99.0342 255 203 161
93.3952 173.318 111.354 198 216 255
93.3864 173.346 111.33 195 213 255
101.212 138.153 108.847 255 244 233
101.525 175.377 113.558 204 219 255
175.023 114.164 85.1346 210 223 255
113.256 118.72 119.818 255 234 216
109.762 99.9251 129.446 227 233 255
142.513 109.247 115.648 255 251 255
98.5847 148.354 113.151 200 217 255
161.74 120.074 112.799 203 219 255
170.727 7.175 106.559 202 218 255
129.987 109.395 97.0163 222 230 255
92.864 106.842 107.993 215 226 255
93.3865 173.345 111.33 189 210 255
47.1784 82.9427 115.036 207 221 255
207.239 23.1227 118.915 197 215 255
93.4176 173.267 111.405 255 231 212
110.874 118.433 127.225 255 119 0
129.001 101.71 99.723 235 238 255
133.591 18.7839 113.461 201 217 255
198.237 128.074 78.4929 226 232 255
89.9502 194.014 114.017 200 217 255
125.924 212.247 113.089 178 203 255
52.1321 97.2175 102.101 195 214 255
98.0676 180.852 113.007 213 225 255
117.174 101.751 112.478 255 191 139
208.819 101.286 114.367 220 229 255
94.1542 97.6707 113.797 225 232 255
93.4052 173.292 111.376 239 240 255
102.919 154.113 114.528 187 209 255
131.009 103.611 119.056 226 232 255
87.8687 36.9991 105.634 204 219 255
119.332 81.4731 109.133 255 249 255
55.1048 106.672 124.682 212 224 255
165.495 36.8011 117.575 190 211 255
105.131 107.306 122.702 245 243 255
112.749 108.886 110.505 215 226 255
93.3868 173.344 111.331 199 216 255
191.506 141.212 97.9099 208 222 255
93.384 173.356 111.32 192 212 255
92.4702 173.112 109.802 196 214 255
179.012 154.585 101.166 208 222 255
112.246 132.422 111.602 183 206 255
123.795 122.219 114.829 208 222 255
32.3039 180.769 112.695 207 221 255
131.542 125.802 107.649 238 239 255
136.195 91.8122 112.065 195 213 255
89.6686 170.453 119.638 255 252 247
83.4227 151.326 107.064 222 230 255
205.928 110.648 110.44 223 231 255
128.423 172.586 117.699 200 217 255
133.338 93.4172 96.9115 189 210 255
111.418 132.969 112.36 255 248 240
126.847 134.947 104.671 255 217 187
114.108 112.934 109.887 201 218 255
87.4267 170.205 123.009 225 232 255
130.929 28.446 102.978 191 211 255
153.43 116.364 114.83 200 217 255
76.1566 115.064 113.534 213 225 255
112.401 119.614 125.442 255 246 237
89.9242 158.878 135.611 205 220 255
116.896 110.465 121.436 209 222 255
93.3852 173.35 111.326 200 217 255
205.846 129.69 122.854 194 213 255
121.544 85.6444 102.711 255 249 242
115.547 171.079 115.355 206 220 255
93.3966 173.314 111.357 234 237 255
118.281 112.64 113.517 200 217 255
93.6492 154.189 92.0647 223 231 255
90.7506 177.978 109.999 255 226 203
109.701 157.524 118.422 196 215 255
121.467 134.323 112.93 205 220 255
118.726 118.38 112.835 253 248 255
140.034 87.0228 111.529 186 208 255
65.7837 114.172 113.303 179 204 255
159.955 85.579 111.329 231 235 255
33.2295 187.069 109.943 203 219 255
118.626 160.511 107.502 205 220 255
170.883 182.776 124.393 190 211 255
37.1593 59.2133 101.211 206 220 255
104.087 54.0862 113.96 206 220 255
152.843 129.458 113.34 201 217 255
116.692 124.429 119.063 255 226 202
199.352 60.0421 111.108 184 207 255
47.0035 151.178 106.517 255 159 70
107.013 110.173 119.994 255 224 199
60.2734 130.566 96.5464 205 220 255
116.633 75.1064 113.275 227 233 255
201.428 25.9664 102.793 191 211 255
13.4205 88.4995 114.979 191 211 255
91.1843 42.4132 107.857 201 217 255
128.843 101.85 112.97 255 222 195
122.448 129.948 112.74 198 216 255
41.3866 205.027 106.248 181 205 255
95.5492 141.229 111.254 231 235 255
93.3988 173.309 111.362 242 242 255
110.265 97.3189 128.355 189 210 255
37.7543 92.2652 127.047 197 215 255
90.482 84.5995 158.746 191 211 255
47.4232 107.906 129.462 214 225 255
134.855 83.9855 111.397 255 251 245
75.3159 68.4385 110.921 184 207 255
74.4285 117.262 109.242 198 216 255
96.7393 175.606 108.271 255 250 255
124.713 103.181 112.085 235 237 255
137.281 181.221 113.281 220 229 255
136.936 135.099 123.942 190 211 255
86.5156 195.773 117.299 214 225 255
14.0961 150.006 101.358 228 234 255
83.8825 185.352 85.7704 217 227 255
45.0259 200.878 115.895 206 221 255
93.3886 173.338 111.336 228 233 255
96.7993 155.773 102.229 206 220 255
134.744 11.9528 106.546 187 208 255
44.7067 95.3087 92.498 196 214 255
92.6532 178.776 110.56 255 239 224
132.271 139.825 105.14 199 216 255
116.693 102.961 94.8041 243 242 255
56.7383 45.8119 160.973 209 222 255
93.7685 9.35875 108.059 208 222 255
46.7079 91.6874 112.072 202 218 255
93.8021 66.3923 51.0824 224 231 255
6.27576 165.105 115.839 203 218 255
126.588 198.417 92.6222 180 204 255
87.6643 104.446 99.1661 213 225 255
93.383 173.362 111.316 200 217 255
206.393 93.537 114.848 190 210 255
146.458 82.7962 113.425 205 220 255
106.989 106.842 106.526 255 244 233
112.086 18.9568 105.639 207 221 255
131.544 27.82 111.917 193 212 255
114.744 109.048 114.416 251 247 255
160.453 109.454 136.815 197 215 255
66.4934 163.106 132.26 194 213 255
166.833 98.4482 66.734 217 227 255
124.083 88.0523 115.629 214 225 255
110.433 62.5187 107.629 205 220 255
108.544 102.473 114.246 209 222 255
93.4019 173.301 111.369 202 218 255
172.608 124.56 119.879 191 212 255
88.1705 132.563 92.0624 255 248 240
114.011 90.687 116.569 190 211 255
152.509 24.4616 121.702 186 208 255
107.986 82.275 115.303 210 223 255
116.058 56.4094 118.483 196 214 255
158.18 123.023 112.142 255 251 246
93.3851 173.35 111.326 255 226 203
111.059 76.8114 107.987 200 217 255
94.1114 192.048 119.567 211 223 255
67.474 68.4237 116.532 182 206 255
178.387 142.998 119.321 186 208 255
56.6729 0.799643 120.663 187 209 255
136.646 154.802 113.529 210 223 255
101.207 52.6672 115.078 255 215 183
106.535 105.026 107.104 255 238 223
93.3851 173.351 111.325 225 232 255
107.393 94.9255 112.08 255 246 237
101.532 57.1252 116.903 187 208 255
115.547 114.166 109.449 255 144 34
131.589 123.32 108.296 226 232 255
18.0307 162.828 114.216 205 220 255
128.342 122.338 105.274 255 207 169
128.039 77.4206 102.073 241 241 255
116.425 131.011 96.6583 217 227 255
108.24 171.205 100.472 217 227 255
152.636 109.864 103.2 201 218 255
67.3666 120.001 147.577 255 251 255
79.1239 147.817 111.839 202 218 255
132.666 87.7963 106.841 255 182 120
113.257 120.139 114.782 234 237 255
93.43 173.223 111.453 198 215 255
93.3989 173.308 111.362 255 250 255
106.245 146.489 117.829 214 225 255
93.4238 173.245 111.414 193 212 255
137.108 20.3622 106.075 221 229 255
110.394 143.83 108.767 255 251 246
106.469 150.413 120.014 255 229 208
31.5974 74.451 113.737 205 220 255
99.859 110.511 100.097 206 221 255
123.542 151.932 126.852 255 237 222
66.8439 129.932 125.941 205 220 255
93.3486 173.372 111.286 218 227 255
31.191 72.1262 102.535 208 222 255
149.074 111.125 116.02 222 230 255
156.263 82.9948 138.648 206 220 255
195.687 51.1828 110.004 198 216 255
57.5044 126.713 150.419 206 220 255
40.3513 65.9858 136.771 213 225 255
93.3882 173.339 111.335 198 216 255
93.3826 173.364 111.314 199 216 255
187.965 128.423 77.9906 184 207 255
104.579 108.23 123.541 228 234 255
42.1108 14.9034 102.112 192 212 255
136.777 91.1246 122.128 255 221 194
110.701 97.3129 107.557 233 236 255
93.2779 173.842 111.182 225 232 255
130.844 181.184 116.821 196 215 255
168.495 115.955 110.702 198 216 255
125.964 79.4841 127.523 212 224 255
93.4175 173.261 111.404 212 224 255
90.2809 160.829 124.712 233 236 255
203.475 157.994 121.789 180 204 255
131.412 123.726 114.469 255 226 203
112.859 109.01 114.508 217 227 255
131.822 97.025 113.829 232 236 255
71.1296 142.595 108.386 226 232 255
129.346 74.2756 132.828 227 233 255
110.791 120.066 113.243 255 245 235
93.467 173.345 111.534 207 221 255
171.188 144.066 97.9213 238 240 255
39.5759 100.327 114.715 209 222 255
149.938 32.2375 113.394 224 231 255
120.607 127.001 108.947 255 206 167
88.7323 160.795 113.22 223 231 255
67.692 117.082 114.372 196 214 255
114.753 136.054 97.6831 226 232 255
83.7186 64.2925 115.022 235 238 255
144.541 93.2182 111.785 234 237 255
112.171 43.2952 109.204 181 205 255
111.964 109.545 113.481 255 204 164
140.762 85.9118 84.811 203 219 255
83.3956 139.865 108.353 255 228 206
93.3114 173.343 111.328 192 212 255
109.05 117.059 111.612 222 230 255
118.315 160.88 112.995 255 225 202
147.078 69.8675 136.967 225 232 255
186.839 69.1737 108.977 190 210 255
104.995 115.729 108.809 255 214 182
143.463 98.5374 107.276 248 245 255
76.6529 77.662 110.359 194 213 255
111.986 117.638 83.8587 202 218 255
98.6082 32.8201 94.1207 189 210 255
34.3355 133.426 146.954 196 214 255
158.343 99.9272 101.079 206 220 255
93.389 173.336 111.338 255 250 255
185.446 102.324 106.124 231 235 255
93.405 173.292 111.376 210 223 255
50.8039 137.1 106.63 213 224 255
106.378 212.539 112.915 180 204 255
118.73 124.882 118.459 244 243 255
36.7756 118.943 125.727 229 234 255
93.3893 173.336 111.338 217 227 255
120.698 127.027 100.137 255 251 245
223.304 121.391 115.178 180 204 255
92.8813 174.412 111.733 255 254 249
119.555 134.023 101.219 255 230 210
54.4114 156.55 107.385 199 216 255
93.4072 173.288 111.38 226 232 255
93.385 173.366 111.292 255 224 200
80.5893 157.771 113.769 255 191 139
113.015 163.32 99.3184 205 220 255
105.749 186.576 110.546 227 233 255
117.501 96.9468 116.462 196 215 255
37.5401 54.4692 115.446 180 205 255
93.3924 173.326 111.347 197 215 255
210.822 148.563 114.976 189 210 255
76.5325 39.9758 118.611 211 223 255
147.413 124.047 109.648 255 234 217
126.066 114.056 104.257 255 243 233
93.396 173.316 111.355 255 166 87
119.228 111.855 119.51 207 221 255
84.3666 120.05 109.658 194 213 255
75.3091 165.24 111.685 193 212 255
158.749 109.147 113.206 224 231 255
117.819 129.034 105.724 203 219 255
106.109 126.443 139.701 232 236 255
44.1426 76.2576 115.572 202 218 255
93.3888 173.337 111.338 199 216 255
35.3544 110.492 159.573 191 211 255
141.724 96.1572 107.317 197 215 255
123.963 39.0836 118.103 206 220 255
110.103 129.928 105.117 227 233 255
125.613 106.865 114.498 255 224 200
38.5561 189.868 109.344 184 207 255
125.266 93.8822 105.166 212 224 255
116.281 88.7907 111.643 215 226 255
93.3901 173.333 111.341 218 228 255
109.06 115.653 112.918 255 212 178
73.1466 147.026 120.74 244 243 255
45.4651 72.559 126.731 216 226 255
104.213 12.2888 110.592 199 216 255
50.4753 13.1763 118.792 229 234 255
93.3544 173.153 112 187 209 255
94.0054 173.293 111.23 255 251 246
93.3861 173.348 111.328 188 209 255
25.9261 98.8327 116.607 204 219 255
191.584 142.971 87.5687 232 236 255
141.834 112.934 113.867 206 220 255
91.4154 116.352 109.861 222 230 255
125.366 138.533 129.04 250 246 255
216.898 39.0503 109.601 191 211 255
199.38 168.906 116.665 200 217 255
104.606 112.663 100.759 216 226 255
66.9238 106.167 110.491 215 226 255
95.8334 98.8969 113.281 255 253 249
133.867 2.7806 108.064 200 217 255
111.692 121.762 112.623 255 179 114
188.181 87.5219 113.856 200 217 255
95.7464 158.795 127.558 255 228 207
111.454 139.367 100.614 189 210 255
93.3888 173.306 111.361 209 222 255
78.4786 58.1532 113.253 194 213 255
100.505 74.7841 110.428 198 216 255
113.293 128.797 104.999 255 209 172
73.2726 126.941 109.53 255 209 172
1.55353 89.6753 108.396 188 209 255
88.2576 141.598 108.016 211 224 255
104.849 160.832 106.037 255 186 129
134.003 80.5501 122.148 255 251 245
115.658 15.9408 129.305 205 220 255
107.636 122.574 109.73 255 242 230
140.629 98.9258 129.458 216 227 255
153.227 72.7066 110.17 211 224 255
81.5123 137.903 114.625 239 240 255
218.558 54.0539 113.085 183 206 255
135.701 39.0718 114.404 193 213 255
69.9813 50.7295 129.173 196 214 255
93.3894 173.336 111.339 213 225 255
72.9941 170.878 153.957 240 240 255
123.32 88.4112 113.987 230 235 255
102.78 143.27 113.648 255 243 232
45.6688 27.9465 97.651 212 224 255
93.382 173.368 111.319 255 247 239
38.3934 84.2567 90.9818 226 232 255
189.528 55.2503 116.443 186 208 255
55.9651 92.5187 79.5039 200 217 255
122.86 99.193 125.145 203 218 255
108.047 116.521 109.105 208 222 255
42.4296 180.432 112.296 196 215 255
93.3297 173.363 111.338 187 209 255
117.793 139.101 100.403 255 221 194
117.903 128.573 96.0945 255 236 219
72.1308 143.008 131.191 210 223 255
107.573 104.849 113.159 255 183 122
117.195 96.1562 116.075 255 238 223
128.949 205.882 73.376 193 213 255
93.3904 173.332 111.342 210 223 255
93.389 173.336 111.338 227 233 255
5.99925 197.405 122.879 195 214 255
122.026 128.303 106.821 214 225 255
69.9095 110.65 116.457 200 217 255
179.764 26.3538 144.755 186 208 255
120.308 98.454 102.337 255 250 255
16.8613 94.2939 116.443 186 208 255
93.3838 173.357 111.32 205 220 255
109.636 102.692 116.967 215 226 255
109.148 122.746 123.922 255 190 136
112.479 133.4 106.122 221 229 255
106.776 60.3084 117.261 224 231 255
85.8805 172.913 115.11 222 230 255
70.4406 88.4208 139.359 200 217 255
93.3873 173.342 111.333 187 209 255
118.554 80.5367 103.061 224 231 255
123.117 133.915 115.906 235 238 255
104.264 40.8694 109.382 200 217 255
114.663 63.2333 98.2869 206 220 255
59.1594 99.1343 101.896 199 216 255
87.6295 188.585 113.382 203 218 255
78.0256 187.805 113.386 222 230 255
104.716 105.024 107.942 196 214 255
89.4257 63.6943 127.893 209 222 255
124.044 150.367 111.021 255 217 187
83.2162 213.954 114.543 188 209 255
93.3907 173.331 111.343 255 245 235
121.826 83.7926 110.255 255 231 212
129.982 138.999 106.902 186 208 255
119.769 74.0428 115.294 226 232 255
104.714 110.639 112.896 255 244 234
93.3822 173.382 111.3 219 229 255
93.3854 173.396 111.284 207 221 255
49.6411 214.024 110.242 190 211 255
203.562 140.773 119.525 190 211 255
69.2609 111.48 107.253 255 252 247
47.8432 39.3 102.721 218 228 255
96.7739 99.6418 120.525 223 231 255
149.348 98.8143 116.604 227 233 255
93.3866 173.346 111.33 209 222 255
175.342 147.233 224.026 210 223 255
173.325 158.243 111.698 189 210 255
42.2592 145.257 134.805 207 221 255
163.536 133.676 121.266 221 229 255
94.2614 172.834 111.733 212 224 255
92.7837 174.612 110.334 200 217 255
123.727 66.4083 122.456 193 213 255
52.7953 127.861 113.775 217 227 255
112.738 127.274 92.3621 255 239 226
88.3115 63.0024 114.948 218 228 255
118.937 122.571 112.535 255 213 180
34.1377 88.7207 126.682 214 225 255
77.7023 165.101 106.228 192 212 255
89.1249 27.3071 100.793 195 214 255
106.88 114.219 116.737 255 249 255
103.907 194.034 112.363 188 210 255
128.084 128.721 99.4743 246 244 255
127.638 135.158 103.472 255 212 177
95.969 115.953 119.777 255 195 146
214.325 64.5773 113.021 202 218 255
143.659 104.66 104.289 205 220 255
121.468 150.319 102.138 255 237 222
93.8363 173.315 111.707 255 244 234
18.9196 175.497 117.637 199 216 255
121.066 137.223 112.379 255 253 248
72.6187 67.714 109.133 193 212 255
54.7388 125.306 122.267 255 249 242
131.088 105.819 105.607 236 238 255
73.3269 129.271 109.033 255 240 227
155.348 33.7117 107.038 192 212 255
77.3815 188.447 110.529 232 236 255
100.747 159.867 101.047 210 223 255
116.78 177.531 112.546 203 219 255
47.0203 122.763 112.96 190 211 255
93.3884 173.339 111.336 255 252 246
93.4172 173.265 111.4 198 216 255
93.3877 173.341 111.334 240 240 255
66.0053 83.1214 108.954 199 216 255
109.968 108.117 120.22 255 170 95
112.273 122.295 104.413 255 184 124
93.3884 173.339 111.336 213 225 255
110.618 100.345 120.78 239 240 255
121.99 85.3706 115.719 214 225 255
93.3905 173.331 111.342 202 218 255
120.742 102.625 109.584 227 233 255
108.368 82.3322 115.314 203 219 255
168.7 170.655 115.217 255 240 227
135.871 130.625 101.628 194 213 255
162.211 23.0407 116.475 186 208 255
60.3166 94.4449 84.5792 200 217 255
158.905 90.0229 80.4143 215 226 255
101.004 96.05 107.368 230 235 255
147.718 12.2469 119.364 198 216 255
141.298 90.874 109.933 210 223 255
112.213 184.415 116.874 201 218 255
111.776 131.392 107.453 224 231 255
106.58 113.149 110.537 255 230 211
104.691 141.98 124.16 255 254 251
70.4656 130.856 109.805 229 234 255
117.618 23.6705 109.774 200 217 255
131.963 88.4024 121.257 206 221 255
112.023 129.431 100.334 255 234 217
115.748 35.6486 111.864 189 210 255
105.786 84.121 111.189 196 214 255
93.3927 173.325 111.348 195 214 255
79.644 200.725 110.003 195 214 255
118.442 97.9023 109.471 213 225 255
52.0456 151.966 105.156 237 239 255
184.501 113.938 115.235 182 205 255
93.38 173.385 111.301 221 230 255
70.8539 128.581 106.368 201 218 255
40.7296 60.9957 108.998 255 247 239
101.311 105.348 112.036 224 231 255
140.685 136.025 98.5265 184 207 255
63.2484 114.638 121.027 205 220 255
110.488 108.512 112.982 233 237 255
93.3876 173.342 111.333 197 215 255
75.2373 138.351 112.17 183 206 255
99.1428 154.157 98.9362 222 230 255
65.8888 86.611 105.08 230 235 255
93.388 173.34 111.335 210 223 255
43.5332 199.791 109.385 195 214 255
128.641 60.4708 121.245 207 221 255
134.046 67.8952 121.177 193 213 255
101.251 185.09 111.852 196 214 255
176.625 70.7133 111.769 215 226 255
93.351 173.371 111.317 211 223 255
105.746 117.025 113.584 190 210 255
116.798 118.762 122.342 255 246 238
99.3765 87.4913 119.082 250 246 255
93.4254 173.246 111.418 191 211 255
109.152 169.345 110.981 212 224 255
109.514 122.124 108.809 208 221 255
139.111 120.932 119.454 233 237 255
75.3314 65.1037 111.734 192 212 255
124.045 123.382 96.7397 198 216 255
94.0429 173.719 110.932 216 227 255
93.6025 173.413 111.351 255 238 224
120.263 105.478 118.251 255 243 232
187.249 132.242 93.4322 203 219 255
91.0582 172.534 117.768 255 246 236
93.3233 173.453 111.198 199 216 255
116.188 148.06 107.27 196 214 255
127.346 187.068 119.723 177 203 255
109.893 100.904 117.987 255 167 89
112.671 119.967 124.366 255 207 169
80.1816 171.267 126.719 231 236 255
94.3271 71.7873 111.259 191 211 255
120.812 121.998 117.266 203 219 255
57.5521 4.82983 125.423 200 217 255
166.079 114.117 134.335 208 222 255
126.987 27.1013 111.81 193 212 255
97.5205 102.743 122.775 255 242 230
151.855 83.3905 114.179 196 214 255
134.287 82.3984 149.039 255 249 242
71.097 135.284 102.369 198 216 255
107.976 116.004 112.132 215 226 255
96.7631 72.0201 119.617 204 219 255
93.3893 173.336 111.339 185 208 255
193.32 45.8675 111.826 191 211 255
120.564 152.728 112.685 247 245 255
70.1103 127.018 102.07 210 223 255
125.434 3.00233 87.0226 199 216 255
91.0861 70.7002 113.982 207 221 255
155.714 118.025 113.599 196 214 255
51.3058 79.8616 119.229 187 209 255
78.238 13.9476 95.665 194 213 255
151.005 106.836 114.739 190 211 255
31.4487 120.895 112.788 188 210 255
123.806 139.345 112.396 195 214 255
89.4021 150.659 122.681 234 237 255
120.292 130.196 94.1687 216 227 255
145.233 96.6324 118.472 200 217 255
104.993 123.463 119.519 255 197 150
133.928 136.223 121.615 255 168 91
136.098 115.372 113.5 255 174 105
123.491 78.9718 111.941 202 218 255
177.118 125.9 130.196 205 220 255
110.052 108.401 107.3 255 204 163
93.436 173.389 111.287 249 245 255
162.838 135.544 111.945 186 208 255
148.015 94.0397 108.691 211 223 255
92.8622 172.986 111.933 255 0 0
128.622 136.5 116.927 255 195 146
28.882 177.242 111.579 191 211 255
119.208 181.359 105.17 186 208 255
116.04 121.528 114.058 255 235 218
46.3357 149.039 111.989 181 205 255
121.735 117.676 116.836 204 219 255
110.346 73.435 121.982 217 227 255
66.4212 127.384 113.989 199 216 255
83.0353 147.107 115.924 242 242 255
147.24 96.5528 108.599 207 221 255
224.494 145.449 107.654 198 216 255
63.6989 83.1593 125.952 203 219 255
86.1747 96.2212 119.721 209 222 255
3.37431 118.24 122.262 198 215 255
62.209 123.367 90.5326 201 217 255
71.5263 148.298 117.261 186 208 255
93.407 173.355 111.312 255 203 162
41.1991 60.4375 107.98 184 207 255
92.8509 172.956 112.248 215 226 255
77.5376 63.1833 108.232 190 211 255
111.074 63.8923 121.016 189 210 255
94.9599 180.039 112.916 219 228 255
126.057 150.167 112.397 193 212 255
106.961 122.841 101.902 225 232 255
57.9215 101.626 87.076 201 218 255
90.108 148.405 104.901 212 224 255
124.416 134.239 109.451 255 226 203
31.8296 135.159 109.99 188 210 255
173.402 19.5873 111.275 182 206 255
122.064 213.323 109.973 207 221 255
102.442 118.911 111.437 254 248 255
94.407 127.657 113.965 218 227 255
93.3896 173.334 111.34 200 217 255
93.3978 173.31 111.36 205 220 255
94.6303 122.477 115.346 255 217 187
48.6747 115.058 100.001 208 222 255
93.6972 187.106 114.111 253 248 255
133.86 111.407 117.463 205 220 255
105.587 88.0459 119.195 194 213 255
158.69 17.5641 116.976 195 214 255
100.361 176.091 121.83 255 249 243
93.3941 173.321 111.351 224 231 255
93.402 173.3 111.369 197 215 255
73.1615 158.861 96.8357 189 210 255
124.695 101.721 116.903 231 235 255
184.099 123.96 182.374 203 219 255
159.325 60.1468 113.689 186 208 255
49.6416 126.351 115.424 255 216 186
118.246 154.973 118.813 255 212 177
68.14 182.125 109.454 196 214 255
104.508 51.6364 112.192 189 210 255
119.391 105.423 107.03 213 225 255
118.226 130.186 103.627 255 221 193
48.8351 128.011 94.7339 255 229 208
85.8513 111.934 105.278 240 240 255
181.834 130.205 122.17 199 216 255
31.5749 169.007 113.729 203 218 255
93.3952 173.318 111.359 223 231 255
93.3652 173.366 111.32 255 254 250
93.3897 173.334 111.34 197 215 255
132.844 55.0939 119.728 207 221 255
139.736 3.06611 97.4597 209 222 255
70.8602 54.8722 89.2014 226 232 255
86.8132 32.448 119.044 194 213 255
72.2787 62.9292 107.723 236 238 255
146.65 102.867 112.57 215 226 255
93.3982 173.31 111.361 234 237 255
220.3 63.7257 108.69 187 208 255
135.4 79.4677 112.94 185 208 255
110.697 204.517 99.0966 190 211 255
114.215 135.389 96.2667 252 247 255
116.784 126.924 94.4662 255 240 226
88.2832 156.111 107.569 255 219 190
126.913 83.3121 103.718 208 221 255
22.2604 57.5272 105.281 202 218 255
19.552 195.714 109.201 208 222 255
142.594 37.1964 115.082 200 217 255
124.531 108.222 96.7567 255 198 152
93.3881 173.34 111.335 198 216 255
105.085 144.024 102.69 255 246 238
110.641 95.7029 126.537 206 220 255
63.7847 95.2123 119.754 185 207 255
171.396 158.267 104.017 209 223 255
93.3884 173.338 111.336 215 226 255
93.3912 173.33 111.344 196 214 255
66.2322 111.597 109.812 193 212 255
138.467 117.992 107.646 189 210 255
121.388 74.1925 115.812 201 217 255
93.2528 173.554 110.952 209 222 255
127.74 100.544 97.7873 255 246 238
107.177 111.127 120.999 255 247 238
135.89 125.794 115.935 255 165 84
89.3903 195.368 96.274 208 221 255
63.768 88.862 110.581 212 224 255
103.018 125.086 96.1528 255 247 239
101.267 179.025 95.8384 255 158 68
67.1076 171.607 112.687 190 211 255
100.67 149.674 113.965 255 254 251
30.3367 88.417 115.387 213 225 255
159.893 153.962 113.801 192 212 255
108.412 88.2437 108.694 203 218 255
93.2862 173.319 111.19 185 208 255
134.342 88.007 118.03 204 219 255
110.734 100.946 96.9025 255 222 196
110.527 119.49 97.9013 199 216 255
122.074 89.7018 110.532 255 224 199
118.646 133.983 95.832 255 202 159
107.967 83.4969 121.092 223 230 255
162.726 104.092 103.724 255 230 210
93.383 173.36 111.319 235 237 255
175.605 60.3404 112.723 209 223 255
114.882 83.3066 106.074 255 230 210
112.805 118.877 118.096 214 225 255
143.598 108.736 117.38 219 229 255
93.4004 173.304 111.365 255 247 239
114.727 82.5672 129.818 200 217 255
93.3888 173.337 111.338 255 244 234
200.519 133.363 112.557 190 210 255
93.1317 173.504 111.399 220 229 255
109.8 131.249 107.228 192 212 255
62.558 49.448 99.7555 208 221 255
93.3897 173.345 111.333 198 215 255
101.654 149.205 107.412 219 228 255
100.625 88.8794 128.701 229 234 255
143.549 120.911 112.187 190 211 255
66.3997 151.454 126.086 246 244 255
121.074 84.4812 138.409 199 216 255
181.103 2.69456 111.247 187 209 255
108.839 81.2047 118.245 215 226 255
187.223 9.35425 93.4065 185 208 255
80.4378 141.831 111.547 210 223 255
81.7448 205.889 110.593 194 213 255
125.546 113.626 108.316 255 246 237
148.745 104.698 102.468 197 215 255
93.388 173.34 111.335 182 205 255
70.4469 179.421 98.6309 255 236 220
164.185 77.3664 115.787 196 214 255
93.3984 173.309 111.361 255 233 216
93.3104 173.487 111.191 220 229 255
45.0605 85.4932 103.433 186 208 255
97.7103 181.387 103.32 212 224 255
152.072 105.683 106.252 210 223 255
89.3783 50.726 114.482 202 218 255
105.848 103.06 120.767 255 159 70
11.6796 145.629 118.518 210 223 255
116.57 122.337 114.154 255 226 203
151.73 111.117 109.376 215 226 255
104.779 109.874 109.253 207 221 255
104.779 110.096 110.707 255 249 242
122.878 131.861 101.423 202 218 255
132.839 89.9955 107.756 189 210 255
93.3899 173.333 111.34 188 209 255
142.647 70.9634 113.561 188 209 255
149.051 85.4136 131.118 226 232 255
128.162 92.3531 140.625 196 214 255
85.3817 212.994 125.334 211 224 255
76.0239 126.795 107.7 209 222 255
30.6728 144.566 110.902 195 214 255
81.9058 199.087 109.596 193 212 255
135.193 122.323 114.194 255 250 255
125.515 57.4748 118.731 201 218 255
97.1702 127.167 111.539 222 230 255
93.3865 173.345 111.33 255 250 255
200.798 86.2616 111.051 189 210 255
128.103 123.008 102.026 243 242 255
93.4073 173.288 111.376 192 212 255
108.394 95.6706 117.702 197 215 255
123.736 82.7213 115.814 205 220 255
82.9734 50.4395 110.05 255 170 96
123.392 113.935 112.088 196 214 255
108.454 91.8416 110.982 214 225 255
88.7289 187.004 115.521 208 222 255
53.1683 141.017 140.596 183 206 255
145.1 70.5191 126.6 255 242 230
144.862 28.5329 112.389 183 206 255
133.512 151.872 107.814 207 221 255
93.3844 173.355 111.322 197 215 255
112.533 74.6692 124.83 195 214 255
92.2256 175.537 113.438 233 236 255
106.672 105.104 108.525 255 177 110
105.968 141.519 118.763 206 220 255
93.3906 173.331 111.342 224 231 255
93.3938 173.322 111.351 211 223 255
93.3829 173.375 111.307 206 220 255
93.5371 173.359 111.211 189 210 255
209.146 128.599 101.749 220 229 255
110.981 106.229 115.226 241 241 255
110.436 80.202 153.434 255 225 200
117.957 106.744 122.203 255 240 227
73.457 139.684 120.873 186 208 255
11.789 175.969 106.657 191 211 255
75.159 180.317 101.822 247 245 255
116.82 156.493 102.652 192 212 255
86.5486 76.8245 111.059 255 254 250
164.146 25.0731 89.721 196 214 255
78.4741 143.124 96.0935 207 221 255
93.3877 173.341 111.334 207 221 255
107.026 139.268 105.756 206 221 255
148.239 127.098 120.882 192 212 255
93.3893 173.335 111.339 208 222 255
90.1047 167.564 131.681 200 217 255
118.941 84.7737 111.984 230 235 255
93.3891 173.335 111.339 195 214 255
78.2818 34.3671 89.1418 213 225 255
50.0835 47.1649 129.719 205 220 255
17.3223 80.8106 98.2459 184 207 255
34.4283 94.6241 114.082 224 231 255
105.234 118.643 124.111 255 245 235
104.256 101.951 111.197 212 224 255
109.024 140.987 99.9858 234 237 255
68.2923 194.763 113.052 199 216 255
115.676 139.919 109.381 255 213 180
93.498 172.724 109.604 240 240 255
93.3906 173.331 111.342 191 211 255
222.377 39.1332 113.567 186 208 255
144.596 65.3826 113.701 204 219 255
103.982 106.938 113.893 213 225 255
132.896 118.876 108.22 255 166 86
127.566 132.811 104.965 208 221 255
93.3901 173.333 111.341 195 213 255
157.229 130.815 88.4067 190 211 255
93.3459 173.338 111.342 255 238 224
99.958 115.812 137.457 221 230 255
91.272 78.0141 110.226 199 216 255
87.5481 133.745 108.89 216 227 255
170.329 136.186 131.524 206 220 255
130.215 102.568 116.107 195 214 255
131.492 76.8064 97.961 225 232 255
157.711 112.031 112.284 180 204 255
119.908 136.82 105.379 193 213 255
81.3718 52.5709 111.408 255 253 248
93.3872 173.343 111.332 203 219 255
52.7445 92.3229 101.393 224 232 255
40.9363 190.943 117.375 183 206 255
105.736 102.902 110.074 226 232 255
171.094 13.4063 119.952 197 215 255
94.4462 150.323 126.5 206 220 255
134.945 83.1376 116.958 188 210 255
130.091 119.695 107.471 255 246 236
142.095 147.814 36.4934 191 211 255
93.3845 173.358 111.324 213 225 255
118.231 117.8 139.066 236 238 255
165.821 104.142 119.538 195 214 255
111.533 189.198 111.594 186 208 255
119.478 130.864 112.775 207 221 255
93.3891 173.336 111.338 228 234 255
161.9 21.9016 147.291 198 215 255
99.5469 135.142 107.758 216 226 255
126.36 127.927 97.4757 255 157 66
151.327 103.387 125.541 180 204 255
53.6498 114.175 131.161 203 219 255
126.227 73.8833 107.802 233 236 255
78.216 130.909 113.219 190 211 255
92.3786 163.15 101.53 209 222 255
90.9578 14.9595 98.8624 212 224 255
93.39 173.333 111.34 196 214 255
109.269 96.5564 102.447 219 228 255
76.0025 203.856 112.239 218 228 255
152.191 100.411 117.386 204 219 255
93.4209 173.253 111.41 202 218 255
135.227 120.155 90.6039 223 231 255
93.3777 173.385 111.303 199 216 255
7.08857 58.0726 149.162 193 212 255
153.331 89.1517 105.5 200 217 255
53.6698 140.723 110.917 255 229 208
112.827 112.149 125.402 192 212 255
141.595 89.5373 96.784 205 220 255
93.4017 173.301 111.368 204 219 255
120.767 151.524 100.951 230 235 255
88.7952 150.133 118.096 225 232 255
109.393 106.486 114.747 223 231 255
138.24 93.5418 104.2 220 229 255
109.606 113.41 111.252 204 220 255
93.3941 173.4 111.277 211 224 255
95.6593 107.468 107.425 233 237 255
56.4336 88.1458 144.307 236 238 255
66.2246 118.474 105.159 188 209 255
84.7239 9.52342 98.9303 193 212 255
107.852 114.799 115.948 255 236 220
101.735 184.299 113.767 198 216 255
76.4569 156.446 113.163 199 216 255
102.154 124.095 121.012 255 246 237
93.3836 173.358 111.319 200 217 255
93.4125 173.299 111.429 223 230 255
53.4401 83.9773 120.253 224 231 255
92.4809 154.705 127.093 255 245 235
133.857 115.195 107.12 209 222 255
125.812 75.601 134.764 197 215 255
104.664 91.1054 123.872 226 232 255
105.07 166.231 113.859 205 220 255
30.9469 1.37584 101.133 186 208 255
121.066 75.064 111.564 218 228 255
120.541 146.842 107.699 255 246 237
135.687 85.4078 117.962 186 208 255
97.6993 154.775 109.201 208 222 255
93.3889 173.337 111.337 225 232 255
129.192 93.9817 114.561 255 251 255
95.385 219.188 104.817 194 213 255
93.3893 173.335 111.339 204 219 255
96.386 84.1495 118.771 238 239 255
93.3862 173.347 111.329 191 211 255
144.714 40.4636 115.422 198 215 255
127.863 170.763 115.863 201 218 255
125.791 192.604 93.5498 179 204 255
116.419 114.747 118.439 255 239 226
93.3823 173.391 111.297 255 209 173
133.249 87.9753 103.505 199 216 255
116.993 137.123 98.4179 205 220 255
149.083 141.719 113.348 181 205 255
37.663 100.57 108.088 210 223 255
93.9324 173.008 111.019 245 243 255
44.4855 136.598 109.284 255 209 172
93.3899 173.333 111.341 255 240 226
93.3412 173.404 111.325 233 237 255
111.971 119.035 105.931 255 219 191
93.3766 173.277 111.387 213 225 255
121.47 136.227 102.964 255 217 188
144.93 127.772 109.794 212 224 255
94.3319 161.062 108.388 208 222 255
18.7091 85.4679 113.082 198 216 255
84.3053 138.947 117.364 211 223 255
106.81 5.52455 109.611 255 236 221
55.1346 131.135 83.934 188 209 255
115.082 176.509 104.738 218 228 255
94.738 165.831 111.087 195 214 255
93.383 173.361 111.316 204 219 255
110.374 102.221 106.022 255 199 153
93.3869 173.344 111.331 193 212 255
112.811 100.844 113.746 255 222 195
132.816 57.9261 120.082 218 228 255
85.4547 161.713 128.341 255 254 249
146.789 96.307 114.889 223 231 255
65.3124 155.414 114.783 190 210 255
106.752 104.966 111.975 255 217 186
91.3487 107.478 109.409 255 254 250
133.177 123.772 105.437 209 222 255
82.3565 146.934 102.453 255 254 250
117.023 80.501 111.536 218 227 255
215.54 29.9083 113.892 191 211 255
140.753 110.024 100.5 195 214 255
84.0433 98.1707 117.563 255 244 233
64.0416 131.204 116.592 183 206 255
154.991 149.281 124.692 193 212 255
143.746 91.9568 126.318 199 216 255
106.021 105.507 112.515 220 229 255
112.954 145.313 104.979 255 230 210
93.1074 174.289 112.012 198 215 255
76.0515 184.273 125.87 212 224 255
106.158 113.024 97.9594 255 252 247
68.9862 121.205 120.879 186 208 255
126.475 52.6279 116.006 205 220 255
115.614 135.887 104.44 255 213 179
93.3887 173.338 111.337 191 211 255
78.3261 10.0961 105.732 185 208 255
93.9005 173.577 111.551 190 211 255
126.689 75.4655 108.671 229 234 255
109.084 95.5123 113.207 255 209 172
52.691 85.701 87.8471 230 235 255
161.271 156.841 116.212 210 223 255
87.3069 132.387 110.97 243 242 255
91.2155 128.677 114.318 255 253 248
45.1295 95.5986 126.441 196 214 255
71.2717 115.152 113.756 208 222 255
142.078 138.673 119.551 185 207 255
123.076 87.9155 112.435 255 226 202
93.3851 173.35 111.326 196 214 255
58.1097 107.161 118.895 192 212 255
214.267 148.642 115.986 184 207 255
63.1057 104.074 108.54 237 239 255
148.225 1.8531 112.411 191 211 255
93.3837 173.359 111.318 197 215 255
149.612 159.453 122.384 220 229 255
55.1822 74.4623 72.9434 203 219 255
170.746 73.1538 112.998 202 218 255
53.4258 54.1392 110.161 202 218 255
93.295 173.379 111.258 206 220 255
89.3302 167.826 108.414 208 222 255
87.6229 169.1 114.385 217 227 255
