ply
format ascii 1.0
element vertex 1341
property float x
property float y
property float z
property uchar red
property uchar green
property uchar blue
end_header
193.387 173.507 115.121 191 211 255
160.43 177.529 112.771 198 216 255
78.5551 90.7904 102.604 255 246 238
94.201 174.808 112.403 255 253 248
166.876 54.5399 110.172 187 208 255
163.732 151.658 112.198 183 206 255
128.305 116.76 103.169 255 238 223
118.523 59.7133 111.951 196 214 255
125.247 90.5003 106.948 217 227 255
85.6073 93.6852 112.354 223 231 255
104.641 82.5264 111.66 243 242 255
207.364 58.1058 112.098 183 206 255
77.7736 83.2547 106.2 233 236 255
133.151 128.292 119.034 255 244 234
215.107 82.0474 112.096 191 211 255
170.863 146.829 114.483 207 221 255
87.928 117.304 125.362 255 187 131
94.4782 126.197 106.792 220 229 255
123.57 93.7599 101.487 255 245 235
93.979 174.957 111.435 255 242 231
103.372 33.6274 112.868 200 217 255
75.1174 132.289 108.75 209 222 255
127.189 99.0117 111.892 255 233 214
47.8335 95.799 112.364 196 214 255
46.5601 173.806 112.574 181 205 255
171.835 138.705 112.3 223 231 255
16.7637 96.9472 112.05 188 209 255
86.9053 104.629 118.437 244 243 255
83.5858 40.8554 112.969 195 214 255
117.5 127.81 106.326 211 224 255
138.963 117.524 104.694 243 242 255
30.181 68.7318 112.759 183 206 255
76.6876 98.3062 103.252 241 241 255
122.265 49.0174 116.076 215 226 255
128.518 102.932 109.434 214 225 255
151.423 130.722 119.483 210 223 255
101.455 24.7745 113.83 191 211 255
156.022 182.574 112.823 204 219 255
96.6689 8.73369 111.787 196 215 255
114.071 89.0458 121.07 255 248 241
174.363 115.308 111.116 201 217 255
116.759 119.077 105.038 255 225 200
123.229 105.596 114.668 207 221 255
37.3816 141.9 113.603 189 210 255
55.5785 64.1587 110.587 196 215 255
157.328 86.2322 114.305 195 213 255
125.334 130.894 119.618 255 252 246
151.095 117.576 120.25 192 212 255
72.0971 110.237 107.681 215 226 255
176.259 137.342 111.395 202 218 255
140.955 119.877 119.605 226 233 255
123.71 81.4689 109.197 211 224 255
160.587 73.0889 115.368 197 215 255
107.411 84.3497 110.275 255 206 167
166.227 132.389 107.099 229 234 255
120.029 79.0811 116.905 254 248 255
92.0968 86.2145 124.74 233 236 255
106.476 121.779 106.799 209 223 255
157.086 112.341 113.35 224 231 255
57.3991 174.065 110.462 185 207 255
153.771 58.0406 114.422 255 251 245
106.027 132.493 101.485 215 226 255
146.19 93.5636 116.881 255 220 192
211.96 139.389 112.069 185 207 255
167.338 99.9251 113.061 209 222 255
123.626 113.534 97.4626 255 251 255
30.0698 99.8138 116.068 195 214 255
75.0583 148.226 114.27 199 217 255
90.6476 63.0124 107.23 205 220 255
119.903 112.7 124.015 255 250 255
172.069 144.531 111.27 220 229 255
70.6762 73.2064 110.945 196 214 255
83.2733 77.6837 111.519 236 238 255
110.842 121.745 95.7644 243 242 255
100.283 175.404 110.979 200 217 255
109.948 143.873 112.488 255 158 68
71.0758 107.764 107.392 216 227 255
21.9071 132.078 113.204 178 203 255
141.407 123.432 123.472 203 219 255
163.191 56.8643 115.06 192 212 255
107.691 105.344 131.213 230 235 255
128.336 173.534 113.946 207 221 255
123.496 93.068 114.076 255 180 117
87.0507 153.666 114.202 196 214 255
92.15 136.543 121.148 255 218 189
171.893 61.1447 110.788 190 210 255
175.87 133.2 111.228 233 237 255
166.755 196.908 112.095 192 212 255
80.1845 68.6706 106.785 255 215 183
179.017 110.735 112.891 194 213 255
163.816 103.185 112.71 203 219 255
127.765 85.8023 107.129 255 234 216
72.9001 132.997 106.226 225 232 255
80.1802 145.553 111.669 219 228 255
102.579 41.1243 115.903 189 210 255
182.191 91.5986 114.209 244 243 255
37.8682 139.213 114.348 201 217 255
69.0726 108.045 117.571 199 216 255
172.977 22.8218 111.212 182 205 255
29.8962 97.9659 111.861 185 207 255
93.9934 174.968 111.395 209 222 255
63.3548 86.8317 117.905 212 224 255
129.926 103.901 118.978 255 235 218
79.2512 166.181 110.226 192 212 255
30.1561 117.87 110.969 195 213 255
111.007 84.475 118.913 255 250 244
122.222 13.4238 111.996 197 215 255
91.8978 30.2554 109.993 187 209 255
165.434 169.43 111.696 201 217 255
38.1941 103.76 115.743 255 210 174
167.966 119.605 114.341 226 232 255
90.0033 117.219 115.694 246 244 255
97.6796 147.863 110.798 254 248 255
22.1182 155.616 114.886 185 208 255
130.658 166.269 111.66 199 216 255
93.6448 131.423 113.805 255 230 209
82.5305 117.409 111.692 225 232 255
93.0894 139.997 109.877 255 232 214
105.566 156.18 112.282 255 245 235
3.06161 105.543 110.301 188 209 255
127.799 62.0051 112.801 229 234 255
67.2581 69.4616 117.107 190 211 255
138.711 158.208 117.761 212 224 255
218.294 129.962 115.228 189 210 255
100.344 121.273 97.3464 255 225 200
80.9938 88.0069 116.759 230 234 255
94.1286 173.854 111.78 255 220 192
58.0126 153.15 109.98 202 218 255
86.3921 100.595 106.593 205 220 255
96.2344 84.5232 102.956 226 233 255
173.642 55.8608 114.451 199 216 255
111.499 40.7744 111.613 194 213 255
111.302 84.4058 104.558 233 237 255
112.65 161.567 108.406 216 226 255
63.6431 171.136 111.812 192 212 255
87.1796 139.215 104.84 185 208 255
119.981 155.194 111.987 248 245 255
78.8701 101.367 108.282 255 136 13
89.396 111.372 111.816 225 232 255
95.2412 156.601 112.389 250 246 255
65.5725 126.632 117.728 204 219 255
97.3148 64.2575 113.3 230 235 255
60.6545 32.7871 112.879 186 208 255
91.06 124.645 117.658 255 248 241
77.2837 116.678 114.555 198 216 255
64.8698 157.445 106.245 255 207 169
80.1741 38.2536 113.783 204 220 255
123.936 39.9869 115.578 209 222 255
176.915 164.216 114.075 255 244 234
189.636 77.8127 110.049 210 223 255
125.058 80.6812 109.862 255 246 237
17.8633 99.8296 113.862 200 217 255
96.1325 122.972 126.371 255 239 226
130.311 93.3459 105.645 255 160 72
69.4809 73.5716 105.497 243 242 255
173.345 197.363 114.955 184 207 255
127.226 87.2003 117.074 188 209 255
53.6068 147.784 111.4 189 210 255
123.763 131.769 121.716 255 212 177
198.589 124.354 115.646 212 224 255
94.0616 174.76 111.474 196 214 255
112.366 125.453 96.163 255 250 243
151.148 83.0847 112.923 211 223 255
137.361 25.1318 109.997 191 211 255
120.231 77.0865 117.014 255 251 255
98.9388 159.405 108.038 198 215 255
131.486 44.3084 111.762 205 220 255
64.8912 197.402 112.224 196 214 255
22.0937 138.058 115.615 190 211 255
117.618 203.73 112.286 178 203 255
150.184 164.816 110.379 231 235 255
140.633 149.379 118.863 248 245 255
131.672 115.661 110.936 255 253 249
216.854 93.2923 110.665 179 204 255
69.3554 145.823 109.155 198 215 255
48.1924 75.9971 111.658 190 210 255
143.383 144.218 114.684 201 217 255
119.495 35.1245 109.911 207 221 255
53.9038 174.173 110.873 196 214 255
127.456 92.7023 102.11 255 220 192
81.6103 108.689 121.585 201 218 255
79.6591 59.3314 106.38 255 245 236
57.6162 101.519 115.798 213 225 255
81.0515 175.709 114.884 210 223 255
102.79 81.18 111.723 210 223 255
111.215 77.0654 114.346 200 217 255
119.505 100.308 105.805 255 163 80
68.0753 59.7705 114.189 207 221 255
176.563 48.5085 110.093 195 214 255
121.147 189.736 114.469 189 210 255
124.733 147.753 109.595 244 243 255
160.228 52.6953 113.948 190 211 255
59.7785 103.012 107.729 223 230 255
201.617 117.456 112.846 190 211 255
143.304 118.278 110.139 255 241 229
182.787 66.7848 109.04 191 212 255
117.704 64.2498 104.922 191 211 255
98.1801 171.331 111.185 197 215 255
56.3468 123.744 109.65 218 228 255
154.88 62.6886 113.747 201 218 255
104.359 216.152 105.935 198 216 255
58.1736 153.526 109.557 217 227 255
159.272 132.377 119.643 241 241 255
142.564 130.496 116.027 214 225 255
146.6 80.5896 121.289 245 243 255
93.8717 175.281 111.192 199 216 255
124.263 140.567 116.463 211 224 255
118.657 145.545 101.604 219 228 255
94.2259 174.543 111.327 193 213 255
38.6787 180.682 109.478 194 213 255
207.948 89.6101 113.956 191 211 255
34.1078 74.9889 110.499 195 214 255
192.716 138.39 112.947 193 213 255
22.9636 161.879 108.861 180 204 255
124.046 164.979 113.332 200 217 255
24.148 181.296 110.546 185 207 255
143.865 111.007 121.018 201 217 255
90.1533 69.5853 117.327 197 215 255
80.0885 102.256 112.883 255 253 248
207.295 158.188 115.074 212 224 255
128.17 60.9862 110.433 235 238 255
48.482 144.203 112.495 181 205 255
22.9939 124.328 113.69 204 220 255
110.712 111.22 128.313 255 64 0
87.2003 61.1305 111.07 207 221 255
59.9497 119.62 119.465 200 217 255
49.732 113.104 113.704 227 233 255
114.104 115.488 95.2813 255 255 251
123.262 76.8159 103.641 214 226 255
114.415 30.3942 110.084 203 219 255
132.739 99.6367 121.955 246 244 255
113.909 126.29 107.196 222 230 255
182.932 193.407 111.838 177 202 255
55.6523 141.795 108.885 205 220 255
101.195 63.2179 112.287 207 221 255
108.702 87.9646 116.095 213 225 255
103.352 108.49 106.533 255 177 110
89.0667 114.245 122.255 255 234 217
53.1927 43.5602 109.654 193 213 255
96.367 90.4944 116.117 255 245 235
138.803 45.0612 112.536 214 225 255
78.4287 57.7201 114.991 218 228 255
116.432 103.293 103.869 231 235 255
101.186 166.027 114.205 202 218 255
134.362 103.801 107.231 255 234 217
91.7061 151.774 111.386 255 249 255
118.749 147.386 109.88 224 231 255
86.2121 115.423 101.59 255 234 216
121.977 110.031 112.057 255 251 246
92.558 175.039 108.794 211 223 255
146.968 53.7943 111.381 255 252 246
169.802 151.951 112.726 208 222 255
128.445 122.663 114.553 255 217 187
170.254 106.027 113.61 201 217 255
117.653 202.691 109.289 190 210 255
57.5394 54.9245 112.705 199 216 255
43.4061 84.4177 99.4001 216 227 255
163.078 65.349 110.065 194 213 255
65.3167 87.115 111.665 201 217 255
98.1428 97.5618 121.347 255 247 238
87.4881 76.5906 117.748 232 236 255
63.6138 134.912 108.282 219 228 255
92.481 138.765 113.606 223 230 255
134.733 79.5257 107.104 206 221 255
50.4668 77.2125 110.906 192 212 255
93.9281 100.394 99.8167 205 220 255
144.627 102.55 110.789 255 212 178
161.689 74.6453 109.853 197 215 255
101.312 83.7727 111.904 255 245 235
166.488 97.5792 111.876 233 236 255
38.6807 131.066 111.515 191 211 255
101.041 103.818 114.187 255 138 19
103.87 93.1096 118.943 255 255 252
99.5334 26.593 115.678 182 205 255
194.987 121.899 112.657 205 220 255
66.141 187.215 112.944 199 216 255
177.028 122.644 114.756 205 220 255
154.039 158.824 106.837 189 210 255
32.8867 129.694 114.815 187 208 255
143.819 100.081 125.079 255 250 244
110.234 117.676 95.8637 216 227 255
201.632 168.987 112.009 201 217 255
45.6932 111.227 111.357 214 225 255
152.218 82.3858 109.169 255 248 240
34.3549 186.242 108.7 175 201 255
52.749 167.229 111.525 255 236 220
159.283 105.275 113.344 202 218 255
63.6378 39.1344 113.619 208 222 255
154.46 96.459 114.088 210 223 255
87.6296 153.767 117.921 209 222 255
157.459 113.986 122.497 211 223 255
220.657 111.372 111.12 198 216 255
134.094 137.649 121.066 255 252 247
87.7536 51.0581 113.198 231 235 255
47.604 79.224 112.941 216 226 255
49.1754 39.9663 111.4 227 233 255
172.527 108.45 112.078 224 231 255
131.792 199.131 97.1955 177 202 255
32.7663 157.621 111.935 196 214 255
202.776 115.454 114.236 186 208 255
82.5621 73.7878 107.236 233 237 255
146.029 84.1779 112.835 220 229 255
148.122 12.9616 111.14 181 205 255
162.118 84.915 114.926 190 210 255
140.949 112.637 118.521 255 250 243
62.7815 116.964 110.406 186 208 255
117.866 199.708 113.448 200 217 255
71.2817 11.002 113.438 186 208 255
141.725 174.817 108.095 195 214 255
132.344 56.3664 113.632 213 225 255
172.2 143.293 114.171 202 218 255
91.7957 134.834 110.342 255 234 217
153.496 138.605 120.738 203 219 255
187.002 189.401 113.022 199 216 255
122.655 86.5946 101.867 255 250 244
142.217 158.814 106.773 189 210 255
160.249 113.511 120.239 201 218 255
110.019 159.836 117.236 215 226 255
24.6877 74.2845 111.559 184 207 255
121.708 105.354 113.926 255 252 247
109.503 101.322 115.563 202 218 255
101.506 109.905 111.253 216 227 255
168.45 99.8864 112.991 219 229 255
185.628 112.268 110.691 188 209 255
177.641 154.86 112.936 195 214 255
144.27 105.897 106.304 221 229 255
101.3 154.818 112.547 236 238 255
138.806 109.751 101.855 223 231 255
189.854 95.7845 111.428 185 207 255
109.068 168.63 111.464 209 222 255
171.588 118.751 113.735 215 226 255
97.1214 95.059 111.481 247 245 255
112.693 102.612 115.931 255 0 0
116.652 135.699 122.154 196 215 255
50.4608 116.688 114.582 237 239 255
130.246 97.4606 105.777 255 234 216
119.198 70.5747 108.41 255 250 255
193.75 68.7773 113.301 214 225 255
28.3324 55.5312 109.893 194 213 255
96.8743 48.4683 117.396 199 216 255
76.528 214.814 112.333 187 208 255
90.3969 91.8867 106.742 210 223 255
18.6064 137.851 110.875 191 211 255
210.247 91.533 112.384 188 209 255
126.818 102.169 103.055 219 228 255
189.979 97.3239 109.817 210 223 255
211.003 104.285 110.837 185 208 255
162.695 87.2294 114.611 255 253 249
114.323 41.5109 109.222 208 222 255
93.9642 174.842 111.256 255 251 255
95.0601 118.49 107.581 255 216 185
128.772 107.726 107.812 255 230 210
168.33 148.357 115.534 200 217 255
67.3103 133.348 117.709 239 240 255
139.746 103.254 116.126 236 238 255
149.641 60.6207 108.955 202 218 255
153.674 60.6181 108.526 190 211 255
199.211 175.376 112.317 197 215 255
167.806 148.726 115.355 196 214 255
93.6659 175.131 110.957 209 223 255
62.1706 129.681 114.17 216 226 255
215.516 88.4958 111.684 196 214 255
49.8149 78.3492 111.901 208 222 255
99.3515 38.016 113.77 193 213 255
83.378 8.38094 111.049 179 204 255
119.858 127.493 117.42 227 233 255
99.998 118.736 101.378 255 245 235
74.5867 124.959 103.777 227 233 255
166.637 30.4845 113.548 179 203 255
202.518 58.2957 112.834 195 214 255
125.293 75.8157 110.669 255 251 246
143.917 93.9098 101.707 255 234 217
182.051 120.728 111.39 248 245 255
85.962 25.463 112.28 197 215 255
100.94 77.4849 118.613 255 243 232
149.136 181.205 113.486 200 217 255
115.982 112.781 122.392 219 228 255
105.445 129.476 117.446 216 227 255
83.8162 137.168 117.957 250 246 255
151.475 93.8021 113.168 206 221 255
143.528 78.2436 112.265 225 232 255
52.9084 69.9397 111.539 194 213 255
115.234 147.274 104.932 224 231 255
90.1559 134.508 109.421 255 242 230
149.644 92.6961 112.731 251 246 255
197.209 154.285 114.498 192 212 255
99.6936 126.487 112.275 255 244 233
56.8039 127.692 108.841 200 217 255
154.148 100.585 104.74 255 181 119
106.69 131.596 113.063 255 249 255
92.6489 61.5309 106.559 193 213 255
109.423 106.304 103.487 255 245 236
129.734 83.3257 104.094 235 238 255
109.88 81.0593 121.221 255 247 238
124.222 67.9662 114.817 255 217 187
58.2623 156.063 111.049 200 217 255
104.287 104.941 100.651 255 231 211
185.148 42.1955 114.146 190 210 255
114.719 178.125 110.217 192 212 255
27.8218 180.53 112.877 184 207 255
26.478 91.7934 110.169 206 221 255
83.7962 110.79 115.666 217 227 255
49.9077 92.9515 110.062 221 230 255
172.573 116.156 108.285 186 208 255
142.528 211.289 110.61 191 211 255
128.747 76.6966 114.13 255 243 233
98.7609 54.0043 115.748 225 232 255
121.716 75.9476 103.902 210 223 255
58.872 128.842 112.464 255 223 198
175.215 134.018 118.949 241 241 255
118.38 88.3155 121.135 252 247 255
105.488 121.501 106.586 255 130 0
149.206 208.677 112.71 190 211 255
129.353 183.578 115.321 213 224 255
151.119 25.7007 113.645 199 217 255
79.4477 134.364 122.462 189 210 255
82.6449 71.9473 105.211 255 215 183
203.661 137.617 110.086 191 211 255
103.328 122.012 109.632 255 252 247
60.4161 124.202 112.999 208 222 255
160.499 64.3098 108.306 220 229 255
61.1895 140.282 113.541 255 249 255
90.8699 91.6444 111.943 255 250 255
119.458 126.688 116.311 216 226 255
106.262 153.763 117.435 218 228 255
156.854 87.2953 109.421 255 241 228
112.55 93.7025 118.508 234 237 255
98.0217 130.094 109.191 222 230 255
101.899 47.8302 105.899 192 212 255
102.228 114.278 110.097 255 254 250
120.078 104.77 106.324 255 216 184
56.1517 134.983 113.863 193 213 255
128.313 111.44 103.278 255 223 198
25.5373 126.991 111.401 197 215 255
137.029 180.919 115.203 206 220 255
98.6625 38.1748 116.688 188 209 255
91.5869 10.3361 113.089 190 210 255
186.79 153.997 111.838 207 221 255
118.056 106.306 125.499 255 242 230
119.424 94.709 99.8653 242 241 255
95.9714 73.1706 119.672 203 219 255
176.275 130.497 112.449 187 209 255
139.65 120.889 113.574 255 218 189
200.586 59.3035 112.748 191 211 255
99.9007 38.9217 111.384 207 221 255
117.364 131.331 123.569 255 243 231
92.7911 51.4183 111.923 198 216 255
136.817 109.961 108.378 255 213 180
165.898 157.687 108.635 230 234 255
88.237 15.7341 113.887 193 212 255
89.5599 122.423 108.626 253 248 255
151.435 179.464 111.331 188 209 255
117.056 130.459 117.435 255 251 245
148.277 104.59 104.909 193 212 255
85.328 111.158 107.155 255 251 255
103.887 119.632 127.448 255 209 172
165.385 159.523 113.6 180 205 255
74.2033 38.7971 116.012 204 219 255
107.906 124.794 105.689 255 227 205
104.739 215.208 112.035 187 209 255
54.4979 59.2496 111.801 194 213 255
117.831 151.449 115.859 203 219 255
129.335 133.482 111.132 239 240 255
78.6097 143.168 112.029 246 244 255
123.173 75.9679 114.361 205 220 255
63.1753 125.36 120.185 201 218 255
90.9813 73.4045 116.222 214 225 255
72.7416 168.108 108.34 235 238 255
5.37145 118.252 113.423 192 212 255
50.4265 108.894 114.069 189 210 255
118.561 57.6117 115.987 218 228 255
46.6437 109.57 114.121 201 218 255
87.4058 160.353 112.248 242 241 255
123.402 111.447 122.517 220 229 255
101.627 137.83 106.233 211 223 255
97.6393 129.225 109.446 214 225 255
178.288 32.6062 112.719 193 212 255
66.2745 132.221 121.159 209 222 255
48.6606 106.783 111.184 212 224 255
43.5974 103.994 111.199 207 221 255
180.735 78.6278 111.563 203 219 255
147.846 132.973 116.335 213 225 255
116.993 103.211 111.54 255 243 233
62.8581 211.757 116.618 195 214 255
106.196 143.529 103.99 224 231 255
18.6159 137.896 111.864 179 204 255
83.6785 137.504 123.238 195 214 255
117.171 105.774 120.265 247 245 255
81.0561 167.635 109.065 194 213 255
179.112 196.284 115.052 186 208 255
68.4714 116.31 108.813 214 226 255
94.0418 174.947 111.228 255 225 201
147.959 102.847 115.955 242 242 255
95.609 61.399 111.611 202 218 255
101.073 177.103 110.88 253 248 255
131.436 72.4991 112.398 241 241 255
135.526 138.379 105.889 196 214 255
93.9003 77.4547 107.658 205 220 255
120.134 129.897 106.751 239 240 255
22.4378 178.782 113.312 189 210 255
166.218 98.9896 111.513 217 227 255
150.232 133.909 109.644 215 226 255
38.7864 95.1621 110.717 189 210 255
101.769 169.175 110.025 255 243 232
91.6816 67.5099 110.021 198 216 255
51.363 122.925 109.617 198 216 255
77.6908 47.448 110.619 197 215 255
123.688 105.164 128.155 244 243 255
117.918 97.0463 116.209 241 241 255
130.691 116.851 109.773 255 236 220
118.091 136.902 112.297 255 251 245
87.9832 115.514 107.004 242 242 255
169.427 112.715 114.868 221 230 255
136.231 145.763 120.387 195 214 255
119.592 113.4 92.9148 255 222 196
187.484 43.3797 112.325 195 214 255
150.856 103.716 113.651 226 233 255
159.631 194.892 112.889 187 209 255
136.094 145.155 108.848 197 215 255
175.924 46.7126 111.005 192 212 255
8.6914 135.785 114.129 189 210 255
139.199 113.017 99.8361 205 220 255
162.655 121.911 110.805 210 223 255
133.262 115.339 107.078 213 225 255
61.2045 135.643 115.606 221 229 255
38.1285 114.898 111.289 199 216 255
141.515 61.8642 111.526 190 210 255
142.707 104.799 118.11 207 221 255
125.577 87.8941 109.607 225 232 255
103.476 134.123 106.279 212 224 255
111.942 84.364 109.124 255 246 238
172.452 111.226 116.29 203 218 255
99.8758 97.8783 115.348 255 186 129
79.3753 135.232 118.695 193 213 255
175.863 128.923 108.748 223 231 255
146.396 160.022 105.065 194 213 255
171.211 90.5391 106.604 255 246 237
149.955 145.281 113.801 204 219 255
167.12 44.8217 113.58 211 223 255
138.819 164.349 110.149 228 234 255
118.279 95.6708 99.9556 255 248 240
199.119 107.492 110.762 202 218 255
93.964 174.938 111.14 205 220 255
116.717 96.205 106.249 222 230 255
61.9886 94.6547 104.692 202 218 255
171.3 114.969 110.981 201 218 255
93.2705 157.047 113.723 228 233 255
31.0615 173.728 112.875 248 245 255
201.499 152.701 111.667 186 208 255
96.6842 171.806 111.465 249 246 255
88.4595 127.45 112.786 255 72 0
38.1335 60.1307 113.954 215 226 255
154.201 167.377 116.039 210 223 255
148.593 116.606 119.486 250 246 255
93.9479 174.926 111.362 200 217 255
126.335 58.5777 111.591 223 231 255
96.1721 33.1494 112.623 193 213 255
144.601 80.0396 114.056 196 215 255
163.31 51.6834 115.561 187 208 255
71.0111 90.2558 109.155 255 222 195
88.6977 60.5477 107.105 193 213 255
47.9501 66.3019 114.017 216 227 255
75.2024 128.97 108.059 255 187 130
63.0278 113.306 112.279 192 212 255
86.4737 162.353 115.582 188 209 255
205.133 165.747 112.547 198 216 255
43.9957 101.888 111.896 193 213 255
85.8719 116.49 101.759 255 247 238
203.407 87.178 112.551 189 210 255
14.898 151.513 111.691 202 218 255
81.2702 67.096 116.915 208 221 255
117.449 102.378 111.183 255 232 214
124.176 101.83 114.166 212 224 255
71.5025 82.9972 107.192 205 220 255
157.047 113.227 104.734 188 209 255
93.5333 174.826 111.593 209 222 255
147.863 145.321 109.943 202 218 255
109.257 102.953 117.33 255 228 207
89.8187 28.4708 111.832 204 219 255
47.0676 77.6572 111.097 199 216 255
76.2534 44.482 109.025 200 217 255
93.1717 26.5227 111.717 189 210 255
187.323 99.0457 112.038 217 227 255
161.574 66.4961 113.216 200 217 255
143.158 141.504 120.407 211 224 255
111.373 118.46 125.133 231 235 255
195.922 139.685 112.893 204 219 255
19.4426 165.776 110.153 191 211 255
122.967 97.6892 108.72 255 246 237
129.245 105.711 109.481 196 215 255
89.545 139.102 109.461 199 216 255
217.269 104.647 115.385 211 223 255
129.918 59.5489 107.435 255 252 246
80.331 82.6114 103.633 192 212 255
85.1555 93.1533 106.278 255 241 229
118.718 140.573 110.344 220 229 255
99.5487 134.118 103.295 255 234 216
59.9175 130.952 110.138 219 228 255
85.9927 127.962 109.903 209 222 255
118.073 151.241 115.734 255 228 206
166.208 193.53 111.487 197 215 255
191.956 79.6726 114.97 192 212 255
51.1613 100.839 112.63 203 219 255
133.306 189.183 109.883 193 213 255
139.529 48.3033 116.465 214 225 255
95.2278 122.185 112.457 234 237 255
74.3451 100.311 121.827 214 225 255
115.154 151.624 104.172 255 250 243
152.008 85.5881 111.278 215 226 255
163.024 151.639 112.271 192 212 255
121.695 140.259 112.117 228 234 255
82.3477 71.6885 108.634 254 248 255
55.2709 51.6744 111.697 200 217 255
204.219 164.318 114.586 184 207 255
212.783 145.464 113.571 180 205 255
98.8761 152.244 119.433 255 247 238
89.4981 121.483 108.183 255 219 191
102.41 149.075 114.711 203 219 255
9.09623 140.356 112.156 186 208 255
95.8044 130.691 114.061 239 240 255
127.851 91.213 102.336 214 225 255
121.998 138.934 100.317 219 228 255
154.577 184.955 111.067 194 213 255
92.5287 172.981 110.039 212 224 255
46.8471 86.705 113.89 194 213 255
39.8801 59.3795 108.969 196 214 255
125.585 106.92 96.9765 248 245 255
94.3782 174.962 111.908 255 235 218
69.2933 118.593 119.006 200 217 255
121.308 74.993 103.368 210 223 255
60.8973 77.888 102.543 244 243 255
198.818 91.106 112.726 194 213 255
73.6962 81.8198 118.531 205 220 255
128.291 61.827 106.847 255 239 225
99.259 7.28913 110.011 182 206 255
120.643 106.469 123.273 249 245 255
143.312 32.3621 110.245 201 217 255
114.396 116.437 124.167 255 209 173
40.4724 42.375 113.092 191 211 255
170.555 160.171 112.25 188 209 255
115.106 132.604 110.868 202 218 255
105.182 146.23 109.322 255 202 160
122.551 141.361 107.948 207 221 255
115.232 119.653 100.724 255 248 240
98.0298 45.4039 117.095 214 225 255
100.439 129.808 124.267 211 223 255
96.1851 147.29 116.481 255 255 252
111.224 98.4354 114.17 255 216 185
76.8574 85.2812 116.676 255 251 246
167.383 159.68 113.189 188 209 255
33.8558 105.171 111.561 200 217 255
37.5081 166.603 110.786 192 212 255
90.931 171.987 112.188 204 220 255
114.573 107.312 130.571 203 219 255
43.9942 123.888 110.672 192 212 255
108.346 131.591 125.977 255 189 133
127.58 57.9399 112.555 195 214 255
193.037 164.95 114.819 193 212 255
165.873 159.469 118.082 192 212 255
175.227 138.725 112.526 195 214 255
166.121 62.1248 112.517 196 214 255
218.539 129.196 114.141 185 207 255
94.4296 133.025 118.669 212 224 255
93.6061 158.85 114.554 255 238 224
150.067 137.193 105.52 202 218 255
141.084 84.0476 109.301 255 236 221
97.1799 174.702 110.877 216 226 255
72.3681 70.5319 115.06 205 220 255
173.658 132.031 110.405 207 221 255
75.505 141.529 109.265 255 249 241
119.781 115.089 101.336 255 248 241
189.603 66.7811 111.336 187 209 255
149.713 78.0658 110.897 218 228 255
62.8781 56.2651 113.544 227 233 255
130.366 216.242 115.964 205 220 255
106.417 96.5514 120.676 255 221 194
115.661 126.51 102.986 255 166 86
105.554 90.1189 119.271 255 248 241
9.51775 82.5847 113.2 191 211 255
38.3613 140.226 113.558 195 214 255
64.8524 104.928 110.68 221 229 255
166.708 128.466 117.485 198 216 255
92.4617 112.657 105.24 255 241 229
216.773 148.707 114.435 182 206 255
195.349 131.488 111.904 212 224 255
151.11 110.821 117.997 213 225 255
116.306 36.8144 115.222 222 230 255
51.9243 123.993 114.71 222 230 255
148.861 126.674 118.363 255 222 196
80.4954 208.654 111.33 217 227 255
81.5543 110.805 109.35 218 228 255
105.012 204.755 113.239 189 210 255
111.028 160.209 110.479 192 212 255
129.291 136.951 108.747 223 230 255
103.7 132.283 123.53 232 236 255
99.2129 92.6018 99.5157 255 252 247
61.4255 98.2185 113.806 250 246 255
96.1821 54.3682 107.492 208 222 255
99.0589 183.015 111.213 191 211 255
36.0929 107.314 110.225 218 228 255
157.308 117.079 115.76 211 224 255
67.4726 72.0595 112.48 255 248 240
112.939 33.5972 107.931 224 231 255
145.803 173.934 115.81 212 224 255
52.4632 95.7729 110.624 233 236 255
158.361 123.155 109.096 191 211 255
107.935 78.6971 121.884 240 240 255
157.294 84.3332 117.31 215 226 255
183.144 141.713 111.084 184 207 255
130.816 182.407 113.613 194 213 255
94.1128 99.1396 117.41 247 244 255
150.252 146.266 111.575 255 210 174
134.578 96.6542 113.522 255 187 131
170.64 98.8451 115.528 213 225 255
134.136 132.388 111.66 234 237 255
97.1062 120.273 117.484 255 250 255
18.9229 80.8412 112.336 184 207 255
66.5711 120.871 116.51 199 216 255
49.6959 143.3 109.608 204 219 255
73.4812 143.498 118.308 196 214 255
185.406 137.648 115.794 189 210 255
33.1057 77.9804 112.334 201 218 255
149.942 180.233 115.661 203 219 255
175.611 140.076 111.728 198 215 255
26.7771 138.011 112.93 182 206 255
135.375 163.129 119.444 235 237 255
167.954 103.35 117.671 209 222 255
170.987 49.6778 111.495 255 248 240
119.492 117.417 121.326 255 233 215
191.664 86.5434 110.992 195 214 255
93.7118 110.26 105.346 255 197 149
114.432 148.422 102.711 255 238 224
151.591 61.6796 111.615 194 213 255
76.7758 84.3296 103.337 231 235 255
113.8 69.5845 120.146 255 184 124
93.5386 93.089 110.344 202 218 255
157.153 106.506 121.947 255 253 248
62.7448 114.803 114.388 211 224 255
148.744 146.173 115.305 210 223 255
179.548 90.3103 116.084 220 229 255
151.666 104.199 122.364 241 241 255
130.764 136.011 120.937 255 242 230
76.9439 135.414 117.283 255 249 255
141.38 194.827 114.063 187 209 255
110.882 84.7041 101.61 225 232 255
79.6614 154.702 117.328 189 210 255
159.159 44.986 113.93 205 220 255
8.82379 119.916 110.649 192 212 255
145.076 45.2526 111.127 207 221 255
124.379 120.332 100.785 255 239 225
113.543 96.0382 126.519 206 221 255
54.8942 87.339 108.557 199 216 255
128.858 74.5401 107.149 197 215 255
80.4736 44.0212 108.536 218 228 255
163.806 176.967 112.244 189 210 255
67.9949 67.737 115.684 255 237 222
76.9733 116.534 117.089 210 223 255
67.4382 45.4123 110.045 194 213 255
62.6947 149.755 112.084 218 228 255
81.4061 17.3988 116.119 199 216 255
130.241 91.5555 124.699 204 219 255
174.624 157.582 111.906 210 223 255
107.9 88.4199 120.868 242 241 255
98.817 136.911 103.663 255 237 221
97.9137 89.9032 109.533 236 238 255
159.281 104.895 114.563 255 249 255
147.911 14.4888 106.23 191 211 255
139.238 115.076 104.386 216 227 255
198.467 102.721 108.445 195 214 255
75.0219 115.898 123.12 224 231 255
148.126 149.043 111.775 235 238 255
111.77 176.174 113.218 255 242 230
96.5459 88.6246 121.218 226 232 255
157.755 125.545 109.095 198 216 255
202.314 117.916 112.474 217 227 255
121.496 164.594 116.92 213 225 255
51.334 151.721 114.498 206 220 255
102.838 100.948 104.275 255 185 126
153.99 154.72 117.21 224 231 255
181.124 180.975 112.991 197 215 255
136.165 96.862 101.689 204 219 255
163.142 205.523 112.512 236 238 255
130.523 67.635 119.221 255 230 209
69.8948 78.7938 108.199 195 213 255
130.431 126.536 117.867 195 214 255
116.591 121.745 116.964 255 226 204
199.734 65.3764 113.374 185 207 255
94.5135 165.885 111.285 191 211 255
109.912 166.901 109.731 255 237 222
198.82 113.912 109.527 209 222 255
53.9544 150.832 109.326 221 229 255
119.083 129.099 111.04 246 244 255
94.3941 175.104 111.379 215 226 255
173.821 202.188 114.05 191 211 255
119.304 173.098 109.418 216 226 255
83.4156 126.164 105.763 243 242 255
173.12 105.58 110.811 201 217 255
195.422 126.094 112.933 193 212 255
34.8073 110.177 109.249 187 209 255
133.452 163.944 118.012 196 214 255
200.755 61.6214 110.022 186 208 255
94.0264 133.275 119.421 239 240 255
27.3422 125.558 111.359 188 209 255
207.797 71.7852 111.48 198 216 255
173.61 135.543 115.455 190 210 255
120.681 123.974 111.75 214 225 255
90.9683 19.4406 112.27 193 212 255
143.397 157.723 117.401 203 219 255
110.294 136.478 103.965 228 233 255
78.7569 122.825 112.019 237 239 255
190.075 89.8781 112.474 189 210 255
100.061 124.963 111.999 255 246 237
135.54 171.54 115.212 185 207 255
117.233 147.026 114.871 223 231 255
128.95 55.3942 115.524 253 248 255
139.261 75.5268 111.007 255 190 137
192.231 87.3026 109.993 203 218 255
129.137 172.105 116.983 255 224 200
115.033 40.282 111.084 193 212 255
51.181 202.249 110.777 196 215 255
138.167 207.746 109.314 193 213 255
86.4032 53.8304 108.842 214 225 255
63.8798 59.9777 108.222 204 219 255
76.928 158.257 112.276 207 221 255
112.653 88.104 115.75 225 232 255
99.7814 132.926 109.382 219 228 255
147.615 140.09 111.353 187 209 255
54.0668 95.4041 111.294 197 215 255
60.4256 22.9978 114.06 179 204 255
122.468 135.804 102.038 241 241 255
106.398 95.8797 115.265 255 203 161
68.8113 107.988 107.533 255 211 176
207.344 59.068 111.234 191 211 255
112.884 147.365 113.929 210 223 255
150.411 213.554 113.919 189 210 255
51.2275 107.142 115.081 234 237 255
54.3371 123.666 110.124 255 250 255
101.167 123.3 121.889 244 243 255
93.8615 179.975 111.583 188 210 255
87.952 61.5049 112.236 235 238 255
16.5365 159.073 113.555 198 216 255
75.9789 108.899 116.902 235 238 255
165.837 70.4157 115.392 212 224 255
169.473 114.932 109.598 211 223 255
163.749 115.2 107.561 255 250 255
89.0353 148.68 107.948 255 209 172
120.831 33.1539 113.963 207 221 255
161.693 104.451 119.65 244 243 255
88.9323 175.561 112.494 212 224 255
115.732 117.91 102.147 255 253 248
146.897 77.9033 108.331 212 224 255
126.826 137.743 100.698 238 239 255
151.905 116.803 110.134 197 215 255
147.571 90.1726 104.241 211 223 255
101.665 152.304 104.084 221 230 255
218.795 132.873 112.442 189 210 255
53.447 121.353 113.324 248 245 255
143.137 70.7133 122.027 208 222 255
107.839 39.7769 108.324 196 214 255
93.2511 182.482 111.001 195 213 255
124.437 104.135 104.525 255 155 62
138.327 89.4649 124.805 199 217 255
136.775 77.864 113.169 205 220 255
19.5404 158.502 111.561 192 212 255
112.914 75.1808 114.637 239 240 255
200.705 94.7434 112.781 184 207 255
190.706 139.109 112.866 208 222 255
120.428 150.138 110.044 218 228 255
95.0288 129.411 104.233 204 219 255
134.438 116.511 104.354 255 248 240
90.8511 155.221 111.469 206 220 255
22.1023 135.256 111.346 188 209 255
74.1501 26.6832 112.42 190 211 255
119.808 87.5173 120.459 255 235 219
136.442 170.166 109.157 212 224 255
157.013 97.9261 115.024 220 229 255
116.971 148.901 112.339 199 216 255
115.408 140.837 117.37 215 226 255
146.565 21.1659 110.797 179 204 255
49.7807 76.8603 113.063 226 232 255
157.936 38.4059 110.458 187 209 255
31.2544 175.727 114.394 188 209 255
87.0015 64.0906 111.084 201 217 255
119.257 117.433 96.5215 255 249 241
111.741 15.2326 108.473 193 213 255
83.0312 101.333 112.441 206 220 255
150.094 170.403 113.965 191 212 255
103.783 118.818 98.764 255 206 167
158.889 128.505 119.34 239 240 255
183.73 133.01 110.708 186 208 255
99.0701 115.91 102.891 255 184 125
89.8468 145.789 108.956 255 254 250
138.935 59.6567 107.573 229 234 255
135.68 88.5014 121.124 211 223 255
104.745 163.488 110.938 205 220 255
40.6452 79.5723 111.707 190 210 255
75.9775 111.325 114.938 255 254 251
110.543 139.461 117.645 228 234 255
90.7498 35.2324 113.093 190 210 255
116.58 150.746 111.677 255 188 133
198.602 144.105 114.112 190 211 255
98.7358 108.42 97.2808 255 237 222
121.131 160.843 115.675 255 248 241
102.57 111.254 106.429 255 241 229
78.1127 101.277 121.376 255 245 235
126.879 35.0503 112.106 189 210 255
97.4224 121.427 113.086 255 225 200
154.13 202.913 111.246 192 212 255
111.83 139 123.395 255 233 215
87.7655 95.3906 118.272 215 226 255
125.515 61.0577 104.634 229 234 255
28.5852 170.83 113.274 185 207 255
134.158 129.42 118.702 246 244 255
152.912 75.1127 115.753 190 211 255
148.761 48.8627 113.25 227 233 255
52.3207 106.159 113.147 221 229 255
175.241 128.822 107.029 206 220 255
115.433 133.883 117.855 246 244 255
209.358 88.0473 112.194 200 217 255
51.3257 110.05 115.932 200 217 255
95.7749 122.706 114.762 255 244 233
120.734 79.0413 109.845 218 227 255
93.3925 174.419 110.726 197 215 255
114.32 130.307 126.894 255 217 187
89.238 163.29 114.497 197 215 255
208.267 113.848 112.364 193 213 255
86.1885 95.5681 106.886 255 215 184
49.7867 177.966 108.506 191 211 255
207.133 74.6349 111.784 190 211 255
95.076 86.5548 123.895 251 247 255
125.328 132.896 122.474 220 229 255
27.6246 150.357 114.27 201 218 255
132.187 159.805 106.581 197 215 255
120.455 41.823 114.212 180 204 255
119.564 77.9172 120.295 255 196 147
125.453 112.803 109.024 255 242 230
113.162 117.163 103.249 211 224 255
46.0454 99.9439 114.519 255 246 237
74.8026 102.032 111.688 255 169 93
105.483 160.859 117.874 206 220 255
106.436 68.5163 105.673 255 243 232
82.3324 78.1326 104.553 236 238 255
94.3145 96.3973 99.971 255 204 163
149.735 82.7501 112.211 233 237 255
92.0298 153.57 114.085 255 161 76
77.3515 157.175 113.786 194 213 255
58.8141 94.4351 110.611 226 233 255
108.269 147.485 113.186 199 216 255
128.59 105.235 108.723 255 194 144
148.031 178.384 113.861 193 213 255
144.969 74.5335 117.077 214 225 255
127.427 164.349 113.144 219 228 255
137.524 71.9081 116.183 235 238 255
93.0231 124.541 101.734 230 234 255
87.375 185.349 110.681 199 217 255
67.2748 140.171 117.193 187 209 255
44.932 157.582 113.253 204 219 255
24.0789 73.281 111.663 198 216 255
85.452 143.734 107.222 198 216 255
130.33 139.04 116.217 255 251 245
163.691 148.063 116.376 200 217 255
96.1916 114.189 120.981 255 245 236
175.503 187.283 110.975 190 210 255
91.5439 108.154 104.205 202 218 255
147.393 115.366 118.06 233 236 255
45.6366 75.8191 113.244 197 215 255
53.2897 138.438 113.509 202 218 255
52.3501 74.3839 113.57 195 214 255
118.886 137.395 104.975 214 225 255
115.738 195.324 113.234 181 205 255
156.622 120.459 110.151 204 220 255
102.473 91.5014 103.261 220 229 255
140.092 43.9855 112.151 191 211 255
154.831 66.0536 112.05 201 217 255
73.0863 142.908 114.644 242 242 255
59.7142 161.011 107.333 195 214 255
118.563 106.29 130.651 214 225 255
93.6661 173.921 111.922 183 206 255
110.791 138.632 115.364 255 215 184
67.5147 115.563 108.814 196 214 255
129.45 78.126 121.961 232 236 255
95.2331 186.343 111.639 193 213 255
101.423 83.9892 106.538 199 216 255
116.753 177.669 109.124 204 219 255
82.5871 130.703 117.808 255 251 246
171.043 183.796 112.334 188 209 255
116.271 170.271 108.303 205 220 255
27.5246 67.0733 114.949 188 210 255
150.19 44.1662 112.831 198 215 255
98.5944 180.757 110.103 201 217 255
187.392 176.591 111.45 189 210 255
59.0983 70.2285 109.982 188 209 255
106.627 52.2176 107.959 202 218 255
86.2233 160.338 111.543 208 222 255
68.6936 85.3888 116.53 223 231 255
153.82 129.579 114.766 233 237 255
194.386 77.4886 111.751 213 225 255
131.387 140.062 112.863 255 188 133
85.3593 106.152 113.084 255 195 147
135.057 52.4009 111.593 194 213 255
73.119 138.056 105.856 206 220 255
83.4615 114.228 115.929 255 217 187
173.476 74.1226 111.112 199 216 255
144.572 46.7313 115.184 191 211 255
142.074 156.229 116.17 200 217 255
97.1527 94.6018 105.43 198 216 255
42.9725 103.756 112.422 189 210 255
171.434 131.564 111.511 195 214 255
196.43 104.853 112.708 215 226 255
147.111 167.179 116.121 210 223 255
130.593 129.483 124.352 211 224 255
106.339 139.951 109.367 231 235 255
156.224 129.363 118.481 222 230 255
75.6464 92.0023 118.046 255 228 207
97.4053 174.421 110.552 214 226 255
205.352 146.44 109.552 183 206 255
25.2299 64.5559 109.296 185 208 255
72.2026 146.891 112.871 196 214 255
191.709 186.552 112.837 194 213 255
202.53 172.738 112.884 202 218 255
135.192 80.0076 120.886 255 244 234
123.426 48.2613 115.781 200 217 255
122.146 103.612 120.125 255 224 200
89.722 133.697 121.696 220 229 255
105.57 146.838 113.916 238 239 255
111.715 131.621 122.354 255 241 228
162.197 141.225 116.024 202 218 255
112.017 119.193 107.746 255 213 180
93.9611 174.898 111.21 179 204 255
91.3032 120.945 102.969 244 243 255
179.983 105.716 116.621 238 239 255
77.6976 112.14 109.415 232 236 255
145.985 126.018 112.381 217 227 255
90.2653 40.3035 110.426 225 232 255
58.02 151.125 116.167 194 213 255
142.649 189.287 114.69 198 216 255
192.514 50.2962 114.233 194 213 255
119.591 124.577 108.298 247 245 255
92.261 75.4829 114.719 205 220 255
135.263 105.857 114.245 231 235 255
161.566 92.9785 112.33 204 219 255
122.852 107.665 109.575 255 167 88
96.1194 174.883 110.31 184 207 255
77.034 132.296 106.706 215 226 255
144.028 68.2733 118.628 202 218 255
100.683 150.764 111.071 255 213 180
77.4719 150.277 117.647 222 230 255
55.1167 106.723 109.145 225 232 255
122.344 134.878 111.083 229 234 255
104.554 153.69 113.446 222 230 255
66.6864 198.154 109.809 232 236 255
51.6513 95.486 116.004 207 221 255
120.967 128.888 107.727 255 249 241
141.658 70.5555 113.324 196 215 255
137.316 137.618 113.407 236 238 255
56.9152 99.7131 109.053 192 212 255
127.516 139.224 120.71 198 216 255
128.145 77.742 123.702 215 226 255
137.693 75.6177 115.608 206 220 255
148.088 111.972 107.055 255 226 202
174.669 87.0998 117.595 194 213 255
118.567 111.964 126.385 255 223 198
160.804 151.037 111.147 198 215 255
51.3715 65.6309 112.702 185 208 255
113.265 38.9991 115.612 203 219 255
110.372 104.996 101.458 255 252 246
95.0357 222.096 109.441 205 220 255
129.668 82.4209 102.751 222 230 255
55.3801 142.219 112.268 193 212 255
92.9172 126.371 120.553 255 207 168
24.9964 101.713 111.088 217 227 255
54.5878 123.556 111.473 208 221 255
49.6036 77.1 111.104 200 217 255
152.187 143.909 116.955 207 221 255
92.0487 174.146 111.933 219 229 255
52.0744 65.0613 112.568 189 210 255
128.832 139.756 109.726 255 254 251
142.349 107.292 123.166 240 240 255
174.828 106.607 117.377 227 233 255
8.15864 87.1603 108.722 187 209 255
89.4956 89.8868 105.602 235 238 255
155.286 152.596 112.573 198 215 255
5.46911 92.25 111.168 191 211 255
169.248 98.9208 111.512 184 207 255
78.2038 175.666 113.856 207 221 255
106.473 122.76 112.83 255 231 212
218.197 108.88 113.613 185 208 255
93.0045 158.384 115.243 199 216 255
159.76 75.7838 112.429 198 215 255
102.44 141.479 116.947 255 246 237
93.6794 174.901 110.752 203 219 255
118.328 78.8828 123.238 228 233 255
79.004 110.475 119.406 232 236 255
143.384 181.292 111.851 185 207 255
45.8869 170.86 110.963 194 213 255
176.142 135.866 114.874 201 218 255
198.334 63.6766 114.905 184 207 255
117.81 94.2507 121.768 228 234 255
172.678 116.64 112.046 194 213 255
159.607 97.8314 108.067 188 209 255
47.4051 106.219 111.229 219 229 255
98.7132 107.737 102.478 255 249 255
120.007 80.1443 112.814 255 246 236
131.881 58.0413 107.899 208 221 255
159.581 131.982 113.473 255 236 221
79.7934 49.8155 112.289 215 226 255
53.6605 175.51 113.348 209 222 255
160.317 177.476 111.352 193 213 255
106.03 81.2498 117.989 193 212 255
63.9424 60.5364 109.818 201 218 255
77.6287 56.835 109.014 216 226 255
94.2171 175.041 111.487 214 225 255
39.6408 127.456 114.174 187 209 255
100.806 179.59 111.282 182 206 255
104.229 115.425 94.7852 255 247 238
79.4127 124.578 106.066 255 223 197
30.8724 92.935 111.606 203 219 255
118.047 86.8935 104.764 228 234 255
129.554 61.7749 112.667 230 235 255
130.477 137 118.926 230 235 255
114.276 89.2696 125.365 235 238 255
93.7434 77.3203 109.423 203 219 255
112.311 70.5406 117.92 238 239 255
170.735 104.519 112.222 240 240 255
46.9396 93.1371 112.926 199 216 255
116.722 164.272 108.783 232 236 255
104.315 117.809 101.712 255 251 245
40.669 118.102 115.847 196 214 255
160.385 106.679 107.228 230 235 255
121.679 86.6111 116.983 212 224 255
79.8329 96.2198 118.067 255 190 137
93.9444 174.54 110.92 228 233 255
87.8049 178.459 111.92 197 215 255
141.413 79.0414 111.926 233 236 255
181.714 181.918 114.351 181 205 255
72.8022 154.189 111.004 226 232 255
142.23 78.5592 114.893 246 244 255
99.1607 22.8409 111.882 221 229 255
69.3901 87.5947 107.102 207 221 255
132.923 112.159 104.247 255 214 181
96.3836 212.225 112.289 178 203 255
168.831 98.33 111.597 210 223 255
30.7583 116.102 116.418 229 234 255
178.923 118.948 113.654 204 219 255
114.245 119.793 123.116 255 240 226
174.925 150.143 113.403 215 226 255
39.5065 118.408 108.042 207 221 255
141.372 98.6758 101.684 255 184 124
175.357 69.7671 111.51 203 219 255
146.493 130.088 107.208 255 231 211
104.465 78.4055 111.535 242 241 255
95.8943 57.4194 115.041 203 219 255
90.8718 51.181 117.096 223 231 255
67.9225 139.708 111.82 198 216 255
171.895 121.665 115.016 206 220 255
79.0388 147.471 116.055 255 226 202
18.2696 122.993 113.949 196 214 255
95.2484 127.979 108.696 228 233 255
35.0472 171.508 113.627 189 210 255
113.053 153.488 105.276 196 214 255
138.065 130.564 116.381 255 143 32
127.485 161.505 119.038 195 214 255
188.292 119.424 108.903 203 218 255
96.8692 109.629 125.212 255 154 58
63.8054 95.5294 106.471 255 225 201
167.095 74.2164 112.396 211 224 255
129.923 134.064 111.67 255 219 191
169.703 60.8074 109.869 195 214 255
159.322 81.4305 112.285 202 218 255
141.91 102.517 114.896 255 234 216
77.288 205.294 109.336 179 203 255
161.631 54.7316 115.818 195 214 255
115.244 94.5403 100.657 255 240 227
188.482 125.496 114.289 203 219 255
119.179 8.77244 106.713 188 209 255
71.8638 121.768 105.22 255 226 203
93.9227 174.778 111.034 211 223 255
116.03 84.3348 121.485 199 216 255
68.7624 119.244 109.653 234 237 255
149.573 110.545 113.25 237 239 255
161.617 24.4269 113.15 206 221 255
48.012 44.9356 111.224 184 207 255
129.864 138.874 113.081 202 218 255
64.6931 132.232 115.279 230 235 255
75.4943 105.889 109.135 233 236 255
153.259 143.103 117.959 255 249 255
200.641 53.2698 117.095 190 210 255
94.8473 76.4426 106.948 255 215 184
103.879 144.444 122.281 255 239 224
105.28 118.697 126.778 228 233 255
118.97 73.9694 112.358 215 226 255
115.327 166.8 111.506 219 228 255
60.1957 151.298 112.633 214 225 255
99.4687 99.5507 106.643 225 232 255
189.238 188.991 111.52 193 212 255
93.8481 174.921 111.187 186 208 255
9.89923 150.108 113.859 206 220 255
156.553 138.628 120.346 233 237 255
123.735 182.95 115.048 187 209 255
39.8399 62.2615 111.048 199 217 255
34.0172 94.7736 113.91 188 209 255
41.3347 98.0338 110.14 192 212 255
108.203 181.578 113.304 255 255 252
17.4875 150.964 110.787 187 208 255
162.631 54.2252 115.747 192 212 255
130.949 67.9629 117.674 255 253 248
55.4194 83.8266 111.301 255 238 224
139.043 91.469 106.725 255 232 213
131.812 102.751 119.919 255 250 244
131.297 139.691 109.277 203 219 255
133.808 82.5477 113.867 250 246 255
100.859 50.2277 108.085 194 213 255
150.198 75.6488 111.27 201 217 255
31.1482 145.219 112.975 197 215 255
180.742 93.189 111.11 185 208 255
33.1728 128.526 111.254 223 231 255
66.6037 119.325 109.526 211 224 255
55.2865 110.904 111.324 213 224 255
118.514 80.5673 105.146 205 220 255
151.494 109.671 119.428 255 255 252
53.189 149.787 116.345 197 215 255
58.1253 91.3203 107.204 201 217 255
30.5155 59.1621 114.844 192 212 255
93.216 89.249 115.839 214 225 255
102.021 140.426 121.469 255 240 227
118.697 82.7777 101.382 255 231 211
95.3791 150.369 120.521 255 236 220
162.83 106.004 114.755 255 227 205
100.989 143.631 113.871 240 241 255
204.845 131.237 114.358 199 216 255
123.405 81.0938 104.447 196 214 255
95.8072 131.271 119.215 201 217 255
177.13 67.2884 115.163 184 207 255
59.7175 98.5227 108.26 217 227 255
94.8477 82.0982 116.679 227 233 255
94.0919 174.732 111.237 213 225 255
112.278 33.7177 114.67 255 234 216
100.927 207.824 114.293 202 218 255
96.8581 114.414 100.973 225 232 255
215.472 73.3701 108.795 192 212 255
189.516 97.8119 110.08 212 224 255
131.373 118.975 124.613 229 234 255
115.645 86.0711 101.853 255 249 242
120.841 73.8946 120.558 204 219 255
6.98455 129.255 112.75 192 212 255
145.089 76.7383 113.107 255 236 220
107.037 160.811 110.813 224 231 255
166.808 124.009 109.151 255 214 181
46.2816 163.031 110.811 186 208 255
168.229 165.479 111.081 242 241 255
39.0605 65.2861 112.653 208 222 255
148.29 79.6896 108.069 193 213 255
133.026 199.729 112.603 199 216 255
136.828 25.0153 111.989 183 206 255
100.81 178.333 111.138 211 224 255
148.761 63.9744 115.775 197 215 255
96.0373 90.9765 114.79 242 241 255
21.7043 135.298 114.556 194 213 255
93.489 37.9634 110.999 204 219 255
102.603 171.076 110.503 207 221 255
109.771 98.2289 122.879 228 234 255
172.813 149.417 113.055 195 214 255
20.8676 151.762 110.172 204 219 255
79.0228 58.4084 112.395 218 228 255
55.7248 110.006 107.261 216 227 255
153.709 154.586 110.712 185 208 255
162.906 133.968 114.451 219 228 255
201.87 126.992 113.247 203 219 255
90.3878 204.332 96.2841 192 212 255
80.9853 203.88 111.435 191 211 255
135.642 161.849 107.213 190 210 255
104.554 85.7297 113.154 255 249 243
73.8572 134.889 121.914 222 230 255
75.951 25.2469 111.642 191 211 255
160.803 90.5597 112.329 198 216 255
143.762 59.9143 109.379 202 218 255
194.962 124.419 110.865 187 209 255
104.17 12.907 112.709 186 208 255
131.018 109.927 109.444 255 200 155
105.695 203.721 116.897 207 221 255
123.014 104.984 126.249 208 222 255
139.717 71.4919 123.891 225 232 255
159.883 91.6262 117.724 197 215 255
118.824 73.0982 112.241 244 242 255
156.903 142.584 119.498 222 230 255
112.574 177.801 113.74 211 224 255
17.6907 108.447 112.324 199 216 255
123.98 115.593 105.473 255 227 205
39.3987 78.1585 126.375 229 234 255
82.6344 88.3714 121.555 193 212 255
63.3053 124.747 106.564 198 215 255
91.8829 88.7849 103.213 255 236 220
93.9468 109.919 116.146 222 230 255
150.306 60.6559 117.686 206 220 255
134.623 35.1286 111.353 209 222 255
136.843 34.6021 109.573 255 232 213
75.649 71.7782 113.126 217 227 255
92.5844 74.4706 112.917 192 212 255
174.898 131.046 111.887 255 247 239
135.589 189.731 114.722 192 212 255
127.202 155.322 106.024 214 225 255
119.393 208.582 108.535 190 211 255
49.3165 134.586 111.953 255 243 231
161.084 108.535 111.956 180 204 255
133.817 68.5855 110.535 204 219 255
120.787 86.3189 107.405 255 190 136
145.41 131.493 118.302 255 243 231
154.706 151.166 115.09 237 239 255
107.716 149.243 114.536 201 217 255
72.7632 115.595 103.738 232 236 255
164.568 93.7853 110.092 209 222 255
62.6761 105.586 112.788 197 215 255
118.469 5.28099 116.157 191 211 255
17.1882 142.298 114.874 197 215 255
116.213 40.1858 117.033 201 217 255
128.522 14.0965 106.84 198 216 255
94.2802 174.912 111.346 200 217 255
94.8808 74.7321 107.247 224 231 255
136.242 72.1411 116.425 189 210 255
110.281 171.783 110.571 218 228 255
32.8279 120.889 115.565 181 205 255
75.64 123.438 114.999 194 213 255
75.363 44.4983 110.967 191 211 255
82.7862 151.207 118.658 194 213 255
81.5809 85.8657 110.886 196 214 255
93.9094 137.413 114.204 239 240 255
83.6067 136.766 114.499 223 230 255
165.159 101.83 112.651 202 218 255
87.3446 128.046 105.916 192 212 255
76.0591 84.4509 115.569 207 221 255
149.098 185.188 111.541 195 214 255
50.2461 55.7456 112.003 199 216 255
87.4697 64.5681 113.766 215 226 255
60.8692 209.543 110.832 184 207 255
97.9003 117.321 110.008 255 234 216
204.909 127.316 112.096 211 224 255
163.185 159.392 113.372 203 218 255
93.9113 175.697 111.089 209 222 255
84.1908 68.71 118.979 235 238 255
155.648 126.395 106.512 242 241 255
57.2632 108.028 108.752 253 248 255
