ply
format ascii 1.0
element vertex 1341
property float x
property float y
property float z
property uchar red
property uchar green
property uchar blue
end_header
93.4657 176.033 111.206 222 230 255
82.9153 8.80573 111.053 189 210 255
115.843 143.059 118.611 255 248 241
58.3575 124.596 117.536 202 218 255
69.7704 121.472 105.551 215 226 255
140.353 70.9347 113.413 197 215 255
175.94 102.641 105.778 192 212 255
134.871 155.027 111.198 241 241 255
39.121 117.664 113.856 189 210 255
127.158 18.7724 111.593 194 213 255
167.724 181.42 112.899 192 212 255
123.802 187.378 112.064 219 228 255
143.23 55.1473 109.326 255 213 179
74.7755 75.822 115.677 205 220 255
59.9271 115.455 113.864 255 251 246
62.3604 134.022 114.02 255 250 244
125.793 86.1794 125.017 255 201 157
134.639 107.75 104.429 230 235 255
100.938 116.541 106.783 255 248 240
185.206 70.8421 115.561 202 218 255
102.91 88.7357 116.549 217 227 255
145.519 159.661 115.731 202 218 255
126.844 127.896 106.521 255 230 211
120.774 130.294 111.525 216 226 255
122.819 114.842 106.563 246 244 255
99.2933 100.624 105.986 204 219 255
64.4746 45.9248 111.053 231 236 255
96.0712 139.279 107.4 220 229 255
93.0193 154.924 112.717 211 224 255
51.8235 121.436 113.249 200 217 255
55.0028 62.3927 112.556 200 217 255
150.87 143.064 119.535 225 232 255
96.9195 21.912 112.656 192 212 255
105.034 106.68 130.309 238 239 255
120.881 122.771 110.079 255 246 237
94.3529 63.1844 112.094 194 213 255
68.4068 151.058 119.548 204 219 255
174.933 135.453 111.674 217 227 255
112.192 99.361 116.97 232 236 255
40.5463 116.669 115.5 182 206 255
21.0207 109.854 114.1 212 224 255
90.4419 151.133 122.623 222 230 255
71.0806 161.932 108.222 189 210 255
159.603 64.2648 115.988 221 229 255
135.86 156.989 110.706 208 222 255
148.92 161.565 115.671 197 215 255
118.141 73.557 105.359 233 237 255
215.738 122.463 113.976 183 206 255
101.994 75.0888 105.588 255 238 223
156.965 131.497 121.087 194 213 255
78.0958 212.835 111.103 190 211 255
93.6313 175.664 111.156 199 216 255
122.651 118.002 108.935 229 234 255
106.639 84.8799 102.062 255 249 255
136.091 76.898 114.528 207 221 255
125.536 124.156 100.911 255 143 31
133.149 92.3578 104.84 219 228 255
83.3797 59.2281 108.85 211 224 255
157.577 45.7263 114.809 196 215 255
151.208 116.398 108.674 245 243 255
96.1106 101.753 110.517 232 236 255
91.9905 92.45 100.543 246 244 255
89.8227 105.343 112.581 209 222 255
204.365 80.1074 112.954 196 214 255
159.86 176.027 112.239 211 223 255
171.802 183.556 110.308 200 217 255
100.793 80.473 110.595 207 221 255
91.0193 115.292 113.144 255 219 190
127.168 122.581 112.963 214 225 255
86.589 131.921 109.319 221 230 255
54.4118 110.076 112.943 216 226 255
12.668 144.158 112.364 181 205 255
124.825 139.761 111.392 201 217 255
8.61462 113.504 111.197 174 201 255
82.4261 150.784 116.853 241 241 255
153.551 195.446 110.134 213 225 255
142.744 68.3745 109.051 212 224 255
115.169 120.151 120.47 255 250 244
45.7524 104.732 112.752 198 216 255
93.5686 175.494 110.927 226 232 255
125.048 161.286 112.098 220 229 255
93.5627 175.524 110.974 187 209 255
173.554 166.089 111.088 207 221 255
114.643 103.559 118.674 237 239 255
145.614 69.8228 112.413 255 245 235
67.4296 73.0338 118.842 210 223 255
31.9689 51.7655 113.949 197 215 255
77.6545 213.949 112.512 190 211 255
115.159 123.019 97.4367 255 209 172
140.971 108.118 124.561 194 213 255
114.918 126.281 126.184 253 248 255
79.5342 51.4249 109.453 194 213 255
155.203 85.2867 114.725 255 225 201
111.653 103.683 122.985 255 223 198
59.0117 119.459 112.4 217 227 255
66.788 141.554 108.91 255 249 255
186.959 163.235 114.427 210 223 255
127.211 107.983 113.564 220 229 255
102.557 145.29 121.672 211 223 255
72.5792 97.021 109.232 255 159 70
126.989 140.213 114.974 255 178 111
133.905 115.262 115.069 255 237 222
123.152 106.551 102.037 255 247 239
18.6805 152.139 113.141 189 210 255
187.62 148.851 111.194 186 208 255
25.6592 131.234 110.917 199 216 255
78.1984 170.166 115.483 202 218 255
128.623 161.964 114.154 210 223 255
105.705 100.59 128.245 235 237 255
119.553 65.0761 113.456 230 235 255
98.2742 91.8248 118.029 255 234 217
137.924 143.523 114.79 240 240 255
130.502 130.96 111.253 222 230 255
132.101 79.2369 108.783 218 228 255
40.6696 46.0793 98.9288 218 228 255
210.295 155.154 113.592 206 220 255
124.221 106.43 116.471 255 138 19
100.934 97.2233 112.825 216 227 255
190.409 51.0515 111.6 194 213 255
105.711 157.348 112.172 255 220 192
80.0258 168.309 113.026 216 226 255
71.2852 143.593 119.098 238 239 255
47.21 93.5874 113.321 191 211 255
118.716 65.2339 121.339 255 244 233
117.065 111.263 122.823 255 236 220
149.431 201.16 113.472 199 216 255
98.0911 95.7332 118.625 224 231 255
41.8643 85.7215 113.607 201 218 255
102.699 215.124 107.189 194 213 255
179.75 91.5258 109.571 197 215 255
122.516 157.215 112.925 255 253 248
140.924 93.3109 114.637 222 230 255
222.049 112.319 110.067 183 206 255
58.9735 175.791 110.579 230 235 255
117.77 124.943 111.042 255 207 169
175.52 26.1061 115.051 177 202 255
28.2989 106.979 115.163 208 222 255
65.9241 67.5922 116.247 213 225 255
46.7889 107.014 110.454 184 207 255
110.152 153.842 105.456 242 241 255
124.93 74.4739 111.911 237 239 255
171.138 141.641 112.367 255 223 197
131.913 75.8659 107.406 218 228 255
44.8788 126.387 113.955 183 206 255
119.416 49.4577 109.113 187 209 255
31.8132 167.474 116.161 210 223 255
194.461 59.091 112.253 188 209 255
155.706 114.345 112.572 208 222 255
93.8191 175.949 110.912 190 211 255
147.351 127.008 118.017 255 219 191
168.235 155.076 118.19 203 219 255
103.697 86.0015 123.917 215 226 255
48.5171 80.2537 114.395 201 218 255
131.818 86.8941 103.807 255 181 119
121.533 188.337 109.239 183 206 255
117.856 109.314 124.96 255 243 232
107.817 156.084 106.281 203 218 255
113.667 109.701 124.888 222 230 255
180.869 102.134 115.445 213 224 255
126.145 86.3532 117.302 200 217 255
140.55 143.609 119.565 200 217 255
97.5682 131.318 102.283 228 234 255
119.898 103.816 99.2737 205 220 255
105.099 38.3428 111.087 255 245 236
165.814 81.5919 114.045 255 254 251
57.3045 80.9137 117.28 191 212 255
51.5171 140.515 114.137 189 210 255
59.8167 125.813 109.279 224 231 255
96.3258 130.588 104.655 255 240 226
68.4049 51.8779 114.728 202 218 255
87.0911 115.538 123.044 207 221 255
48.6253 155.286 115.814 229 234 255
120.952 79.0464 119.071 199 216 255
122.534 111.69 118.145 255 240 226
170.036 17.5971 111.906 195 214 255
149.953 86.9139 110.754 204 219 255
197.326 108.605 108.941 184 207 255
65.822 103.901 112 255 234 217
147.072 50.5679 110.074 204 220 255
122.408 66.1583 117.454 255 221 194
71.5351 75.0132 109.401 221 229 255
101.363 68.602 114.003 220 229 255
93.1868 173.266 108.753 198 215 255
92.7855 109.459 118.333 251 247 255
157.407 178.421 112.829 177 202 255
62.8441 43.7003 111.495 192 212 255
40.0606 157.872 113.135 222 230 255
48.6353 100.672 111.79 220 229 255
60.9032 155.369 109.578 197 215 255
57.521 122.134 112.163 214 225 255
83.4543 98.134 119.086 240 241 255
132.718 132.485 122.916 255 223 198
185.806 174.452 111.528 207 221 255
203.215 52.4706 111.537 189 210 255
116.806 103.611 114.829 236 238 255
129.432 62.991 110.102 225 232 255
58.6705 125.691 111.525 217 227 255
98.4528 104.936 121.061 216 226 255
179.736 109.246 112.381 237 239 255
111.981 103.094 128.505 234 237 255
18.9597 135.648 109.594 195 214 255
116.847 116.265 120.326 255 250 255
189.479 182.586 113.868 209 222 255
115.265 117.617 97.387 255 -2147483648 0
134.108 215.499 108.834 186 208 255
106.659 83.971 111.741 219 228 255
45.1386 132.722 116.203 189 210 255
121.732 114.899 121.422 255 226 203
148.966 140.353 118.083 213 225 255
104.819 109.129 104.924 220 229 255
147.562 160.422 110.222 202 218 255
66.5846 65.4644 117.389 211 223 255
125.122 171.715 114.067 224 231 255
129.687 110.9 121.695 255 255 252
101.587 66.6384 116.067 194 213 255
131.646 88.5948 104.15 212 224 255
105.144 60.0767 109.535 255 253 249
92.4681 145.786 113.104 239 240 255
111.895 116.766 122.645 255 232 214
65.3502 43.6073 111.918 192 212 255
75.7342 125.913 106.517 203 219 255
73.149 127.419 106.935 224 231 255
89.7839 109.635 122.374 249 246 255
96.2128 128.879 104.648 255 248 241
147.442 97.4722 106.854 203 219 255
162.164 146.872 111.505 206 221 255
51.7754 117.006 111.571 195 214 255
68.2829 28.3494 113.95 204 219 255
104.85 141.464 108.327 255 247 238
146.116 159.804 108.43 213 225 255
145.041 157.658 116.899 208 222 255
52.9671 123.639 111.964 242 241 255
151.507 213.789 114.056 184 207 255
134.322 71.3813 111.984 207 221 255
115.234 127.65 112.852 241 241 255
85.866 34.6799 109.254 204 219 255
10.32 148.174 112.717 205 220 255
140.703 88.8504 116.249 212 224 255
44.9027 81.2149 113.456 217 227 255
150.803 152.594 108.846 232 236 255
150.237 152.053 110.492 189 210 255
126.957 48.4427 110.647 201 218 255
92.1582 91.5419 104.636 255 161 74
153.311 177.681 112.524 193 212 255
111.35 16.3107 112.233 180 205 255
151.825 172.595 113.653 197 215 255
151.434 147.03 106.664 255 202 159
131.92 157.039 117.562 240 240 255
71.6323 64.6531 111.176 255 249 242
109.715 66.2914 119.755 209 222 255
148.744 118.433 120.903 202 218 255
112.507 97.1 110.02 255 242 230
51.9951 104.689 111.527 182 205 255
70.8803 118.877 103.526 199 216 255
51.3116 123.241 115.533 195 214 255
89.014 65.3641 118.844 196 214 255
97.4496 13.6141 111.583 182 206 255
204.739 121.525 113.918 202 218 255
132.194 122.958 105.759 255 237 223
180.277 96.6111 114.466 190 211 255
108.023 161.174 111.819 216 226 255
34.4581 77.0261 111.843 186 208 255
219.658 112.058 115.25 181 205 255
118.827 83.9669 121.224 255 190 136
100.246 47.1152 115.123 189 210 255
144.022 23.5307 113.781 194 213 255
65.7388 17.3202 110.731 204 219 255
95.3587 125.8 102.596 207 221 255
124.76 111.57 126.244 255 254 251
115.06 120.131 105.068 211 224 255
164.082 145.913 117.865 198 216 255
88.739 179.608 112.318 195 213 255
113.349 122.158 102.328 225 232 255
34.0714 108.082 111.468 203 219 255
161.723 154.317 113.901 214 226 255
132.363 112.649 110.668 255 98 0
14.2781 85.3593 115.039 210 223 255
113.979 124.379 113.085 216 227 255
62.4633 74.7562 116.708 204 219 255
79.6753 151.878 118.491 208 221 255
66.1646 126.069 114.863 200 217 255
205.468 148.436 112.606 196 214 255
173.245 113.674 110.616 192 212 255
186.206 159.028 115.08 204 219 255
90.9341 111.404 122.792 255 248 240
10.2088 73.3997 112.315 198 215 255
47.3758 131.363 113.917 216 226 255
126.314 39.4298 115.209 213 225 255
44.8433 125.482 108.897 194 213 255
95.6987 90.1254 105.623 255 249 255
141.622 84.3144 116.177 215 226 255
113.346 128.049 107.043 221 230 255
78.8256 62.2008 115.359 255 225 201
78.4838 124.248 120.924 230 235 255
73.2693 89.5791 120.006 255 250 255
209.199 158.339 111.931 179 204 255
200.842 155.26 114.129 194 213 255
112.916 69.8608 111.974 220 229 255
13.346 141.002 112.864 188 210 255
88.2182 159.387 115.529 209 222 255
55.9072 113.919 110.596 191 211 255
184.513 30.4515 112.308 198 215 255
140.947 102.308 101.728 204 219 255
84.4574 161.051 117.007 218 228 255
121.63 8.08291 113.075 199 216 255
96.8123 108.003 109.578 255 205 165
156.968 111.734 109.487 212 224 255
78.5335 36.4078 112.778 195 214 255
166.719 167.771 114.395 199 216 255
86.4056 77.1172 111.212 207 221 255
93.8861 170.053 112.635 255 243 232
87.4911 132.877 113.501 197 215 255
127.922 116.082 120.304 255 244 234
128.847 157.767 115.196 255 242 230
163.867 95.4967 114.63 199 216 255
161.038 197.316 111.771 193 213 255
41.0799 86.6416 119.163 196 214 255
104.521 163.309 112.337 195 213 255
73.3713 87.5388 112.526 199 216 255
87.2902 45.184 116.055 189 210 255
93.5715 175.576 111.111 226 232 255
51.4536 96.386 111.142 197 215 255
53.6697 94.5763 109.652 199 216 255
131.861 60.595 111.837 206 220 255
105.623 140.526 116.891 237 239 255
94.3421 175.213 111.449 232 236 255
43.0155 134.433 111.38 215 226 255
90.7503 138.924 119.955 244 243 255
139.182 106.42 108.474 231 235 255
96.6792 80.9831 112.585 224 231 255
59.0596 90.4193 106.789 205 220 255
139.652 171.889 107.107 213 225 255
83.71 119.778 114.317 217 227 255
139.647 68.8037 118.347 255 238 223
42.5381 27.9842 109.689 192 212 255
94.0799 175.463 112.214 229 234 255
93.6003 175.573 111.001 255 240 227
100.631 77.922 106.667 209 222 255
105.615 137.885 106.68 255 179 114
173.898 65.3676 110.719 203 219 255
48.0164 106.166 116.032 224 231 255
86.447 125.109 105.395 243 242 255
102.071 75.8808 109.296 194 213 255
141.084 94.667 113.474 208 222 255
126.045 34.1384 114.616 195 214 255
57.0755 91.6661 114.126 191 211 255
197.128 93.3391 111.128 195 214 255
100.056 160.012 109.218 255 218 189
113.634 126.684 107.664 214 225 255
62.7374 118.725 112.646 222 230 255
116.848 116.867 125.096 255 216 185
39.333 46.2982 111.615 184 207 255
123.412 189.665 112.19 184 207 255
121.134 49.0337 114.691 199 216 255
43.2736 50.9896 109.147 182 206 255
107.905 65.6907 108.163 255 240 226
123.793 150.997 106.108 210 223 255
84.0274 107.863 108.494 255 243 232
75.568 128.537 109.415 197 215 255
78.1403 129.234 114.046 250 246 255
47.7217 152.7 114.831 186 208 255
46.1979 119.326 109.494 204 219 255
84.2016 141.543 113.958 210 223 255
105.145 46.3336 109.182 202 218 255
102.504 129.347 111.385 255 215 184
88.4545 117.513 114.21 255 250 244
22.9744 142.708 115.172 206 220 255
48.8 160.205 112.84 203 219 255
99.1028 110.352 125.299 255 197 151
113.669 66.8233 112.17 255 194 145
93.5654 175.213 110.051 237 239 255
148.065 91.8172 106.523 216 226 255
107.893 78.3733 113.608 202 218 255
93.2226 174.926 110.227 210 223 255
52.8722 138.119 109.448 212 224 255
60.1224 109.775 114.875 217 227 255
116.47 139.978 114.485 255 246 237
162.114 83.1609 116.971 227 233 255
133.25 58.6127 116.927 213 225 255
105.589 218.537 104.398 198 216 255
74.236 144.587 111.478 194 213 255
123.202 108.063 117.849 255 216 185
128.684 129.637 109.154 255 246 237
111.122 103.564 100.734 255 234 217
83.5276 147.868 110.971 231 235 255
123.362 114.024 123.875 255 250 255
125.184 147.84 108.526 255 243 231
16.3116 134.642 112.137 185 208 255
169.15 13.8755 112.898 181 205 255
107.918 113.524 102.973 255 239 225
82.4811 156.923 115.307 207 221 255
39.9587 118.068 109.514 217 227 255
196.055 50.4244 113.453 203 219 255
49.3134 145.785 110.924 210 223 255
67.0654 139.43 111.186 197 215 255
80.6765 23.1985 111.238 190 211 255
171.047 150.509 111.928 212 224 255
151.04 25.0338 109.791 191 211 255
169.424 22.1222 114.662 194 213 255
107.783 70.2302 117.212 206 220 255
78.1134 31.9879 111.691 203 219 255
149.493 134.914 121.1 227 233 255
120.272 121.17 126.475 247 244 255
94.1059 172.991 112.385 193 213 255
174.691 30.2795 114.257 208 222 255
93.163 175.649 111.113 209 222 255
125.078 89.573 103.42 228 234 255
116.275 95.2199 112.111 225 232 255
56.471 103.19 116.464 187 209 255
25.1266 118.899 115.911 193 212 255
74.4669 223.623 103.798 181 205 255
105.696 80.8211 114.074 227 233 255
163.334 46.345 113.853 193 212 255
115.043 125.642 122.643 224 231 255
116.833 99.8557 126.751 217 227 255
86.8114 89.5358 113.485 227 233 255
113.248 126.829 107.415 255 233 215
113.455 74.2017 111.801 222 230 255
146.983 132.093 121.938 255 250 255
89.0802 120.078 102.89 209 222 255
105.439 105.402 116.112 229 234 255
151.12 83.0228 113.052 200 217 255
126.487 80.1957 110.512 255 218 189
61.309 74.0771 109.857 222 230 255
117.823 96.437 110.095 212 224 255
96.762 105.694 106.196 225 232 255
110.781 144.141 99.024 206 221 255
93.0539 175.185 110.367 207 221 255
137.104 58.6907 111.344 184 207 255
59.1633 171.263 109.003 196 215 255
75.9355 56.1089 114.198 204 219 255
131.82 124.911 109.183 231 235 255
199.137 151.436 112.832 211 224 255
176.268 89.1417 112.333 255 251 245
154.434 109.207 110.264 226 233 255
110.7 140.285 122.519 255 221 193
92.5859 60.2123 113.809 255 245 236
99.8608 174.163 110.341 196 214 255
123.705 76.1981 110.73 255 252 247
94.859 138.86 111.535 255 205 164
71.5263 28.4052 109.151 187 209 255
83.6625 44.8549 110.774 195 213 255
92.9746 175.452 110.77 205 220 255
117.885 104.118 114.688 234 237 255
93.8433 176.082 111.194 196 214 255
135.586 85.9181 116.846 255 254 250
122.013 186.479 113.678 236 238 255
129.401 199.172 111.526 194 213 255
109.215 123.685 112.095 255 221 193
66.6679 90.3475 104.552 255 244 233
122.246 120.353 121.475 255 226 202
64.7351 90.8811 113.142 206 220 255
125.71 95.6698 123.17 255 254 250
128.559 125.445 117.552 255 219 191
103.352 89.0418 108.027 231 235 255
104.562 62.5669 121.101 185 208 255
176.558 111.206 112.58 195 214 255
157.788 121.389 107.536 224 231 255
149.27 9.75848 112.275 181 205 255
114.195 83.0385 107.249 218 228 255
18.7144 166.165 116.208 184 207 255
135.605 146.385 121.319 255 221 195
91.0231 92.5819 111.624 255 251 245
69.9841 126.205 117.681 214 225 255
118.682 89.1775 100.67 214 225 255
102.408 117.667 111.308 255 177 110
104.469 112.156 131.376 255 224 200
49.1219 55.2647 113.617 202 218 255
183.442 38.2386 113.852 184 207 255
19.5632 55.4901 111.116 188 209 255
172.603 114.59 111.316 190 211 255
162.605 96.5564 115.221 222 230 255
105.799 131.885 110.72 209 222 255
131.258 98.9939 107.178 208 222 255
88.6782 23.954 107.129 205 220 255
71.3321 106.401 118.245 246 244 255
174.28 186.539 115.711 193 213 255
62.5308 33.4985 111.477 197 215 255
102.836 107.51 111.232 255 127 0
98.3488 131.543 115.799 255 254 250
106.314 109.497 97.6021 255 253 248
111.469 145.322 118.318 255 237 221
111.665 62.3894 120.232 255 219 191
118.442 163.232 107.792 204 220 255
115.324 202.892 105.768 188 209 255
109.751 141.504 104.195 236 238 255
112.811 115.103 102.595 255 213 180
59.9171 205.771 108.894 190 211 255
103.33 114.767 104.996 255 201 157
206.501 154.706 115.044 205 220 255
90.7496 104.946 126.115 225 232 255
164.537 121.112 117.931 221 230 255
182.297 106.314 112.027 200 217 255
133.647 85.8736 112.742 223 230 255
216.628 71.5761 110.813 175 201 255
99.9842 102.727 121.915 228 233 255
142.634 142.794 119.163 227 233 255
109.315 73.8235 122.188 214 225 255
115.998 173.387 113.567 197 215 255
152.259 190.127 103.614 200 217 255
130.429 169.477 113.693 198 216 255
151.108 135.655 108.059 199 216 255
205.864 167.589 111.74 194 213 255
22.7084 75.6133 111.449 255 252 247
132.111 153.992 117.847 244 243 255
126.031 117.917 110.704 225 232 255
126.18 122.741 107.048 255 249 242
139.048 132.598 102.548 215 226 255
174.86 85.2989 117.393 186 208 255
42.2018 106.985 115.165 241 241 255
168.769 90.4289 114.9 209 222 255
74.3216 64.4601 110.201 199 216 255
68.567 170.321 109.353 211 223 255
66.6826 46.3379 110.464 195 214 255
93.5314 175.274 111.059 192 212 255
103.201 126.557 119.25 255 233 214
177.443 146.176 113.972 202 218 255
54.4091 203.049 113.132 180 204 255
123.837 136.382 112.546 255 251 246
163.716 37.2419 111.403 201 217 255
80.3005 114.528 106.577 249 246 255
80.9357 76.4677 105.431 216 227 255
110.583 103.579 126.687 237 239 255
137.113 200.938 107.683 186 208 255
64.3451 111.623 118.713 207 221 255
78.825 104.569 105.703 207 221 255
110.635 76.1692 112.507 233 236 255
92.3543 102.595 114.947 211 223 255
201.74 126.82 112.937 200 217 255
164.13 99.7632 113.03 206 220 255
93.4517 175.407 110.712 195 214 255
141.75 80.9331 118.583 208 222 255
112.15 122.074 113.341 255 235 218
148.783 144.908 120.256 212 224 255
131.193 116.745 109.531 255 208 170
122.005 117.034 109.258 255 250 244
161.962 119.485 105.831 215 226 255
103.171 149.311 114.209 219 228 255
42.6858 82.3837 99.7178 243 242 255
118.012 111.72 102.908 234 237 255
125.213 76.6627 111.315 205 220 255
176.877 94.9564 111.203 189 210 255
80.9194 133.662 106.614 228 233 255
58.2727 87.8287 116.687 209 222 255
115.691 72.101 112.622 246 244 255
141.818 84.0464 115.031 205 220 255
53.249 116.011 106.763 253 248 255
34.67 153.338 111.388 185 208 255
131.176 134.82 114.559 255 253 249
177.792 52.7081 111.808 200 217 255
44.2248 177.659 110.911 189 210 255
167.888 166.351 110.211 201 217 255
150.659 181.501 112.756 227 233 255
131.581 90.0943 116.017 226 233 255
128.922 82.2941 121.019 255 252 246
138.274 54.7314 112.363 194 213 255
98.5862 145.323 110.905 207 221 255
184.611 74.2637 110.107 234 237 255
51.3408 95.3259 116.465 195 214 255
102.738 98.1632 113.086 229 234 255
207.909 143.327 109.16 192 212 255
112.814 107.628 128.816 225 232 255
133.095 114.105 113.974 255 240 228
185.743 58.1205 110.245 255 217 187
29.7042 41.7654 112.306 192 212 255
160.742 84.2548 111.392 194 213 255
100.767 175.134 111.238 200 217 255
137.744 61.0365 110.065 255 238 224
116.731 195.438 111.693 188 209 255
176.617 127.722 112.298 196 214 255
104.387 86.3006 114.879 205 220 255
149.102 85.9997 108.462 219 229 255
108.991 119.547 95.4783 255 202 159
108.766 71.9951 121.078 237 239 255
116.939 52.7482 110.592 210 223 255
74.8825 118.121 107.779 217 227 255
112.651 89.8527 119.237 239 240 255
87.8493 97.0882 119.865 215 226 255
5.98857 93.5804 111.479 188 210 255
136.58 83.233 110.798 255 215 184
72.5952 138.489 113.376 200 217 255
51.3865 146.188 115.836 226 232 255
54.2433 103.596 110.255 197 215 255
154.535 87.2899 116.284 207 221 255
93.649 175.661 111.228 255 241 229
93.8305 174.488 108.63 197 215 255
93.1339 83.3406 115.217 227 233 255
104.393 155.493 117.232 214 225 255
80.8262 87.2636 110.914 209 222 255
95.1923 94.6328 109.682 255 240 227
181.216 55.0444 111.987 205 220 255
200.427 80.7836 113.554 206 221 255
124.704 117.765 116.434 255 253 248
43.2593 116.76 107.653 211 224 255
108.287 117.447 121.864 219 228 255
190.614 112.391 109.449 201 217 255
162.33 138.027 108.07 200 217 255
137.646 90.5966 110.689 253 248 255
105.944 118.939 118.643 255 252 247
113.878 21.2667 110.068 184 207 255
61.6215 187.832 109.744 186 208 255
77.8274 90.2568 109.675 205 220 255
172.113 113.736 111.627 207 221 255
130.684 191.353 112.797 197 215 255
52.4703 173.482 111.158 208 222 255
126.011 216.151 112.901 195 214 255
72.7896 17.7414 112.511 194 213 255
155.109 89.2739 107.507 225 232 255
59.3594 118.186 114.959 204 219 255
160.727 149.945 114.455 233 237 255
125.986 59.5765 109.567 196 214 255
169.312 114.016 102.246 235 238 255
39.5933 124.731 114.085 193 212 255
92.3477 145.427 112.763 212 224 255
101.278 67.8315 105.211 219 228 255
161.659 87.3689 116.68 213 225 255
89.6317 148.377 120.305 238 240 255
87.5578 160.831 117.527 186 208 255
61.1833 125.322 111.386 196 215 255
92.2839 132.639 111.57 255 222 195
88.4644 165.461 112.021 197 215 255
134.664 171.393 110.883 255 233 216
101.329 154.994 118.315 213 225 255
195.559 96.4268 112.02 189 210 255
84.25 167.505 109.097 185 207 255
95.695 100.814 109.015 220 229 255
211.118 80.3507 112.874 183 206 255
103.836 101.216 106.177 220 229 255
176.81 133.281 113.977 213 225 255
100.343 90.7154 104.354 203 218 255
162.05 106.064 114.788 201 217 255
127.365 9.76942 112.192 195 214 255
112.49 91.9415 106.768 246 244 255
122.843 6.00232 109.406 189 210 255
124.766 48.0135 118.58 232 236 255
87.8592 98.9422 121.95 210 223 255
58.6502 119.161 115.808 255 245 236
155.944 178.278 109.859 245 243 255
112.818 111.297 93.7245 224 231 255
93.4036 175.437 111.734 191 211 255
118.75 165.24 112.32 217 227 255
49.7793 110.347 112.696 236 238 255
183.106 185.46 109.432 185 208 255
106.437 129.258 120.191 255 229 207
129.849 116.47 106.928 216 226 255
45.7861 87.9925 112.396 187 208 255
81.1752 122.431 106.979 202 218 255
161.824 194.28 111.801 205 220 255
100.44 107.058 123.361 189 210 255
22.1553 160.841 110.493 189 210 255
30.491 50.4909 114.876 181 205 255
59.1873 166.621 110.243 255 254 251
107.03 125.252 121.328 255 217 187
199.853 84.7175 111.586 205 220 255
130.38 135.673 116.981 255 236 220
176.521 130.583 114.072 222 230 255
82.9326 150.6 112.02 232 236 255
82.3591 155.762 114.267 211 224 255
140.175 171.972 115.394 255 252 247
72.8748 62.936 113.398 215 226 255
89.9602 85.5325 115.502 198 216 255
127.985 144.36 111.913 255 249 242
109.01 72.2276 105.785 241 241 255
77.4461 28.7475 112.44 201 217 255
203.502 55.4066 111.503 185 207 255
167.692 89.3612 109.657 204 219 255
172.187 52.6628 113.777 183 206 255
45.6964 87.8854 112.333 186 208 255
139.358 204.341 111.08 192 212 255
103.561 125.435 114.881 211 224 255
94.1867 174.139 109.079 221 230 255
92.9846 126.825 113.27 255 253 248
112.541 125.025 106.049 255 231 211
162.177 133.564 116.665 221 230 255
80.7129 145.153 112.048 202 218 255
133.575 90.8902 110.311 255 246 237
94.1611 36.0495 112.569 202 218 255
211.24 94.59 113.465 185 207 255
163.526 25.0348 113.927 186 208 255
92.3594 158.238 113.007 255 239 225
125.927 139.648 112.639 255 243 231
151.749 180.62 110.476 255 255 252
81.2869 119.015 123.99 255 227 205
138.059 81.1727 114.273 211 223 255
13.4748 129.266 113.489 192 212 255
173.971 154.962 109.793 184 207 255
92.9618 174.832 112.055 214 225 255
81.2664 142.847 118.224 215 226 255
112.93 32.1337 116.174 190 211 255
37.6497 153.143 115.136 200 217 255
93.8265 93.6027 117.733 211 224 255
58.7831 148.191 110.547 195 214 255
71.0736 17.3452 110.241 190 211 255
199.471 98.2708 110.662 185 207 255
164.867 203.128 109.917 183 206 255
189.424 97.9193 110.126 186 208 255
71.3663 82.3724 117.45 206 220 255
139.751 99.6654 113.754 216 226 255
126.178 117.022 109.886 248 245 255
93.5635 175.533 111.154 208 222 255
81.5011 215.709 109.967 200 217 255
49.1035 100.47 111.628 216 227 255
11.9509 117.055 113.266 195 214 255
120.466 86.5178 106.624 205 220 255
93.3696 175.117 111.263 195 214 255
109.61 76.1433 108.101 199 216 255
112.198 134.413 103.05 255 228 207
153.661 64.0953 112.394 191 211 255
101.428 179.798 110.28 187 209 255
76.2373 126.742 105.977 214 225 255
193.024 121.401 113.798 186 208 255
150.641 114.794 120.607 236 238 255
94.9788 96.3413 105.105 255 219 191
78.1332 161.868 116.206 201 218 255
153.63 107.559 109.735 187 209 255
77.1048 69.0857 113.051 208 222 255
116.438 142.929 111.444 255 217 187
85.5298 141.202 121.52 255 219 190
91.5204 53.613 108.952 213 225 255
22.2539 133.398 111.594 184 207 255
111.867 184.579 109.93 191 211 255
105.965 80.1058 121.164 210 223 255
70.1291 121.792 107.641 212 224 255
85.1193 98.7464 108.799 218 228 255
153.12 113.691 107.775 224 231 255
132.404 19.6463 112.341 212 224 255
88.4466 81.7944 122.07 218 228 255
106.726 116.66 125.976 212 224 255
63.804 38.5476 112.408 190 210 255
161.567 102.115 119.157 239 240 255
102.254 167.712 112.317 213 225 255
90.4573 80.5452 122.439 221 230 255
51.4074 57.3518 110.335 232 236 255
146.181 45.9327 113.954 202 218 255
119.53 158.019 117.676 212 224 255
56.6373 63.5032 108.616 191 211 255
74.5728 114.882 123.196 203 219 255
121.866 114.079 122.375 215 226 255
82.9714 49.088 117.553 255 251 246
157.325 118.392 118.745 198 216 255
145.683 75.8374 110.879 225 232 255
73.12 216.732 107.578 176 202 255
108.263 50.8593 111.507 210 223 255
93.6147 175.442 111.401 210 223 255
93.2436 175.561 110.943 223 231 255
159.497 170.723 102.498 195 214 255
114.899 145.289 106.642 230 235 255
107.754 44.7351 115.823 181 205 255
64.1845 46.6324 111.386 201 217 255
88.9784 164.133 114.975 255 254 250
141.512 161.385 111.606 206 221 255
57.1095 19.811 109.601 188 209 255
90.6227 145.646 117.186 238 239 255
173.077 120.448 111.992 218 228 255
69.7009 110.464 103.743 255 244 233
162.074 89.8434 106.884 208 222 255
19.4843 96.8807 111.75 200 217 255
121.073 101.04 123.882 255 233 215
95.3712 120.706 120.699 211 223 255
101.816 115.162 110.958 255 186 129
100.526 127.209 115.745 255 233 215
103.086 75.2075 115.444 235 238 255
113.737 125.653 122.857 255 245 236
165.903 98.1635 110.259 236 238 255
136.63 63.5935 108.623 225 232 255
114.438 120.659 98.9644 255 251 245
212.009 155.606 112.339 183 206 255
93.6001 175.534 111.163 202 218 255
85.954 167.656 112.996 184 207 255
93.6406 175.799 111.409 255 226 202
75.2284 150.916 109.244 217 227 255
144.519 98.0209 116.151 216 226 255
103.707 18.3499 107.787 196 214 255
20.902 53.2622 112.705 194 213 255
168.399 74.878 114.466 187 209 255
149.339 143.685 105.971 216 227 255
67.4215 138.949 112.472 215 226 255
167.567 164.836 110.821 185 208 255
86.8175 81.2846 114.547 200 217 255
107.45 104.613 120.884 253 248 255
74.7602 94.9352 108.355 255 163 80
121.733 100.563 109.909 255 251 245
129.059 110.734 107.459 255 157 66
155.677 131.494 105.929 223 230 255
63.8943 120.506 106.877 228 234 255
135.436 61.5761 112.568 202 218 255
93.665 175.706 111.243 197 215 255
74.0769 153.099 117.382 194 213 255
114.016 105.699 129.118 219 228 255
53.4437 205.577 112.982 199 216 255
99.799 174.664 110.537 197 215 255
111.68 100.604 122.258 232 236 255
129.82 116.574 102.679 255 241 229
69.6205 97.7116 117.747 227 233 255
71.5337 201.635 112.603 186 208 255
104.743 105.559 108.91 255 247 238
64.1722 88.0634 108.126 255 254 250
88.0505 119.674 102.659 255 233 215
112.999 119.598 108.049 206 220 255
165.602 158.75 115.571 193 212 255
160.475 112.881 113.836 195 214 255
83.3007 62.9915 114.855 228 234 255
166.21 101.653 114.527 206 221 255
114.882 108.686 120.547 255 221 194
183.002 64.1574 110.385 183 206 255
70.5958 174.508 111.063 203 219 255
150.615 67.4222 115.028 196 214 255
146.832 118.587 111.145 255 228 206
152.551 122.396 103.849 225 232 255
94.1673 148.915 105.772 255 200 156
60.9721 61.5583 110.344 196 214 255
80.3326 79.4274 106.513 189 210 255
122.757 118.822 100.062 255 226 204
98.1807 113.992 108.911 255 225 200
82.1623 143.504 114.272 236 238 255
214.204 146.525 114.55 201 217 255
65.8138 107.039 113.551 192 212 255
145.417 115.783 121.9 255 245 235
102.025 118.531 102.419 255 250 243
52.9572 70.9234 112.968 189 210 255
154.865 171.564 110.685 255 253 249
121.977 125.666 107.341 242 242 255
79.3806 102.823 116.294 255 254 250
136.363 171.298 112.721 212 224 255
50.9465 130.203 110.13 194 213 255
164.517 120.803 109.796 205 220 255
213.57 133.448 110.866 183 206 255
164.073 97.3074 113.837 193 213 255
13.4794 82.6779 112.628 200 217 255
52.536 88.3263 124.671 255 239 225
139.467 130.354 118.633 242 242 255
22.5979 83.6144 112.167 189 210 255
106.86 207.884 107.501 181 205 255
72.5535 111.028 120.351 210 223 255
106.853 68.5847 107.856 207 221 255
138.383 46.629 109.994 185 207 255
108.323 133.988 107.782 238 240 255
6.09388 112.897 113.1 183 206 255
107.05 117.323 131.254 223 231 255
90.452 92.7546 115.309 255 246 237
67.23 115.188 118.737 208 222 255
28.0939 79.0551 111.761 184 207 255
162.188 56.0733 109.087 218 228 255
168.653 61.1572 110.269 197 215 255
151.78 139.682 114.896 205 220 255
79.3525 181.927 113.554 201 217 255
172.961 98.335 109.553 226 232 255
179.316 94.8905 114.014 191 211 255
61.9415 68.2839 110.633 187 209 255
129.799 65.4226 115.237 186 208 255
57.0977 155.32 115.088 207 221 255
107.303 86.759 122.716 196 214 255
194.582 138.811 111.713 191 211 255
85.0582 22.4902 113.375 195 214 255
161.744 87.5911 108.873 196 214 255
93.4747 175.502 110.692 221 229 255
130.472 210.309 110.835 197 215 255
87.5525 112.701 122.888 204 219 255
165.551 122.658 106.529 199 216 255
147.664 69.4264 112.129 255 217 186
157.091 95.7316 107.592 198 216 255
134.296 80.9097 109.957 255 251 246
132.987 118.703 114.774 209 223 255
43.9465 70.4771 109.771 199 216 255
142.11 146.453 115.635 198 215 255
93.5779 175.551 111.038 218 228 255
155.481 154.673 118.158 244 243 255
134.436 139.25 109.905 200 217 255
135.532 59.3357 116.044 206 220 255
146.365 111.076 116.56 255 236 220
104.115 105.369 96.0154 255 149 47
128.035 54.769 112.79 194 213 255
83.0821 92.3676 119.379 201 218 255
166.611 81.9356 110.953 238 239 255
184.975 134.524 111.427 211 223 255
133.846 29.7484 111.169 202 218 255
107.303 77.7892 112.706 243 242 255
93.3563 64.7555 118.936 217 227 255
167.596 161.503 110.617 202 218 255
83.4331 119.598 123.129 226 232 255
198.775 37.7719 109.477 193 213 255
140.009 116.415 100.618 255 242 229
108.246 140.491 102.008 226 232 255
33.3796 107.402 115.261 195 213 255
187.205 126.117 113.022 209 223 255
103.305 109.616 122.075 255 179 113
93.5516 175.517 110.964 229 234 255
149.331 76.5619 114.551 230 235 255
148.135 94.5089 114.814 197 215 255
152.958 67.4895 115.266 214 225 255
65.1348 78.9189 110.774 235 238 255
167.791 96.5184 108.633 214 225 255
74.1304 125.071 112.035 255 131 0
137.82 124.914 122.393 255 214 182
110.006 79.8413 119.44 255 222 196
149.149 97.7814 108.547 216 227 255
69.6362 52.2783 106.167 211 223 255
103.576 148.015 103.127 255 225 200
98.6031 134.715 102.367 230 235 255
144.367 121.762 106.878 241 241 255
101.052 175.01 111.058 197 215 255
107.798 133.036 106.315 208 221 255
29.8576 120.746 116.329 190 210 255
136.23 116.644 109.943 234 237 255
57.9227 128.031 112.342 214 225 255
145.529 134.004 122.994 255 243 233
181.822 107.33 114.335 193 212 255
106.389 82.8102 119.536 230 235 255
164.956 116.084 114.115 218 228 255
75.3076 200.325 111.972 183 206 255
112.482 89.4813 109.158 225 232 255
168.68 125.157 106.468 201 218 255
48.5585 122.878 108.723 255 249 243
115.577 22.086 113.789 196 214 255
93.1726 135.673 118.244 223 230 255
196.14 55.0477 112.85 197 215 255
105.316 114.642 98.2522 224 231 255
116.624 146.453 104.841 204 219 255
42.3574 114.687 114.769 196 214 255
58.0545 138.623 113.394 213 224 255
116.868 73.5532 109.414 198 215 255
101.219 121.26 106.118 226 232 255
99.7632 158.65 118.362 203 219 255
96.8368 102.671 105.455 255 252 246
136.46 104.426 121.275 255 244 234
71.0512 112.762 118.977 207 221 255
173.393 149.47 110.934 195 214 255
17.2833 163.881 114.448 189 210 255
111.101 215.552 116.618 196 215 255
109.86 77.4661 108.974 255 224 199
93.3735 175.798 109.691 208 222 255
150.947 48.2137 111.393 204 220 255
127.067 36.239 110.579 210 223 255
93.631 175.558 111 209 222 255
116.693 134.36 104.53 245 243 255
85.4553 61.9205 115.587 185 208 255
166.884 90.0558 110.602 232 236 255
83.5185 145.697 117.267 239 240 255
118.673 171.756 108.57 232 236 255
123.407 196.946 112.882 192 212 255
126.272 211.109 112.379 192 212 255
166.136 28.3772 114.213 195 214 255
144.152 49.921 107.531 240 240 255
98.4065 101.9 110.538 215 226 255
166.742 100.369 111.979 207 221 255
61.8246 136.538 112.249 230 235 255
210.141 130.512 114.254 174 200 255
120.383 17.0747 112.072 180 204 255
189.235 54.1426 112.956 214 226 255
120.079 140.552 120.069 255 238 223
121.714 110.609 103.128 255 214 181
116.515 97.8001 109.155 250 246 255
145.706 64.5534 118.472 190 211 255
93.6086 175.602 111.203 233 236 255
103.611 82.0299 112.964 255 248 241
66.3853 42.2089 107.056 255 232 214
129.36 62.2386 111.563 227 233 255
88.7269 73.3916 111.22 212 224 255
106.811 104.295 104.722 255 220 193
151.627 209.42 111.803 212 224 255
138.763 73.1355 121.376 228 234 255
101.451 161.35 114.216 255 188 133
167.362 202.614 113.68 190 211 255
119.702 102.969 102.605 255 227 204
95.8207 157.792 111.006 255 244 233
118.451 124.403 104.677 213 225 255
172.434 51.0793 110.919 186 208 255
123.814 118.62 104.416 220 229 255
139.81 180.82 109.937 233 237 255
144.863 100.234 109.001 201 218 255
63.7057 49.534 112.008 224 231 255
151.681 138.392 105.872 228 234 255
133.082 57.3084 120.071 196 214 255
144.256 101.374 106.304 190 211 255
114.738 102.433 114.031 214 225 255
189.669 140.03 109.358 185 208 255
103.199 165.814 114.996 193 212 255
150.721 153.401 116.265 198 216 255
136.962 65.6237 108.419 255 248 240
151.646 106.738 106.729 222 230 255
81.4842 90.5097 119.626 255 240 226
102.021 122.612 116.221 255 248 241
143.111 76.0606 113.736 216 226 255
142.463 131.569 113.319 216 226 255
97.7462 166.192 113.901 203 218 255
188.308 135.882 112.81 192 212 255
62.6404 42.9305 110.187 231 235 255
113.088 162.444 114.453 255 253 249
122 137.1 105.029 226 233 255
48.39 90.9663 110.62 193 213 255
151.737 91.108 108.369 228 234 255
193.99 96.6757 109.758 198 216 255
112.994 130.463 113.185 211 224 255
173.49 70.8132 113.766 200 217 255
125.287 112.546 114.932 255 250 243
126.365 45.5052 108.987 240 241 255
93.8774 126.443 115.105 243 242 255
175.249 129.204 111.098 190 211 255
98.4678 93.9245 119.921 223 231 255
98.3299 115.336 120.479 234 237 255
148.57 139.818 104.261 246 244 255
115.8 130.356 111.387 253 248 255
58.0733 148.49 108.441 192 212 255
141.755 41.2224 114.245 191 211 255
121.632 126.268 100.511 218 228 255
127.785 66.1175 120.438 218 228 255
19.0015 80.7413 112.526 185 208 255
32.2552 122.721 109.661 196 215 255
174.062 116.931 111.13 198 215 255
117.896 129.035 109.987 206 221 255
55.9642 109.53 120.196 209 222 255
92.9824 152.236 110.632 217 227 255
53.674 98.5516 110.005 190 211 255
71.3821 81.6213 117.72 196 215 255
135.745 78.3335 104.033 226 232 255
113.688 143.233 109.329 212 224 255
125.775 139.558 108.353 214 225 255
200.547 75.6626 109.224 180 204 255
63.2675 70.134 116.385 203 219 255
82.884 107.555 116.946 255 254 250
129.562 110.626 115.561 255 245 235
103.019 145.109 119.737 237 238 255
122.161 110.901 114.392 233 237 255
74.0953 34.7847 111.704 208 221 255
12.5804 76.103 112.031 190 211 255
145.733 95.0534 103.709 249 246 255
173.437 116.574 109.603 220 229 255
179.104 165.284 115.171 186 208 255
76.5183 151.405 113.132 196 215 255
93.6202 175.652 110.952 255 254 250
71.3271 111.448 103.911 194 213 255
118.52 183.72 113.419 199 216 255
115.19 146.979 110.536 255 217 187
114.472 166.506 107.429 198 215 255
139.463 121.058 108.242 222 230 255
108.404 122.237 118.779 255 212 177
65.1077 152.737 112.5 199 216 255
95.8453 119.873 118.05 214 226 255
116.158 88.5891 116.503 230 234 255
173.622 65.2161 115.035 200 217 255
120.848 96.3593 110.351 255 209 173
111.796 59.0026 117.294 199 216 255
156.834 125.525 113.004 238 239 255
60.7971 136.053 115.234 242 242 255
93.493 175.636 110.812 191 211 255
75.1117 67.0032 114.953 212 224 255
127.13 52.2104 110.478 255 254 251
85.4421 23.8347 113.788 197 215 255
117.239 103.675 102.803 255 218 189
97.5269 128.778 112.095 211 224 255
72.4475 145.365 111.535 205 220 255
90.5135 81.679 112.969 255 236 220
116.958 79.1527 114.601 224 231 255
132.504 129.368 106.838 211 223 255
90.075 171.374 112.207 220 229 255
100.186 72.9904 110.098 198 215 255
90.9404 80.4507 113.309 255 251 255
169.133 100.642 110.871 202 218 255
89.396 147.241 111.901 224 231 255
210.428 121.412 112.705 206 221 255
172.83 96.0329 115.772 236 238 255
147.731 96.2196 110.172 229 234 255
121.106 117.681 113.234 255 233 215
107.006 169.934 111.592 208 222 255
149.095 23.416 110.991 183 206 255
132.176 154.09 110.964 213 225 255
58.8685 111.461 115.973 214 225 255
128.499 108.799 110.637 223 231 255
80.7117 87.6218 105.73 210 223 255
174.691 105.763 112.628 198 216 255
90.7219 29.0746 111.908 209 222 255
138.381 206.263 112.523 194 213 255
92.9388 145.177 114.957 233 236 255
109.172 77.3237 106.08 255 241 228
105.126 105.594 95.5281 255 252 246
64.1491 23.2045 114.261 188 209 255
123.454 126.096 122.731 255 247 238
180.53 141.48 112.027 196 215 255
55.9147 147.345 112.797 185 208 255
156.94 203.855 113.001 180 204 255
53.7761 88.9261 108.583 201 217 255
89.1013 174.66 110.233 193 213 255
88.1351 61.1824 105.401 194 213 255
117.904 131.791 120.024 211 224 255
106.068 59.7438 108.821 255 224 199
95.7517 113.684 121.655 255 254 250
163.157 192.676 112.668 197 215 255
41.4803 93.3168 109.026 201 217 255
44.788 70.1416 106.894 192 212 255
100.605 154.986 112.625 199 216 255
77.8548 101.768 100.876 255 248 241
67.5213 79.1654 112.328 194 213 255
108.588 133.562 109.749 255 231 211
60.5451 135.009 111.998 255 219 191
95.3601 117.131 116.04 227 233 255
103.304 127.946 117.112 255 231 211
77.6178 49.119 113.524 190 211 255
82.0887 109.397 107.395 195 214 255
132.732 107.693 122.332 255 197 149
113.252 143.25 119.145 221 230 255
47.6319 102.996 112.011 199 216 255
42.2052 53.139 112.775 192 212 255
149.367 180.573 111.845 204 219 255
99.4407 74.8061 106.989 246 244 255
59.5622 200.352 111.994 182 206 255
104.082 218.87 116.016 192 212 255
193.344 45.7104 113.524 183 206 255
166.35 90.8427 108.562 189 210 255
129.597 115.385 107.688 255 97 0
49.9061 109.989 114.351 233 236 255
214.562 102.442 112.457 195 214 255
131.591 119.385 108.747 220 229 255
100.017 114.972 102.565 235 238 255
150.368 86.1977 106.682 208 222 255
83.2206 171.532 108.681 192 212 255
159.969 196.58 109.367 181 205 255
119.042 118.961 126.065 255 201 158
34.0612 148.527 114.958 196 214 255
123.183 104.996 125.028 255 247 238
93.7091 142.914 104.247 217 227 255
20.7485 59.1723 114.135 199 216 255
162.021 58.7791 118.143 189 210 255
78.7052 142.912 115.278 204 219 255
38.2442 87.1002 111.036 224 231 255
97.4709 96.8227 124.313 255 144 33
80.1123 111.856 103.453 255 246 236
142.977 31.0786 111.189 210 223 255
185.66 65.3179 110.294 190 211 255
152.994 73.9381 111.351 242 242 255
18.2078 164.623 110.708 199 216 255
111.825 196.628 101.254 185 208 255
84.3675 94.7004 103.867 213 225 255
107.332 142.276 109.94 221 229 255
187.826 159.453 112.452 204 219 255
17.1025 88.1671 112.781 201 217 255
6.71992 84.567 111.43 182 205 255
40.5904 146.411 113.334 194 213 255
131.718 53.9689 114.631 189 210 255
141.635 73.8423 123.067 255 206 167
84.6509 145.147 110.19 215 226 255
53.3877 125.069 110.497 208 222 255
88.0396 11.7414 109.563 187 209 255
127.777 40.0481 113.686 183 206 255
135.598 30.0044 112.731 183 206 255
100.195 175.903 109.867 198 216 255
155.47 128.382 104.579 225 232 255
127.432 103.234 123.9 255 230 210
130.95 23.4338 114.37 182 205 255
139.968 145.369 120.139 191 211 255
89.8153 120.499 119.51 255 161 75
136.276 47.2379 116.345 217 227 255
146.493 132.329 110.321 255 250 244
147.84 41.1512 112.833 194 213 255
134.962 48.3801 112.953 192 212 255
86.8805 125.191 121.833 255 242 230
143.867 70.378 119 197 215 255
124.331 118.616 104.584 255 246 237
88.4093 177.391 112.042 200 217 255
97.0469 80.9024 115.624 199 216 255
123.437 73.1152 118.982 202 218 255
98.5156 120.059 114.529 255 206 166
86.7446 81.7865 120.227 201 217 255
179.385 186.883 113.5 184 207 255
93.5794 175.566 111.035 209 222 255
132.756 78.2565 118.065 255 243 231
79.5291 96.0396 115.781 217 227 255
152.035 140.472 105.997 196 214 255
73.4891 152.111 109.729 204 219 255
143.018 90.3251 116.756 234 237 255
88.5879 143.353 108.333 192 212 255
51.5633 91.7928 114.256 209 222 255
159.518 20.3848 113.913 185 207 255
113.321 100.312 109.37 255 216 185
89.4692 145.595 118.681 255 253 248
133.232 161.215 112.329 255 206 167
133.922 100.171 100.128 255 218 188
205.877 90.6307 113.869 224 231 255
104.067 106.159 114.632 205 220 255
97.6285 141.138 115.241 224 231 255
99.191 134.783 100.57 255 248 240
109.21 100.928 100.146 255 225 201
97.609 112.377 102.542 213 225 255
102.227 71.3713 116.758 204 219 255
108.985 41.5024 116.4 186 208 255
145.434 160.935 109.606 191 211 255
118.309 100.577 100.078 255 242 231
127.545 59.7468 109.234 197 215 255
118.309 139.188 102.896 255 172 100
100.292 81.0919 111.415 198 216 255
66.4357 211.458 111.093 191 211 255
72.0136 41.7887 109.667 247 244 255
109.676 44.7263 114.062 191 211 255
32.5609 112.049 113.559 203 219 255
119.605 13.8907 116.918 214 226 255
116.713 37.6098 113.762 219 228 255
16.7112 167.682 109.18 191 211 255
83.6821 82.7346 117.253 255 194 145
133.413 87.3519 123.945 222 230 255
112.214 170.433 111.215 255 251 255
123.441 135.341 110.434 255 235 219
162.946 151.863 116.004 219 228 255
158.373 159.745 115.978 184 207 255
99.7643 30.9403 112.913 194 213 255
147.692 77.3302 117.238 214 225 255
25.8972 107.953 110.304 197 215 255
73.419 48.8727 115.285 201 217 255
100.408 173.694 111.585 204 219 255
160.808 122.695 116.205 197 215 255
93.5732 175.943 111.695 204 219 255
14.8405 73.3838 115.441 189 210 255
116.87 80.3198 112.714 255 252 246
60.8598 130.989 114.337 205 220 255
22.5888 164.719 113.549 193 213 255
216.067 100.092 114.947 194 213 255
98.0753 104.584 112.943 255 252 248
111.655 136.403 125.446 255 249 242
145.92 136.321 107.491 214 225 255
129.496 99.8559 105.05 255 181 118
42.8419 32.9771 109.58 181 205 255
85.0404 109.494 115.097 255 182 120
66.5533 78.2021 114.391 196 215 255
105.822 120.684 109.088 217 227 255
9.41197 98.6425 113.249 194 213 255
92.5164 87.3454 111.953 200 217 255
84.6102 69.8953 108.699 191 211 255
129.383 115.241 104.976 255 218 188
114.846 126.741 117.026 229 234 255
181.428 19.3535 111.99 183 206 255
102.722 124.301 112.834 255 248 240
129.933 99.4465 104.029 255 254 250
130.353 165.97 111.537 202 218 255
86.1954 94.5909 107.145 255 250 255
133.151 8.04659 116.355 185 207 255
96.3704 143.632 116.862 232 236 255
98.4788 144.613 119.094 255 232 213
178.236 28.3256 110.505 200 217 255
116.792 72.9071 113.25 226 232 255
110.66 102.207 116.184 252 247 255
147.513 114.836 112.092 255 235 219
200.041 113.91 112.779 183 206 255
148.595 132.957 118.436 255 195 146
89.6693 106.652 102.861 235 238 255
74.1012 117.189 114.436 237 239 255
156.683 124.283 120.736 195 214 255
180.744 97.0999 112.408 192 212 255
29.9228 158.889 111.997 200 217 255
142.105 123.548 103.777 232 236 255
70.2799 102.775 112.187 202 218 255
100.084 94.0015 110.79 255 244 233
112.516 126.388 97.4663 255 235 219
163.667 101.342 109.898 238 239 255
98.3786 111.246 114.246 255 237 222
96.1246 152.674 110.83 219 228 255
52.9745 117.781 112.958 193 212 255
131.587 141.487 108.859 207 221 255
133.563 119.656 121.912 210 223 255
105.522 103.134 103.717 255 248 241
129.91 178.59 111.411 196 214 255
167.275 75.0615 108.865 195 214 255
152.6 143.398 111.26 204 219 255
138.966 166.621 107.312 208 222 255
143.082 134.425 113.685 212 224 255
75.388 125.511 110.591 206 220 255
118.867 157.144 115.919 255 225 202
129.11 140.847 110.502 217 227 255
108.771 40.0581 115.056 210 223 255
114.562 84.9605 101.715 225 232 255
137.456 109.352 124.601 245 243 255
152.973 131.9 112.77 218 227 255
152.092 75.0379 113.844 207 221 255
179.324 138.616 110.549 190 210 255
108.672 108.047 98.2209 217 227 255
217.204 137.991 116.915 201 217 255
81.2815 203.69 111.53 189 210 255
155.356 128.008 112.887 192 212 255
89.4975 159.253 116.06 207 221 255
165.427 106.137 113.018 202 218 255
76.1535 134.18 119.573 225 232 255
117.025 41.4244 116.827 186 208 255
113.53 43.165 113.214 255 255 252
42.6898 83.5918 113.115 193 212 255
70.3526 102.498 115.169 255 249 242
64.096 109.978 106.841 255 206 166
68.7136 32.1322 113.847 199 216 255
114.729 107.506 100.012 255 247 239
101.494 178.122 109.942 187 209 255
32.0069 99.7571 112.158 199 216 255
63.6004 128.557 116.455 202 218 255
185.904 62.9053 111.035 195 214 255
165.738 50.5234 114.898 194 213 255
84.9998 184.192 113.019 245 243 255
48.5452 100.465 112.581 193 212 255
64.4681 112.275 116.353 223 230 255
119.855 142.505 112.498 230 235 255
102.43 138.446 117.776 238 239 255
54.2669 89.6433 117.181 193 213 255
112.713 126.045 115.772 207 221 255
124.824 91.2892 99.5616 206 220 255
151.462 140.712 112.6 220 229 255
151.667 182.441 113.459 199 216 255
152.667 71.3984 109.357 255 223 197
121.821 20.5995 111.476 188 210 255
58.8717 57.1625 112.701 212 224 255
81.0828 131.82 110.553 219 228 255
154.594 164.751 108.076 197 215 255
154.045 142.561 105.529 198 215 255
66.948 128.814 115.691 255 254 250
92.2588 157.842 114.97 228 233 255
153.229 83.0308 111.936 255 239 225
135.426 102.062 101.455 247 244 255
185.41 148.485 112.134 196 214 255
199.467 119.445 114.049 210 223 255
129.404 81.7861 107.573 222 230 255
123.208 80.906 109.661 233 237 255
114.985 73.0593 120.247 205 220 255
200.931 88.6138 112.888 189 210 255
108.062 29.0313 110.741 195 214 255
93.8523 174.741 111.524 199 216 255
149.938 22.2725 112.684 188 209 255
128.863 152.433 115.399 243 242 255
111.025 52.9854 106.726 225 232 255
218.643 102.425 111.692 187 209 255
166.025 61.8223 114.376 194 213 255
81.5906 52.2836 113.518 195 214 255
171.95 150.804 102.079 200 217 255
115.168 81.3036 108.441 255 226 202
55.6521 166.403 110.304 199 216 255
74.9466 85.4301 112.659 205 220 255
84.8471 127.698 119.308 212 224 255
159.324 81.4977 106.97 228 234 255
65.5743 62.1851 117.015 220 229 255
102.126 113.052 120.637 255 211 175
109.992 157.59 108.691 255 254 251
41.6877 193.412 112.718 196 214 255
99.5561 109.118 128.221 255 245 235
147.237 80.1736 112.275 207 221 255
153.715 127.077 113.604 255 226 204
66.9822 64.3577 108.796 255 249 241
170.509 95.4527 112.893 255 231 212
121.016 143.029 114.594 225 232 255
168.564 148.342 109.537 206 220 255
