ply
format ascii 1.0
element vertex 1342
property float x
property float y
property float z
property uchar red
property uchar green
property uchar blue
end_header
177.662 123.683 118.551 190 211 255
93.998 174.394 110.437 206 220 255
29.4333 99.1 110.979 201 217 255
86.5061 60.6589 115.674 205 220 255
85.0696 149.365 131.324 255 222 196
149.005 139.887 113.529 245 243 255
159.649 126.054 112.469 255 253 249
153.985 96.4859 94.1979 209 222 255
153.887 127.859 112.12 231 235 255
46.9387 194.878 110.567 215 226 255
136.653 88.612 111.43 227 233 255
86.4821 144.945 116.232 255 250 243
76.815 103.88 110.371 255 224 200
30.8591 39.8622 111.741 187 209 255
117.233 148.296 110.369 210 223 255
115.509 150.099 115.517 255 209 173
90.7674 2.22034 113.699 220 229 255
54.33 47.7568 109.437 223 231 255
97.8715 120.239 115.331 203 219 255
93.7247 174.292 110.457 255 251 245
93.83 174.24 110.506 206 220 255
156.831 136.481 69.5619 188 210 255
93.8839 174.275 110.429 247 244 255
141.136 68.1311 131.785 246 244 255
163.541 74.7815 108.258 221 229 255
94.7631 110.563 107.552 200 217 255
172.441 128.934 111.822 195 214 255
116.728 150.872 102.135 255 131 0
113.089 186.374 130.5 200 217 255
103.673 104.32 121.556 255 216 186
143.825 12.6358 107.031 186 208 255
115.913 13.1861 109.447 210 223 255
171.085 98.2338 130.495 203 219 255
44.5685 45.2817 112.174 187 209 255
109.755 118.701 111.13 200 217 255
128.545 81.1784 137.117 200 217 255
149.018 77.2971 130.807 223 231 255
93.8781 174.273 110.435 192 212 255
100.274 176.516 157.759 255 250 255
66.8328 146.006 113.372 232 236 255
107.218 125.085 116.063 255 247 239
186.936 75.0903 106.236 255 218 188
93.0591 182.028 110.694 224 231 255
93.5968 173.479 112.731 204 219 255
93.894 174.279 110.419 190 210 255
128.592 134.497 54.026 190 211 255
78.6504 135.545 105.195 220 229 255
151.473 103.448 105.956 218 228 255
212.671 27.5469 108.905 206 221 255
93.8822 174.275 110.43 191 211 255
160.134 105.23 124.111 255 255 251
131.453 116.086 112.632 212 224 255
144.218 98.1171 109.826 210 223 255
30.2471 49.2549 116.219 192 212 255
163.988 106.805 117.502 206 220 255
61.0751 127.322 110.267 255 219 190
55.7869 89.8447 105.833 214 226 255
126.644 117.142 122.042 220 229 255
160.916 20.394 112.737 196 214 255
209.347 41.2077 111.552 199 216 255
135.517 70.793 111.227 212 224 255
27.8298 173.652 110.54 190 211 255
114.718 123.391 108.659 255 249 255
93.4298 174.088 110.616 250 246 255
93.8813 174.274 110.431 195 214 255
73.0934 135.957 114.864 198 216 255
91.671 174.596 111.185 207 221 255
126.089 127.102 107.692 255 219 191
93.9818 174.262 110.316 226 233 255
93.8799 174.274 110.432 197 215 255
73.61 137.855 112.18 192 212 255
85.2563 155.361 110.852 255 225 201
69.0917 52.7451 110.05 194 213 255
128.389 21.4086 110.176 211 223 255
125.638 81.4567 102.493 186 208 255
117.917 103.886 106.769 255 237 222
109.463 82.735 110.978 227 233 255
93.4771 134.82 110.882 212 224 255
104.209 74.5716 111.59 195 214 255
111.862 105.973 103.403 208 222 255
105.944 90.3009 107.445 232 236 255
93.8624 174.268 110.451 210 223 255
109.447 176.243 114.905 242 242 255
93.8927 174.279 110.42 205 220 255
63.4081 98.32 79.744 196 215 255
76.5779 186.952 91.584 187 209 255
95.99 148.253 116.14 255 227 204
41.62 52.9841 113.553 189 210 255
123.572 154.334 99.4807 201 217 255
104.067 109.318 126.232 205 220 255
93.8796 174.274 110.433 199 216 255
101.606 139.186 111.088 207 221 255
93.9239 174.291 110.393 214 225 255
185.173 129.007 106.533 192 212 255
106.999 181.591 112.692 200 217 255
115.594 117.915 99.0065 255 239 225
94.4234 35.9113 106.874 240 240 255
76.8488 123.933 114.467 204 219 255
99.9469 120.736 107.82 255 238 223
136.978 157.385 115.216 255 246 237
93.8972 174.267 110.411 198 215 255
32.6499 80.6512 116.879 255 253 249
70.6693 123.558 115.193 255 232 213
148.49 101.414 116.467 208 222 255
125.45 118.661 107.322 212 224 255
139.649 83.1376 117.037 252 247 255
10.248 79.0159 127.652 255 244 234
124.599 118.375 110.209 204 219 255
186.195 160.12 110.133 193 212 255
126.713 111.708 100.01 199 216 255
118.898 131.466 109.846 230 235 255
86.6857 134.756 110.888 217 227 255
93.8734 174.272 110.439 254 248 255
112.406 81.3654 119.839 206 220 255
93.8722 174.271 110.44 198 216 255
93.8861 174.276 110.426 206 221 255
102.062 152.9 111.606 200 217 255
109.487 112.371 115.644 214 225 255
74.6638 201.541 111.75 185 207 255
93.8723 175.904 119.742 207 221 255
52.0625 102.818 117.811 213 225 255
51.616 80.381 122.332 212 224 255
113.506 87.2196 123.119 193 213 255
139.896 16.1499 114.198 186 208 255
139.592 165.689 115.986 191 211 255
123.157 167.822 103.845 213 225 255
110.944 158.361 109.33 192 212 255
151.789 139.977 114.171 198 215 255
93.8742 174.272 110.439 232 236 255
109.192 126.444 97.7555 255 184 124
113.349 123.69 106.787 227 233 255
127.853 78.2421 110.413 204 219 255
93.8824 174.275 110.43 209 222 255
61.4468 113.397 109.812 193 213 255
65.9032 52.6623 107.511 190 211 255
131.391 113.522 114.364 217 227 255
104.106 90.7921 103.274 228 234 255
61.5412 148.206 96.617 215 226 255
104.978 123.454 107.772 201 218 255
85.0349 169.164 109.53 210 223 255
197.409 18.1322 110.718 192 212 255
71.8047 94.1075 112.336 216 226 255
93.8953 174.28 110.418 195 214 255
108.07 132.05 100.13 255 249 255
42.0735 223.365 136.583 206 220 255
178.428 94.053 110.774 210 223 255
105.055 72.7503 96.9868 255 172 100
108.913 109.39 123 255 246 236
94.2468 174.481 110.082 215 226 255
93.8959 174.28 110.417 217 227 255
120.029 21.087 137.381 190 210 255
75.5051 148.138 113.918 196 215 255
122.389 199.976 103.29 189 210 255
80.6586 134.493 115.44 236 238 255
80.0663 182.317 97.3985 200 217 255
88.3603 62.6954 155.845 199 216 255
93.882 174.275 110.43 255 221 195
116.791 117.844 115.586 255 250 243
100.485 104.207 115.649 255 241 228
72.9996 74.9565 112.717 189 210 255
43.644 36.6717 101.7 224 231 255
169.183 176.499 129.956 255 232 214
106.927 179.817 112.072 207 221 255
58.8226 174.538 113.514 198 216 255
56.6099 159.854 109.811 228 233 255
71.6242 45.288 113.237 206 220 255
48.5948 106.563 116.677 220 229 255
50.6681 63.3212 113.008 242 242 255
126.986 123.199 113.941 255 98 0
91.9456 175.713 108.781 223 230 255
102.674 123.826 112.779 255 225 201
104.128 131.363 100.689 255 249 243
106.863 21.4898 97.0748 185 208 255
162.205 114.937 110.374 193 213 255
188.453 133.222 101.733 204 219 255
38.4417 84.28 90.3927 215 226 255
72.5823 142.969 115.624 192 212 255
72.2665 124.226 113.894 251 247 255
125.601 109.194 110.069 223 231 255
95.7888 25.1719 136.294 212 224 255
94.6247 148.332 112.011 255 212 179
97.3174 141.839 122.537 191 211 255
128.08 151.174 114.807 243 242 255
93.8117 174.201 110.473 255 227 204
113.416 132.247 105.479 220 229 255
94.2813 102.821 124.545 209 222 255
108.298 128.982 112.872 255 253 248
65.399 35.3653 100.885 200 217 255
111.358 103.227 119.037 224 231 255
17.1364 136.817 111.951 191 211 255
114.61 125.087 103.306 238 239 255
30.9333 129.421 112.941 192 212 255
115.102 85.3791 116.105 255 215 183
49.7565 201.426 110.272 205 220 255
89.8131 179.48 110.854 255 214 182
104.092 105.086 110.463 255 222 196
114.222 82.0118 120.438 255 255 252
146.833 71.1426 118.694 233 236 255
78.2296 147.75 113.478 231 235 255
122.303 195.034 112.913 198 216 255
160.067 6.14387 116.494 192 212 255
131.951 75.335 99.573 200 217 255
123.272 89.7279 109.096 222 230 255
103.831 59.1115 112.028 216 227 255
116.735 91.7071 107.594 255 254 251
93.8662 181.071 114.366 207 221 255
49.8446 63.0427 120.034 209 222 255
93.9144 174.287 110.4 185 207 255
124.482 57.4719 117.932 183 206 255
118.406 132.514 104.266 255 194 144
170.21 135.546 105.795 255 250 244
112.627 103.459 108.423 202 218 255
123.618 120.844 105.945 255 220 192
103.36 95.2289 100.944 255 241 229
122.862 113.657 109.968 231 235 255
102.804 3.95531 116.195 195 214 255
93.8756 174.272 110.437 209 223 255
100.882 129.451 118.379 255 254 249
70.4156 164.856 111.724 192 212 255
120.128 83.4875 114.915 206 221 255
61.671 137.28 105.779 191 211 255
72.5934 173.316 97.7297 209 222 255
104.714 68.2454 115.447 215 226 255
136.833 151.654 120.257 195 214 255
156.441 22.1164 110.137 187 209 255
93.8859 174.276 110.426 255 254 251
146.519 96.0129 108.695 255 232 214
218.044 72.4215 113.746 184 207 255
108.215 114.219 116.507 225 232 255
48.1777 127.829 137.406 200 217 255
117.254 165.18 111.789 214 225 255
107.843 111.767 112.103 250 246 255
117.052 118.67 77.8449 222 230 255
189.607 171.78 120.056 180 204 255
195.296 72.2165 116.899 191 212 255
152.236 113.811 107.112 220 229 255
140.425 77.4578 116.209 255 60 0
179.744 97.4039 102.598 235 238 255
109.959 106.462 114.55 255 247 239
88.1339 123.26 115.736 255 197 151
113.148 84.5892 120.775 255 255 251
82.3785 124.402 111.218 190 210 255
116.446 102.558 103.243 255 248 240
123.624 155.06 118.827 194 213 255
131.782 71.668 114.907 255 249 255
127.198 107.828 111.376 255 241 228
128.949 81.9924 103.479 246 244 255
7.01883 104.693 116.837 192 212 255
92.2999 192.851 112.975 204 219 255
84.2705 169.139 116.153 218 228 255
93.7701 165.888 113.476 255 94 0
159.997 146.874 114.655 197 215 255
99.9592 192.476 113.118 204 219 255
127.774 49.0538 112.821 189 210 255
127.593 75.4526 109.94 191 212 255
149.701 87.2819 108.313 215 226 255
137.264 128.192 98.3836 226 233 255
111.244 146.195 112.778 255 243 232
94.0636 109.298 119.593 255 228 207
47.4446 26.0092 142.293 210 223 255
159.458 206.042 11.6675 190 211 255
146.895 76.5329 127.269 193 212 255
137.411 77.9597 137.333 196 215 255
99.4568 163.683 110.14 203 219 255
181.563 150.955 132.03 255 253 249
113.875 120.826 104.807 221 229 255
70.3257 12.1689 112.179 219 228 255
116.106 182.265 111.803 196 215 255
109.213 106.331 106.287 248 245 255
162.217 61.7064 113.405 195 214 255
104.401 137.48 113.942 255 161 74
93.8952 174.28 110.418 184 207 255
112.191 101.709 105.783 255 242 230
125.53 80.2689 134.538 255 217 187
53.6334 132.455 99.4835 255 253 249
153 118.124 109.276 195 214 255
103.304 105.832 122.192 205 220 255
181.209 0.623251 110.846 198 215 255
93.8674 174.269 110.446 204 219 255
93.8639 174.267 110.452 188 209 255
91.896 206.303 95.8548 185 207 255
12.0393 178.778 111.393 225 232 255
110.206 11.9835 105.508 208 222 255
106.873 127.768 108.632 255 166 86
118.026 171.403 108.617 209 222 255
114.02 173.069 106.551 192 212 255
132.341 115.984 103.023 255 215 184
57.3194 77.435 111.413 202 218 255
93.9755 174.301 110.333 215 226 255
93.8778 174.273 110.435 194 213 255
126.078 163.041 108.125 175 201 255
195.891 84.5074 114.368 197 215 255
71.7342 119.232 110.943 210 223 255
146.012 13.8942 107.344 190 210 255
93.8835 174.275 110.429 251 247 255
114.29 179.137 109.28 255 239 225
158.188 110.238 101.847 255 238 224
129.871 117.605 129.945 255 248 240
98.5334 190.623 104.02 229 234 255
83.0745 25.3574 93.3428 196 214 255
93.8777 174.273 110.435 255 249 242
113.358 109.475 104.108 255 220 192
115.834 126.63 107.361 207 221 255
153.318 129.724 108.548 255 248 240
106.886 128.48 113.004 216 226 255
110.555 122.756 115.247 206 220 255
115.57 139.095 112.695 255 229 207
90.7999 12.0584 102.034 194 213 255
88.0463 157.074 118.037 213 224 255
126.611 83.5531 102.022 252 247 255
44.1944 136.798 100.762 255 248 240
20.6058 145.253 109.657 190 210 255
136.721 162.806 135.533 189 210 255
48.8686 91.9546 110.28 255 249 242
154.529 80.4834 138.483 255 172 100
26.5859 182.97 112.212 181 205 255
114.233 85.3103 122.646 211 223 255
128.445 81.9626 124.699 214 225 255
93.8777 174.273 110.435 216 227 255
152.28 87.4424 107.6 201 218 255
158.42 110.16 109.535 255 242 231
94.3121 85.1848 108.043 229 234 255
93.858 174.266 110.457 189 210 255
109.985 107.77 117.722 255 238 223
129.941 116.14 104.483 255 227 204
193.505 104.898 113.518 185 208 255
106.489 129.633 129.318 255 93 0
93.0472 49.1549 119.717 200 217 255
133.362 33.4378 115.074 190 211 255
82.1456 93.6001 109.614 194 213 255
64.2021 39.8651 108.479 220 229 255
20.7072 47.5056 111.397 183 206 255
119.428 173.662 97.0452 216 226 255
93.8939 174.279 110.419 196 214 255
133.341 75.1206 116.986 189 210 255
93.8919 174.278 110.421 195 213 255
17.0936 131.35 109.141 184 207 255
102.019 137.885 116.001 255 209 172
155.388 119.776 115.766 200 217 255
105.917 152.993 117.563 255 247 238
86.8825 181.121 114.794 255 251 245
40.5756 50.535 110.965 186 208 255
76.7758 25.9488 133.118 196 214 255
180.772 156.472 123.276 194 213 255
101.601 127.149 103.354 255 241 229
123.756 114.703 150.678 205 220 255
31.2443 90.0996 114.826 197 215 255
120.822 113.816 100.768 255 225 200
124.417 96.3963 125.071 192 212 255
44.7849 96.319 119.536 202 218 255
93.8829 174.275 110.43 189 210 255
129.029 98.6518 113.28 204 219 255
115.42 65.6817 120.953 218 228 255
65.1345 107.934 129.056 203 218 255
22.4981 105.76 116.771 197 215 255
128.115 75.3447 104.709 216 226 255
13.0612 81.628 105.999 228 234 255
107.215 114.323 111.071 255 253 249
112.976 128.295 115.837 255 127 0
98.9144 67.5487 115.233 219 229 255
79.7937 76.8938 112.039 211 223 255
210.673 88.6922 115.454 190 211 255
119.579 112.449 108.582 255 251 245
13.1238 179.643 113.007 205 220 255
87.6908 44.3953 111.436 199 217 255
116.939 192.658 100.587 188 209 255
114.341 96.6682 112.023 255 155 62
123.424 124.393 118.222 232 236 255
100.653 51.318 115.01 204 220 255
95.2274 145.27 110.15 253 248 255
53.2862 56.9839 105.379 233 236 255
19.765 171.607 109.75 182 206 255
105.911 206.995 154.605 196 214 255
161.279 192.664 123.141 190 211 255
152.382 97.6812 102.86 209 222 255
201.724 153.287 111.962 187 209 255
209.719 39.8284 112.027 188 210 255
105.024 152.761 109.825 243 242 255
157.766 122.113 99.8437 207 221 255
127.58 117.609 113.812 255 247 238
142.421 193.541 115.299 206 220 255
97.6407 121.402 116.987 255 229 207
112.028 114.839 142.11 207 221 255
93.8892 174.277 110.423 255 231 212
106.995 110.188 105.894 216 226 255
93.9043 174.286 110.407 228 234 255
102.323 124.824 115.602 255 197 150
55.0283 18.0262 132.617 187 209 255
65.9535 189.394 105.301 194 213 255
39.5794 75.0697 154.523 207 221 255
67.8664 124.238 113.891 195 214 255
94.0757 174.349 110.291 255 253 248
93.8877 174.277 110.425 206 221 255
192.473 151.924 112.824 201 218 255
102.529 100.213 117.111 255 238 223
120.21 77.4263 124.852 216 227 255
111.179 110.967 126.126 246 244 255
94.2412 174.657 110.159 192 212 255
109.856 118.016 128.027 219 228 255
111.42 134.737 111.467 255 242 230
93.8763 174.267 110.437 206 220 255
58.5015 123.86 104.492 255 247 238
56.9425 83.6621 84.8613 198 216 255
93.8423 174.263 110.477 205 220 255
93.7984 174.187 110.406 248 245 255
40.9142 60.3266 99.4909 197 215 255
45.8134 22.1914 126.273 191 211 255
118.503 125.249 107.6 255 156 64
160.543 150.862 111.354 197 215 255
93.8926 174.279 110.42 192 212 255
64.0884 135.015 98.8953 253 248 255
108.026 99.9792 116.94 197 215 255
93.3816 170.415 104.096 198 215 255
68.2394 126.436 108.882 212 224 255
117.185 41.9262 117.766 255 242 230
113.134 115.4 118.195 255 167 88
66.7936 81.6973 106.168 189 210 255
172.887 3.67267 130.298 188 209 255
149.672 65.878 114.106 192 212 255
91.8023 37.2703 106.377 188 209 255
76.7299 134.737 107.202 219 228 255
93.8831 174.275 110.429 198 216 255
123.444 83.4945 107.08 227 233 255
192.016 161.28 114.505 182 205 255
98.5582 112.274 134.297 255 241 229
70.9264 46.6091 97.282 184 207 255
124.724 110.76 110.038 215 226 255
134.616 122.291 116.402 255 223 198
108.367 112.211 111.147 235 238 255
80.4449 138.324 109.174 193 212 255
64.0202 90.3075 111.973 212 224 255
121.686 185.695 118.801 203 219 255
105.811 130.142 104.472 255 193 142
93.8477 174.265 110.469 203 219 255
139.622 71.5213 127.684 225 232 255
120.821 135.684 123.32 255 234 216
110.746 168.716 115.205 193 212 255
93.8806 174.274 110.432 204 219 255
19.5624 100.528 113.237 193 212 255
89.8674 158.019 118.781 209 223 255
56.5872 96.1186 113.954 204 219 255
124.029 124.661 104.358 228 233 255
93.8809 174.274 110.431 215 226 255
93.8494 174.27 110.47 255 237 221
113.628 107.481 103.836 230 235 255
84.2285 51.4442 123.619 186 208 255
30.0364 84.9342 111.783 194 213 255
101.582 131.365 108.855 229 234 255
125.558 157.576 111.369 206 221 255
111.301 91.9669 121.073 194 213 255
94.1489 174.159 110.572 208 222 255
114.91 101.578 113.749 216 227 255
128.587 85.3879 117.421 245 243 255
150.583 109.53 111.806 208 222 255
119.664 130.979 116.624 224 232 255
88.8063 175.869 111.007 216 226 255
131.73 165.625 110.473 205 220 255
29.0645 84.1367 81.326 197 215 255
157.779 173.27 98.3528 187 209 255
59.3695 117.257 101.465 213 224 255
140.023 161.348 113.516 255 241 228
79.9332 38.8991 95.8414 205 220 255
104.403 100.065 111.713 255 235 218
122.485 126.32 108.992 255 234 217
100.455 173.117 117.695 186 208 255
93.8934 174.279 110.42 210 223 255
81.5727 25.6964 120.646 204 219 255
121.558 128.88 104.608 207 221 255
62.6249 49.9349 113.909 197 215 255
165.771 43.4517 115.755 206 220 255
175.869 177.993 112.586 189 210 255
103.985 105.742 122.822 229 234 255
142.158 158.921 113.19 184 207 255
153.853 93.3561 117.878 204 219 255
130.057 75.2778 104.298 255 208 170
18.9421 137.213 124.003 209 222 255
67.2448 44.4983 110.285 191 211 255
45.9422 83.6386 76.563 198 216 255
130.97 111.338 107.802 255 183 123
77.283 110.865 113.197 217 227 255
111.888 3.93953 112.736 199 216 255
160.546 55.8198 119.144 210 223 255
141.636 89.951 112.539 198 216 255
64.0918 133.27 86.2362 189 210 255
114.896 59.6514 119.196 235 237 255
120.065 86.8007 114.364 231 235 255
112.687 110.86 117.656 254 248 255
124.276 50.6155 116.879 191 211 255
16.3744 98.5318 108.195 220 229 255
126.185 156.38 108.28 180 204 255
37.1954 81.7735 132.258 224 231 255
114.172 125.88 106.343 221 230 255
147.311 96.8225 124.457 198 216 255
111.544 87.6877 108.588 206 221 255
166.412 32.3103 111.508 198 215 255
93.7096 156.076 100.608 198 215 255
150.995 137.367 109.938 190 211 255
28.2762 174.747 113.501 186 208 255
93.272 174.058 110.844 236 238 255
93.8847 174.276 110.427 215 226 255
31.9745 207.912 121.089 194 213 255
93.9049 175.529 106.578 255 242 231
109.155 148.08 96.5908 255 250 244
94.9666 187.978 111.682 193 213 255
144.208 93.9582 114.552 255 250 243
94.2515 173.65 110.345 217 227 255
143.356 162.624 112.861 180 204 255
93.8718 174.271 110.441 230 235 255
65.5545 41.2516 99.1918 238 239 255
61.1556 114.192 110.466 201 218 255
119.84 131.754 114.49 255 250 243
76.9904 111.535 111.627 218 228 255
134.316 82.1167 108.779 208 222 255
40.7153 151.396 110.329 190 210 255
110.164 108.163 120.807 221 229 255
94.0028 174.322 110.259 225 232 255
121.285 121.062 103.058 255 236 221
159.302 102.366 122.904 217 227 255
88.7296 175.192 112.59 199 216 255
58.1586 79.7307 128.264 210 223 255
86.0993 59.8283 114.084 185 207 255
119.363 17.8134 114.939 199 216 255
165.125 172.047 143.774 208 222 255
44.6007 126.435 111.083 223 230 255
152.746 109.032 106.927 212 224 255
75.7598 145.718 99.5234 224 231 255
122.195 102.653 113.606 221 229 255
93.863 174.268 110.451 255 227 205
85.2811 101.557 110.74 218 228 255
61.3096 47.1484 72.7757 255 248 241
104.638 130.962 100.912 255 252 246
69.4455 120.88 115.594 255 229 208
30.2606 199.494 111.432 210 223 255
44.7315 151.194 110.675 202 218 255
105.577 207.795 90.4851 194 213 255
107.533 146.542 119.532 255 246 237
97.0464 0.602222 114.698 193 212 255
166.558 63.0304 114.26 191 211 255
139.542 115.522 114.865 251 247 255
180.191 117.819 116.149 189 210 255
76.5808 85.6476 114.356 203 218 255
92.4006 174.469 110.561 255 244 234
92.7621 173.463 111.941 255 250 255
127.451 145.828 113.723 255 254 250
130.232 108.833 115.095 241 241 255
101.886 19.0111 121.839 205 220 255
209.101 38.4576 119.372 198 216 255
99.0946 107.905 110.816 230 234 255
177.05 153.875 61.9497 241 241 255
93.8756 174.272 110.437 220 229 255
113.806 109.957 114.961 222 230 255
116.527 88.9183 127.35 195 214 255
93.8682 174.27 110.445 198 216 255
113.806 38.67 115.648 197 215 255
110.625 112.794 129.576 240 240 255
156.868 107.886 109.978 213 224 255
80.1822 112.474 115.17 219 228 255
175.87 77.559 110.674 213 225 255
66.5426 104.965 113.963 230 235 255
116.32 100.306 113.868 255 229 208
101.73 153.498 101.965 202 218 255
93.2739 156.036 118.636 212 224 255
124.496 122.823 107.479 213 225 255
92.0688 172.861 113.412 250 246 255
14.505 138.101 111.131 203 219 255
101.792 104.487 100.499 238 239 255
61.2642 209.638 109.276 181 205 255
80.5339 78.0262 110.918 255 235 218
129.531 120.924 122.794 255 249 242
93.9067 174.284 110.408 205 220 255
140.128 91.549 105.736 216 227 255
196.745 48.3799 111.65 188 209 255
116.895 144.253 129.87 255 248 240
78.7518 178.668 112.747 196 214 255
74.1316 49.5092 107.103 238 239 255
93.8825 174.275 110.43 195 214 255
105.044 96.0367 115.304 202 218 255
88.5574 58.7531 113.507 192 212 255
161.317 120.109 111.605 197 215 255
39.2604 161.075 125.978 191 211 255
118.212 115.51 116.386 211 223 255
52.586 81.2732 97.9744 255 237 222
94.1085 173.342 110.798 255 250 255
124.32 104.923 115.483 255 206 168
173.807 122.951 118.193 206 220 255
119.439 150.673 118.716 210 223 255
84.3543 37.5508 139.129 185 207 255
93.8775 174.273 110.435 255 225 200
123.115 131.024 130.266 191 211 255
117.666 140.986 111.337 245 243 255
108.745 181.983 124.947 190 211 255
93.8737 174.272 110.439 202 218 255
98.4922 144.244 112.699 255 157 66
109.899 104.812 105.961 255 124 0
25.8423 128.44 115.424 193 212 255
89.2097 34.9721 107.232 255 233 214
93.7307 174.051 110.587 238 239 255
147.729 33.6024 113.153 192 212 255
74.5787 144.398 114.064 194 213 255
95.5025 125.512 93.1116 213 225 255
105.687 102.321 111.56 255 231 212
187.476 6.22676 99.3899 184 207 255
51.3303 58.693 110.164 201 217 255
207.633 160.713 116.277 177 202 255
140.45 175.365 113.208 238 239 255
93.821 174.255 110.495 220 229 255
41.1447 83.3572 103.652 226 232 255
106.155 102.98 111.124 214 225 255
126.179 124.724 110.498 255 245 235
93.8821 174.275 110.43 203 219 255
158.945 111.58 113.459 255 180 116
86.2841 131.441 109.34 224 231 255
150.797 101.441 106.562 209 222 255
140.86 84.1727 102.367 208 222 255
110.697 103.596 125.858 248 245 255
94.0192 174.338 110.32 254 248 255
112.291 105.557 112.02 210 223 255
93.9461 174.304 110.369 218 228 255
103.349 88.1924 123.927 255 209 172
43.4381 75.8652 110.415 198 216 255
119.116 101.302 114.893 255 233 216
114.914 153.441 118.711 255 241 229
93.878 174.273 110.434 194 213 255
173.189 89.8146 165.364 255 255 251
70.8194 135.31 121.736 210 223 255
134.118 6.59377 89.0832 223 230 255
138.378 217.077 99.7441 183 206 255
163.144 132.493 96.0789 189 210 255
155.613 152.592 113.908 240 240 255
103.572 124.806 105.452 255 225 201
105.357 172.056 113.865 185 208 255
72.2341 142.858 127.292 255 250 255
121.999 113.367 110.709 255 243 233
145.233 74.8145 132.88 203 218 255
123.852 122.864 119.236 220 229 255
69.2084 139.545 100.083 188 209 255
119.317 126.126 95.1265 196 214 255
131.856 74.891 131.829 250 246 255
122.175 99.1589 120.276 255 232 213
26.9207 45.0171 111.042 188 209 255
79.2535 119.525 109.856 225 232 255
60.2879 60.0321 130.324 210 223 255
109.876 115.5 120.591 255 195 145
49.0089 56.5102 100.354 212 224 255
79.4627 150.538 103.464 205 220 255
110.726 128.529 107.741 206 221 255
115.977 127.349 96.0098 217 227 255
152.993 117.205 107.863 187 209 255
89.2224 29.4648 102.223 181 205 255
124.491 119.428 103.393 201 218 255
59.8807 84.5256 116.698 204 219 255
152.215 184.708 95.158 216 226 255
108.707 108.036 114.685 213 225 255
91.1737 159.247 109.777 243 242 255
36.8216 101.035 126.611 204 219 255
134.4 103.897 112.906 227 233 255
138.544 103.593 146.006 255 245 235
65.2181 127.618 115.772 245 243 255
152.247 114.676 114.383 214 225 255
93.887 174.277 110.426 212 224 255
57.106 91.9004 109.261 205 220 255
93.745 174.554 110.645 197 215 255
111.555 132.54 110.882 221 230 255
114.136 118.904 109.69 255 242 230
204.944 158.796 108.451 181 205 255
94.5033 157.176 108.942 255 251 246
130.817 39.6229 120.66 231 235 255
139.394 48.8835 112.401 187 209 255
113.308 65.6523 118.844 211 224 255
212.798 20.8978 116.375 186 208 255
118.283 116.383 111.37 210 223 255
149.383 77.1187 129.683 205 220 255
105.587 96.6563 119.889 215 226 255
32.7959 164.493 114.345 198 215 255
74.5558 156.421 127.809 255 252 247
77.7357 14.1486 103.423 186 208 255
71.271 62.8999 103.742 185 207 255
116.355 88.7963 118.039 255 170 94
113.002 96.8983 117.222 218 228 255
149.539 160.448 114.023 192 212 255
93.8859 110.043 106.278 220 229 255
109.364 98.7518 106.531 209 222 255
93.8768 174.273 110.436 192 212 255
93.9248 174.292 110.382 186 208 255
67.4153 110.134 100.108 206 220 255
98.7582 165.392 102.421 243 242 255
115.214 27.5463 112.601 196 214 255
122.565 146.073 109.604 255 252 247
63.3905 97.4922 115.369 181 205 255
100.596 110.468 110.209 205 220 255
100.367 158.19 120.077 193 212 255
69.5302 87.5216 112.139 214 225 255
93.894 174.279 110.419 193 212 255
111.362 73.8186 119.449 206 221 255
127.849 130.075 122.983 255 252 247
93.8664 174.293 110.455 203 219 255
40.7806 212.424 86.8457 196 214 255
118.637 83.5666 110.742 195 214 255
130.334 143.914 110.071 226 232 255
166.963 106.163 109.597 189 210 255
109.969 101.175 110.822 230 235 255
163.954 169.013 135.456 196 214 255
112.02 105.653 108.658 248 245 255
148.604 6.98801 96.5249 194 213 255
94.4857 174.052 109.847 196 214 255
91.3702 46.5283 114.03 191 211 255
94.0701 174.619 110.626 218 227 255
106.818 167.943 101.48 255 253 249
142.307 166.63 115.746 176 202 255
19.4361 66.8076 108.779 184 207 255
171.775 126.452 89.0448 207 221 255
171.521 116.626 111.431 185 208 255
211.68 51.776 110.132 179 204 255
91.6702 143.848 114.119 194 213 255
40.0263 45.3827 102.228 197 215 255
85.0606 184.116 113.867 201 217 255
2.4198 158.255 114.655 192 212 255
123.481 127.951 122.731 205 220 255
143.08 91.9257 108.58 255 255 252
92.6591 147.659 116.822 199 217 255
52.8387 69.6246 106.828 194 213 255
113.8 105.431 114.48 223 231 255
115.038 131.569 102.82 214 225 255
136.472 69.3672 118.986 255 213 180
110.103 119.826 109.985 255 248 241
180.603 118.91 121.328 233 236 255
109.55 120.961 112.601 255 195 145
65.4961 152.049 121.546 200 217 255
114.545 117.129 112.978 202 218 255
123.31 98.8012 123.789 255 250 243
111.005 113.279 115.742 255 242 231
82.3401 93.692 111.797 240 241 255
114.892 149.021 109.742 255 239 226
107.489 113.424 94.6152 198 216 255
93.8772 174.273 110.432 200 217 255
72.28 98.0392 112.156 235 237 255
116.257 126.333 103.557 235 238 255
134.424 72.5027 124.134 245 244 255
92.6996 111.836 118.826 194 213 255
88.2228 153.167 126.186 255 253 248
7.87911 173.905 110.884 189 210 255
216.256 38.0208 108.986 194 213 255
87.9557 22.9053 107.54 255 248 241
11.6885 169.893 112.122 196 215 255
55.6417 107.226 105.25 255 246 237
116.349 96.6967 117.721 222 230 255
199.921 124.113 120.065 191 211 255
112.543 111.47 113.333 255 219 190
159.106 144.692 110.229 190 210 255
103.074 111.18 113.378 219 229 255
137.508 141.525 110.717 211 223 255
113.01 96.8092 104.97 255 229 207
167.933 103.102 106.463 210 223 255
37.8272 70.9998 103.045 187 209 255
156.192 111.033 114.85 220 229 255
93.8777 174.273 110.435 180 204 255
54.5418 131.676 120.516 247 245 255
108.92 122.956 119.298 234 237 255
108.222 106.404 116.234 255 221 195
117.586 109.622 107.354 223 231 255
93.8731 174.271 110.44 205 220 255
88.8137 68.806 114.285 255 249 242
93.8715 174.271 110.441 211 223 255
89.1174 112.738 110.486 255 242 230
62.1918 74.3657 112.062 194 213 255
158.167 146.432 111.451 186 208 255
119.636 83.181 126.273 207 221 255
189.888 59.8868 116.267 222 230 255
160.611 108.236 130.799 210 223 255
94.087 134.793 108.376 219 228 255
93.9124 174.289 110.387 202 218 255
104.767 117.822 110.365 212 224 255
121.183 92.2362 109.168 255 207 169
117.659 122.424 110.26 239 240 255
70.4258 58.2474 124.274 184 207 255
105.765 134.744 101.171 255 245 235
3.87293 94.0143 78.494 233 237 255
103.198 97.3979 119.563 255 240 227
76.0231 145.415 101.972 192 212 255
68.417 79.3491 149.241 193 213 255
85.3348 210.048 130.682 231 235 255
111.835 105 109.73 215 226 255
62.208 47.7689 112.892 191 211 255
93.8804 174.274 110.432 182 205 255
44.2942 58.6667 115.66 189 210 255
73.1854 72.4034 112.246 200 217 255
99.6837 135.603 109.098 207 221 255
63.4794 33.4972 113.527 184 207 255
81.6404 96.1597 112.924 255 246 237
93.8516 174.261 110.471 198 216 255
150.135 89.5349 114.777 200 217 255
122.378 111.907 110.06 224 231 255
82.0851 114.1 119.354 254 248 255
113.477 133.538 104.3 201 218 255
136.662 124.275 116.436 255 239 226
148.12 135.02 96.548 241 241 255
50.2826 101.845 143.003 209 222 255
165.345 119.966 126.38 236 238 255
89.5034 201.745 113.949 206 221 255
116.832 94.3323 111.857 255 240 226
93.885 174.276 110.427 208 222 255
111.506 114.426 116.138 230 235 255
146.344 146.489 111.066 196 215 255
110.97 158.002 99.5346 255 245 235
121.485 119.186 111.137 255 220 192
126.631 110.607 200.927 255 240 226
123.942 116.127 110.116 255 226 203
125.405 179.569 104.062 202 218 255
69.8242 56.5428 118.13 199 216 255
93.8986 174.281 110.415 255 240 226
150.612 91.7692 110.951 220 229 255
112.093 149.396 114.185 255 250 255
190.618 28.6218 109.109 207 221 255
107.154 103.768 113.141 202 218 255
105.266 111.02 123.074 218 228 255
37.2024 69.903 126.887 187 209 255
93.8701 174.27 110.442 209 222 255
126.261 43.7689 115.508 223 231 255
137.912 31.2382 112.107 194 213 255
186.661 86.6925 116.251 255 253 249
132.896 125.957 131.029 255 219 190
104.866 114.188 113.477 255 239 225
220.714 91.4409 109.658 188 209 255
98.647 112.263 126.406 215 226 255
103.889 164.163 119.583 204 219 255
66.7922 190.416 113.734 194 213 255
73.8951 100.96 111.354 204 219 255
96.2262 129.082 112.142 202 218 255
93.88 174.274 110.432 199 216 255
111.138 98.5629 119.811 214 225 255
175.17 124.719 125.985 255 215 183
88.808 131.875 111.205 192 212 255
174.863 99.3729 124.608 239 240 255
73.3682 134.504 97.2107 205 220 255
140.088 91.5075 101.166 255 239 226
86.9982 157.563 111.132 203 219 255
87.9872 100.782 108.594 255 236 220
145.156 154.88 111.523 201 217 255
62.8615 53.8774 109.907 211 224 255
132.306 132.487 115.783 228 234 255
93.8506 174.264 110.467 210 223 255
73.7423 76.8706 94.7504 200 217 255
212.84 21.4516 116.61 187 209 255
124.63 126.799 119.671 255 251 245
42.0549 106.977 113.82 181 205 255
115.424 75.9683 100.724 240 240 255
93.8796 174.259 110.452 201 218 255
103.816 120.384 112.667 255 195 146
93.9358 174.377 110.428 189 210 255
54.7013 118.987 101.277 229 234 255
120.24 146.2 113.992 217 227 255
157.903 82.2394 105.447 255 226 203
74.9902 22.874 114.214 198 215 255
125.13 127.523 117.616 255 218 188
113.448 82.4097 120.258 199 216 255
67.0771 35.1687 115.99 255 251 246
67.9568 74.0383 107.147 188 209 255
93.8913 174.278 110.421 212 224 255
93.9202 174.289 110.396 231 235 255
26.7621 92.4441 117.456 196 214 255
115.373 121.576 93.417 248 245 255
207.905 83.0178 108.764 204 219 255
64.1295 117.076 116.758 204 220 255
93.9189 174.286 110.398 185 208 255
93.8944 174.279 110.419 203 219 255
117.561 116.834 93.9144 224 231 255
108.765 120.662 104.727 255 242 230
105.178 120.055 114.739 224 231 255
93.8765 174.273 110.436 187 209 255
57.872 185.218 123.42 255 230 210
111.432 128.871 108.704 244 243 255
96.9299 121.491 116.58 245 243 255
93.9066 174.258 110.342 255 252 248
47.68 222.601 26.5326 255 254 251
57.9069 28.5376 102.762 193 213 255
105.75 106.653 116.44 208 222 255
78.1799 188.887 111.21 192 212 255
150.386 57.5232 117.5 212 224 255
89.9306 108.675 99.4312 255 246 237
114.675 115.21 119.793 255 224 199
104.547 91.4577 121.193 220 229 255
178.725 144.968 118.106 189 210 255
154.798 21.1147 99.189 199 216 255
116 88.7064 127.441 215 226 255
105.747 131.558 122.261 191 211 255
93.8389 174.269 110.489 217 227 255
88.2269 219.547 127.644 189 210 255
0.204648 111.352 115.755 182 205 255
20.1112 135.848 118.702 193 212 255
127.051 186.327 114.582 189 210 255
41.997 80.081 92.4531 255 248 241
105.09 122.152 103.177 255 237 222
123.998 132.098 113.084 247 244 255
117.081 188.746 111.149 185 208 255
71.863 119.408 44.1872 226 232 255
184.84 41.3525 114.512 255 247 239
109.444 123.852 114.683 255 246 237
132.572 167.551 115.097 235 238 255
125.999 72.9197 126.944 239 240 255
179.41 120.198 117.671 184 207 255
150.542 96.3652 113.976 255 254 251
138.268 78.8299 109.952 255 251 245
137.956 107.809 110.137 231 235 255
100.551 126.193 105.8 205 220 255
174.826 115.581 139.703 203 218 255
69.3834 161.611 131.306 212 224 255
193.319 36.3338 115.036 197 215 255
150.819 112.287 107.234 184 207 255
93.9368 174.295 110.382 192 212 255
5.8944 72.0521 110.521 181 205 255
162.425 33.6709 115.988 191 211 255
124.502 155.301 120.194 213 224 255
134.025 93.477 114.177 242 242 255
161.156 112.193 146.564 230 235 255
62.3138 107.997 109.558 208 222 255
111.853 116.508 110.922 183 206 255
30.0358 120.847 113.834 190 210 255
150.447 109.437 108.581 255 243 231
118.518 79.6907 113.354 234 237 255
93.8756 174.272 110.437 207 221 255
134.137 81.212 115.324 189 210 255
121 66.2923 121.056 195 214 255
125.245 120.055 103.771 255 254 250
83.0195 144.105 103.559 194 213 255
106.47 125.885 105.578 255 249 255
120.419 76.6096 118.773 255 212 177
169.168 2.02199 128.785 207 221 255
93.8832 174.275 110.429 206 220 255
22.2966 86.3157 109.073 179 203 255
126.965 180.021 95.5593 182 206 255
115.744 112.22 118.624 255 220 192
67.9497 129.49 105.131 219 229 255
198.673 108.491 113.138 193 213 255
99.8748 130.937 111.947 207 221 255
142.47 159.25 98.1336 193 213 255
93.2643 175.092 111.506 231 235 255
136.521 150.411 48.4533 181 205 255
131.839 87.0488 111.143 199 216 255
116.689 128.203 110.14 213 225 255
70.092 137.288 90.2463 217 227 255
117.352 128.519 96.4148 255 205 164
93.8838 174.275 110.429 207 221 255
98.1552 196.282 104.839 191 211 255
134.269 75.2347 120.841 198 216 255
110.049 98.7085 108.293 255 246 237
127.857 81.2064 106.663 241 241 255
107.318 91.3263 110.518 236 238 255
149.882 138.576 99.0218 250 246 255
79.52 87.9937 114.724 240 240 255
223.611 122.119 112.387 182 206 255
101.294 114.478 118.321 197 215 255
102.046 138.954 114.765 255 220 192
93.9469 174.297 110.381 255 248 240
89.3516 136.352 107.06 217 227 255
71.6511 147.797 116.37 194 213 255
93.0718 174.76 111.336 198 216 255
131.163 130.372 115.716 203 219 255
197.958 135.028 115.743 182 205 255
115.02 112.649 142.821 231 235 255
109.661 140.531 111.9 255 238 224
101.546 146.107 102.302 255 187 131
128.265 114.843 98.7102 206 220 255
101.635 172.972 101.69 183 206 255
79.1376 23.5532 106.439 218 228 255
93.8749 174.272 110.438 255 196 147
125.545 80.3458 110.61 255 235 218
183.664 206.726 52.2992 207 221 255
105.746 97.9328 109.521 255 253 248
148.9 86.0321 103.84 255 241 229
74.004 60.2143 108.924 197 215 255
69.2553 116.426 109.723 194 213 255
111.766 143.541 115.095 253 248 255
45.6524 145.994 108.162 192 212 255
88.0754 44.9996 109.165 228 234 255
168.649 19.4058 110.771 198 215 255
127.375 83.2888 110.905 237 239 255
106.59 120.353 117.341 235 238 255
98.3348 133.774 105.098 237 239 255
9.62281 122.749 113.709 187 209 255
105.824 109.056 110.878 199 216 255
129.893 117.244 110.19 255 182 121
22.4849 207.752 107.505 191 211 255
123.199 197.092 136.334 183 206 255
112.832 128.073 104.354 192 212 255
10.8289 147.835 110.437 198 216 255
112.726 92.3419 119.057 201 218 255
131.233 174.35 112.668 195 213 255
67.4502 147.472 116.462 229 234 255
110.887 101.925 109.136 255 244 233
93.8825 174.275 110.43 199 216 255
86.112 143.292 112.414 253 247 255
87.6645 85.1995 115.609 242 241 255
131.965 87.1036 109.36 197 215 255
78.4859 198.518 113.025 192 212 255
119.088 123.977 102.967 218 228 255
64.7939 36.0402 114.209 208 222 255
93.9341 174.292 110.381 189 210 255
48.9837 75.3171 97.5993 193 212 255
146.211 95.861 113.711 215 226 255
128.411 118.634 105.341 201 217 255
123.166 116.059 107.326 232 236 255
89.6104 99.1898 107.248 224 231 255
106.347 116.114 117.037 197 215 255
93.8793 174.274 110.433 212 224 255
129.493 112.623 115.833 235 238 255
87.0967 34.9567 100.32 191 211 255
110.065 88.9148 109.991 200 217 255
104.138 168.805 108.897 244 243 255
126.087 127.002 107.548 201 217 255
102.74 27.691 113.314 205 220 255
115.317 126.667 103.573 255 223 198
157.095 129.118 112.313 195 214 255
93.8401 174.304 110.567 212 224 255
130.709 102.446 114.108 196 214 255
181.168 149.078 83.0813 230 235 255
141.096 141.299 122.226 182 206 255
93.8793 174.274 110.433 214 225 255
37.4055 102.253 94.8603 196 214 255
114.696 98.1374 123.957 255 216 186
109.405 125.473 103.1 255 223 198
92.4662 183.491 88.4913 207 221 255
49.7324 96.9314 129.559 195 214 255
92.6024 131.112 111.418 219 228 255
66.0647 148.404 121.314 242 241 255
162.768 125.668 115.698 189 210 255
36.9881 181.029 112.203 188 210 255
52.8205 52.2954 96.5512 201 217 255
127.806 117.421 110.354 201 217 255
104.541 148.205 114.207 205 220 255
106.381 111.95 118.393 198 216 255
93.8952 174.297 110.424 222 230 255
66.3284 105.503 111.275 213 225 255
84.6043 151.237 113.69 255 249 242
135.306 178.174 110.817 189 210 255
112.075 109.078 99.53 255 192 141
137.408 102.703 132.545 204 220 255
89.3604 131.196 121.843 196 214 255
177.15 6.67373 111.93 178 203 255
110.147 108.485 117.426 255 221 194
166.204 107.604 89.1858 211 223 255
210.936 164.646 115.005 185 207 255
122.896 76.6131 128.784 192 212 255
93.6173 174.159 110.574 226 232 255
188.018 158.374 112.799 192 212 255
185.792 67.0099 115.013 189 210 255
55.491 204.067 114.762 194 213 255
20.4684 155.947 111.317 205 220 255
62.6784 149.958 97.2624 193 213 255
90.8252 152.955 97.2328 218 228 255
93.8875 174.277 110.425 219 228 255
104.468 132.778 113.31 255 210 175
171.227 146.92 111.666 215 226 255
118.459 155.083 110.912 195 214 255
93.862 174.267 110.452 211 223 255
95.5095 126.762 102.568 221 229 255
50.4672 53.4575 120.289 200 217 255
89.0701 120.615 111.565 216 226 255
138.417 147.774 110.647 181 205 255
31.8851 171.214 111.191 194 213 255
94.0037 174.325 110.343 238 239 255
56.7089 72.0909 109.865 222 230 255
93.8877 174.264 110.538 255 240 227
74.783 41.9002 109.099 186 208 255
132.607 117.674 127.305 218 228 255
93.8811 174.274 110.431 192 212 255
50.9883 108.969 110.576 196 214 255
109.164 197.016 83.5968 185 208 255
93.9606 175.95 110.78 221 229 255
130.009 68.8841 121.627 186 208 255
126.543 125.007 106.608 255 250 255
74.2225 153.09 147.029 255 251 245
128.253 84.4273 111.461 208 222 255
41.5845 59.8259 134.183 211 224 255
93.9476 174.288 110.362 198 215 255
171.772 180.6 109.47 177 202 255
106.652 145.949 95.2648 200 217 255
190.657 107.743 115.868 184 207 255
102.824 105.499 127.126 233 237 255
123.667 55.7754 115.748 209 222 255
102.334 179.277 115.639 242 242 255
50.9497 30.0954 118.602 199 216 255
123.613 97.6542 118.001 206 221 255
97.5391 160.692 111.275 242 242 255
44.4116 164.055 109.13 194 213 255
93.8275 174.245 110.501 255 194 144
137.825 87.0784 109.164 208 222 255
96.3434 168.927 108.583 223 230 255
110.125 112.197 117.479 221 230 255
1.37517 153.423 112.098 188 210 255
93.8858 174.276 110.427 244 242 255
81.3494 144.153 120.277 255 253 249
70.6307 112.046 113.32 229 234 255
104.013 91.1384 119.332 215 226 255
117.264 84.1378 113.656 216 227 255
105.566 113.029 116.596 255 209 173
100.539 98.5294 111.886 255 243 231
118.927 111.081 115.289 208 222 255
99.6946 115.498 105.226 226 232 255
80.4714 134.699 114.23 218 228 255
103.633 174.365 108.59 188 210 255
147.317 92.6106 110.225 234 237 255
71.1467 47.5276 109.847 192 212 255
107.121 91.2422 114.707 188 209 255
38.9578 197.543 123.051 197 215 255
123.01 127.822 114.232 239 240 255
104.025 146.173 121.275 235 238 255
82.9435 185.05 90.622 252 247 255
97.483 207.525 107.444 195 213 255
100.388 176.319 110.665 187 208 255
130.107 163.434 100.705 191 211 255
110.252 99.2311 118.633 212 224 255
50.0716 124.276 130.158 255 251 255
125.845 167.152 128.301 200 217 255
112.533 102.164 112.351 239 240 255
111.703 115.58 112.017 255 196 149
93.913 174.286 110.401 255 249 255
161.405 156.86 94.3993 194 213 255
114.351 102.478 119.837 255 201 158
108.191 116.211 104.161 208 222 255
161.123 21.8052 110.078 202 218 255
97.2584 123.671 108.282 237 239 255
140.934 129.395 113.792 203 219 255
207.942 56.5944 111.595 200 217 255
93.8751 174.276 110.457 221 230 255
75.9055 99.6416 110.537 255 250 255
95.6388 104.297 109.974 200 217 255
93.9411 174.295 110.383 193 213 255
111.559 144.262 113.118 245 243 255
141.717 173.462 91.0084 184 207 255
22.4083 107.654 115.923 215 226 255
13.3515 139.848 114.078 210 223 255
107.712 139.785 110.886 240 240 255
104.644 137.445 119.037 255 248 240
212.273 86.1383 115.021 204 219 255
93.8927 174.279 110.42 255 253 248
139.255 81.9873 107.556 216 226 255
90.3697 3.93489 119.168 179 204 255
94.2349 174.377 110.047 255 230 210
106.934 150.84 76.0994 255 239 226
117.504 134.577 106.105 255 139 21
102.277 103.248 100.808 255 207 168
62.4781 101.638 130.729 230 235 255
93.8863 174.276 110.426 217 227 255
100.179 112.345 111.159 255 217 188
93.8794 174.274 110.433 203 219 255
73.1385 81.5479 113.094 207 221 255
208.139 52.2186 112.485 183 206 255
126.672 73.3108 87.2997 184 207 255
84.0721 4.22542 46.1101 189 210 255
52.4537 72.6838 116.512 202 218 255
106.222 104.212 112.551 255 230 209
94.2977 174.345 110.03 255 254 250
93.8765 174.273 110.436 241 241 255
61.8282 114.337 130.433 222 230 255
120.258 77.8548 113.769 255 244 234
122.83 173.47 113.551 181 205 255
127.612 46.3082 117.08 214 225 255
174.632 81.4009 108.805 192 212 255
71.9545 200.379 112.822 194 213 255
157.772 72.5213 127.562 196 214 255
49.4887 114.525 109.279 198 216 255
180.482 97.4913 116.57 197 215 255
96.2656 177.144 102.335 208 222 255
93.87 174.27 110.443 212 224 255
130.638 96.801 115.906 239 240 255
9.81783 121.295 107.856 182 205 255
143.811 92.385 111.999 224 231 255
115.399 105.269 107.934 255 236 220
126.654 114.306 123.759 255 220 193
192.994 81.1982 117.435 206 220 255
147.759 96.6059 100.475 200 217 255
126.718 126.101 115.286 236 238 255
43.9819 169.38 113.509 195 214 255
60.9033 108.638 113.662 208 222 255
110.339 126.394 111.282 237 239 255
105.077 147.517 108.894 250 246 255
111.968 66.2165 117.163 215 226 255
71.7692 85.9763 115.135 209 222 255
93.9654 174.316 110.301 229 234 255
115.363 130.04 107.066 202 218 255
109.653 106.9 112.094 255 145 38
98.2766 174.348 107.503 198 216 255
52.1037 88.4004 89.7508 199 216 255
150.205 150.065 105.339 184 207 255
125.756 107.876 113.612 255 237 221
102.539 125.374 111.905 203 218 255
148.609 115.151 130.088 188 209 255
156.206 116.896 111.288 177 202 255
144.975 92.493 124.407 255 216 185
56.8334 83.8811 93.7404 198 215 255
41.3071 82.746 112.055 194 213 255
57.6684 88.503 139.275 218 227 255
140.398 161.976 72.3999 199 216 255
122.464 84.287 107.128 210 223 255
110.393 101.369 119.772 255 206 167
93.9222 174.29 110.395 242 241 255
144.404 91.6019 110.741 206 221 255
76.6018 124.425 111.934 255 164 83
122.611 129.327 112.9 255 203 161
50.0162 71.4045 137.552 230 235 255
61.8216 71.7467 112.121 235 238 255
27.1631 195.4 111.482 191 211 255
112.955 117.834 115.015 255 251 246
93.6852 174.308 111.111 196 214 255
196.76 143.794 116.311 194 213 255
151.47 108.671 112.72 201 217 255
15.7899 75.1843 109.642 188 209 255
99.7762 111.112 128.516 255 221 193
114.689 126.068 108.341 255 174 104
159.693 128.698 114.825 255 226 202
131.038 123.944 111.86 255 -2147483648 0
53.4936 9.12788 77.5718 198 216 255
157.906 86.0361 108.746 204 219 255
114.02 102.529 106.865 208 222 255
93.8908 174.278 110.422 187 209 255
208.839 25.2584 105.607 182 205 255
93.8729 174.271 110.44 221 229 255
105.551 101.348 118.306 217 227 255
93.864 174.266 110.454 212 224 255
58.4574 99.9286 113.216 198 215 255
69.0658 144.897 109.217 186 208 255
93.903 174.282 110.411 237 238 255
104.543 107.683 118.616 219 228 255
131.903 173.57 112.485 195 214 255
52.0089 54.8207 146.514 255 246 237
104.398 124.97 106.362 245 243 255
81.2215 85.6414 115.622 255 253 248
39.7984 127.49 114.188 212 224 255
109.773 133.402 115.01 195 214 255
93.8807 174.274 110.432 186 208 255
80.8992 174.509 94.1627 193 213 255
138.707 89.4838 97.6875 220 229 255
36.6295 92.0957 120.698 202 218 255
66.5203 152.647 110.492 212 224 255
106.826 113.115 109.447 255 245 236
93.8778 174.273 110.434 237 239 255
93.3305 174.579 110.704 229 234 255
106.892 124.238 123.021 240 241 255
24.4962 65.7793 114.617 185 207 255
65.7839 101.192 112.664 213 225 255
99.1465 87.9453 116.09 255 231 211
93.8955 174.28 110.417 230 234 255
128.769 131.873 116.354 255 240 226
105.86 181.414 119.03 205 220 255
106.779 97.07 106.731 230 234 255
176.611 22.3679 101.545 188 209 255
51.8696 145.693 113.772 188 209 255
27.5422 159.639 115.734 199 216 255
60.8257 29.5692 102.737 225 232 255
134.927 18.2934 94.5001 193 213 255
162.446 49.3292 116.38 205 220 255
121.918 185.216 116.744 193 212 255
142.149 141.048 104.845 201 217 255
135.126 86.7774 115.435 242 241 255
93.8707 174.271 110.442 226 232 255
71.986 109.678 112.054 195 214 255
92.3057 174.47 111.663 255 252 248
74.8939 178.971 116.987 216 227 255
107.264 192.898 109.548 199 216 255
107.172 141.754 104.863 211 224 255
93.8805 174.274 110.432 184 207 255
126.578 110.034 110.015 255 232 214
94.36 174.198 110.038 255 227 205
139.277 35.5901 117.22 204 219 255
76.4908 145.283 114.051 193 213 255
93.4326 23.3729 107.178 213 225 255
107.096 117.223 111.877 255 209 172
101.691 101.535 101.99 254 248 255
24.9638 71.6371 116.849 198 216 255
93.3286 173.938 113.613 255 175 107
145.664 120.007 92.7032 255 243 232
205.498 45.4327 111.984 195 214 255
200.923 29.6368 108.993 203 218 255
106.155 106.592 130.267 213 225 255
68.1021 131.123 115.893 196 215 255
77.6121 26.082 103.685 204 219 255
93.8683 174.27 110.445 191 211 255
124.782 122.864 116.263 255 238 223
91.6812 179.805 111.669 186 208 255
59.4188 0.94538 133.665 218 228 255
110.828 97.5758 125.148 255 236 219
120.271 104.684 111.289 229 234 255
114.634 149.082 102.078 250 246 255
139.067 68.8613 134.17 231 235 255
146.827 153.257 111.262 212 224 255
139.415 81.8487 125.542 199 216 255
112.791 124.949 120.813 246 244 255
120.969 109.477 99.9474 227 233 255
93.8691 174.276 110.445 255 238 224
170.546 96.6711 108.5 191 211 255
100.957 130.626 122.2 243 242 255
93.5741 173.533 110.187 199 216 255
40.4418 112.363 130.039 255 254 250
113.913 173.677 114.65 200 217 255
93.8996 174.281 110.414 186 208 255
124.787 83.7337 111.698 203 219 255
148.589 89.8952 108.262 201 218 255
42.4473 76.2731 82.2567 208 222 255
136.452 89.3442 117.894 210 223 255
93.8826 174.275 110.43 191 211 255
103.331 110.576 108.327 199 216 255
83.5802 115.648 113.763 255 191 139
73.22 169.565 107.26 199 216 255
130.771 174.439 113.082 193 212 255
109.618 29.4948 112.672 201 218 255
138.247 17.2106 109.25 201 217 255
108.527 113.317 111.248 255 241 229
68.8595 100.75 114.363 201 217 255
106.668 93.2826 121.577 215 226 255
104.885 122.256 109.456 255 211 176
114.161 106.031 113.832 204 220 255
108.459 108.104 114.256 207 221 255
113.12 151.885 132.112 215 226 255
92.9384 174.281 111.37 255 244 233
164.389 141.796 120.595 187 209 255
140.094 143.584 119.34 186 208 255
110.185 125.026 96.4128 255 142 29
15.2326 107.226 119.499 193 212 255
129.678 79.0223 93.5929 210 223 255
100.943 137.638 110.646 217 227 255
93.8838 174.275 110.429 212 224 255
162.827 101.563 120.284 179 204 255
143.519 80.0266 127.547 255 242 230
117.697 90.1961 115.034 208 222 255
102.766 126.816 128.42 209 222 255
119.272 83.3699 119.014 255 238 224
110.728 20.0017 107.062 186 208 255
118.301 75.9518 122.118 211 223 255
63.2779 121.502 108.978 182 205 255
91.6491 48.7311 114.284 255 243 232
102.686 174.185 105.257 212 224 255
93.4087 175.499 110.651 183 206 255
122.775 133.381 107.919 255 251 255
104.511 115.664 117.398 255 232 214
118.7 85.3413 91.9804 255 226 204
117.581 129.462 100.213 212 224 255
129.02 76.5746 124.402 255 234 216
99.3637 130.853 110.864 243 242 255
77.392 147.841 112.426 183 206 255
93.9726 174.317 110.384 219 228 255
127.631 104.743 113.704 255 204 163
125.86 82.5914 104.369 208 222 255
