ply
format ascii 1.0
element vertex 1341
property float x
property float y
property float z
property uchar red
property uchar green
property uchar blue
end_header
140.65 118.93 117.95 220 229 255
92.2367 213.379 113.539 185 207 255
211.975 67.0745 114.268 193 213 255
43.6061 88.4851 110.027 191 211 255
168.152 120.78 114.14 255 230 210
148.925 146.382 108.812 255 209 173
101.457 137.509 115.466 255 243 232
28.0116 106.016 115.518 195 214 255
90.3194 90.8855 118.341 255 223 197
182.437 108.621 111.241 233 237 255
141.832 160.419 112.254 190 211 255
138.431 118.185 117.647 231 235 255
99.3528 74.5886 115.303 254 249 255
17.2627 130.059 113.627 210 223 255
116.636 81.1158 114.385 238 239 255
75.8149 124.631 103.622 255 233 214
96.9828 86.0025 101.927 255 227 204
165.198 186.659 112.585 196 214 255
95.8778 23.4237 114.192 193 212 255
81.2848 93.4808 108.06 255 249 255
139.327 79.3288 116.15 202 218 255
38.066 129.477 111.772 194 213 255
179.911 41.1022 113.503 185 207 255
78.7802 86.3623 113.76 255 231 212
130.086 34.7776 114.275 190 211 255
145.61 43.0189 111.974 193 213 255
158.857 97.7813 118.206 208 222 255
56.1412 125.939 115.169 190 210 255
145.817 108.317 102.525 200 217 255
133.619 156.718 117.8 204 219 255
84.2817 108.089 99.1462 198 216 255
25.1403 47.1697 114.796 193 212 255
111.991 48.4835 117.742 191 211 255
96.1276 50.6558 111.892 207 221 255
132.357 134.004 107.736 231 235 255
169.431 96.0883 107.846 206 220 255
181.4 156.436 109.979 184 207 255
83.0772 26.8771 112.159 179 203 255
110.806 105.752 133.525 194 213 255
36.8876 102.411 114.564 202 218 255
121.004 156.739 121.631 205 220 255
115.948 126.934 96.0194 221 229 255
100.868 160.415 106.24 210 223 255
107.786 94.5986 100.397 251 247 255
155.801 162.252 116.344 203 219 255
117.561 163.714 117.422 251 247 255
150.112 195.339 111.758 204 219 255
117.354 158.562 108.356 190 210 255
80.3495 167.958 112.831 183 206 255
136.42 25.5267 110.86 190 211 255
70.2395 127.36 102.055 211 224 255
151.381 61.1952 116.397 189 210 255
109.373 168.385 108.752 217 227 255
158.733 120.231 114.123 247 244 255
115.145 83.1372 121.676 255 242 229
96.5341 150.616 106.234 244 243 255
61.8077 90.743 106.177 217 227 255
79.97 84.4223 103.984 224 231 255
49.8947 53.3783 109.451 188 209 255
155.842 72.4517 114.908 213 225 255
164.633 69.4121 112.068 194 213 255
105.066 122.548 97.4013 255 224 199
144.777 84.8909 103.189 255 213 180
122.856 189.138 108.24 195 214 255
101.679 219.928 114.211 188 209 255
85.8351 139.094 114.43 255 235 218
78.4439 78.2735 118.365 197 215 255
68.1077 56.865 115.313 203 218 255
152.509 60.4401 109.081 211 223 255
138.039 144.925 117.215 255 245 235
113.793 79.6335 109.389 255 210 175
145.633 100.557 114.471 215 226 255
161.323 51.6281 116.332 179 204 255
44.4393 79.0751 112.465 186 208 255
106.886 122.212 127.094 255 237 222
126.622 148.296 123.56 255 224 199
66.4858 144.83 116.356 226 232 255
122.897 196.157 112.179 193 213 255
156.402 138.943 120.068 210 223 255
105.121 88.9755 111.868 255 235 219
96.657 137.963 124.613 214 225 255
99.2701 118.36 98.0875 255 249 242
152.897 94.9426 103.931 206 220 255
153.217 106.989 107.651 255 254 250
135.926 69.3461 119.693 197 215 255
162.942 107.9 105.409 204 219 255
103.039 127.57 113.324 241 241 255
98.0552 101.585 113.354 214 225 255
117.746 98.4891 118.037 225 232 255
62.4222 112.449 119.117 225 232 255
93.9746 176.439 111.023 194 213 255
92.5717 137.175 102.002 255 233 215
80.153 135.349 119.725 235 237 255
81.9251 72.2368 114.878 205 220 255
33.5867 185.789 110.755 191 211 255
90.8214 156.58 111.679 224 231 255
106.455 58.4487 114.177 227 233 255
163.95 127.343 113.978 203 219 255
133.675 112.853 128.096 226 232 255
101.94 43.6672 116.508 194 213 255
153.058 128.405 107.322 214 225 255
133.436 149.276 102.606 221 230 255
131.052 50.4879 110.199 195 214 255
106.897 81.2753 113.993 218 228 255
88.805 56.8862 112.295 196 215 255
156.995 143.804 119.498 240 241 255
18.8323 77.968 114.795 189 210 255
116.24 66.6342 120.987 209 222 255
43.0109 71.6601 114.904 214 225 255
93.6197 136.015 121.836 211 224 255
120.527 60.4187 111.056 232 236 255
123.648 144.787 103.623 205 220 255
139.638 108.103 124.094 242 241 255
206.593 130.535 114.814 217 227 255
120.17 78.5944 112.449 190 211 255
116.873 183.442 106.889 198 216 255
133.42 173.141 110.266 215 226 255
132.812 170.021 116.336 195 214 255
93.0733 175.754 111.556 210 223 255
93.2207 67.5451 113.334 213 224 255
134.436 176.946 117.067 197 215 255
37.7025 126.711 112.708 199 216 255
160.787 44.7508 112.633 183 206 255
67.6107 137.707 107.785 219 228 255
137.407 76.0344 121.698 255 245 236
130.192 171.9 110.723 198 215 255
86.5756 185.645 110.584 231 235 255
123.485 152.426 118.218 201 218 255
183.475 156.468 109.738 196 215 255
125.23 121.593 125.032 213 225 255
114.972 111.337 102.067 194 213 255
122.369 113.739 93.4215 255 160 72
118.014 133.158 113.539 255 251 245
78.1756 127.224 105.516 255 252 247
30.6727 100.549 111.694 196 214 255
96.9615 125.182 106.774 255 196 149
84.2673 137.324 114.03 255 245 236
115.013 29.3867 111.631 181 205 255
122.074 146.658 112.174 189 210 255
159.778 94.8766 120.335 229 234 255
130.471 106.105 107.698 255 233 214
154.814 145.381 116.786 236 238 255
98.5101 72.3881 113.191 212 224 255
138.399 53.5267 109.777 209 222 255
124.796 105.599 101.029 212 224 255
92.339 66.2423 115.676 255 225 200
164.218 183.312 114.579 179 204 255
120.346 126.539 121.494 219 228 255
145.441 161.58 114.082 195 214 255
189.12 152.885 113.399 193 212 255
146.878 125.699 117.184 221 230 255
195.399 173.98 110.395 198 215 255
91.033 173.349 110.261 234 237 255
194.574 133.064 111.384 194 213 255
17.8404 155.813 110.682 195 214 255
109.221 128.992 123.914 255 255 252
61.6636 114.642 109.813 193 212 255
167.166 59.3413 114.161 195 214 255
70.4357 72.8998 112.237 208 222 255
143.04 86.0426 109.214 205 220 255
42.2563 118.386 109.522 182 206 255
92.6878 102.878 126.775 193 213 255
89.4702 90.2658 106.063 243 242 255
81.7934 81.7384 105.321 252 247 255
163.138 125.027 106.882 255 246 237
139.995 159.328 119.836 198 216 255
87.2421 150.351 117.433 201 218 255
158.17 133.622 111.578 255 207 169
140.521 171.356 118.136 255 253 249
126.915 91.3644 111.161 255 70 0
32.8196 58.7049 110.442 225 232 255
74.5166 99.9544 113.631 199 216 255
169.799 68.3876 109.456 205 220 255
139.506 149.472 105.18 214 225 255
127.495 216.385 111.636 195 214 255
100.191 24.18 112.837 191 211 255
173.236 79.2308 109.948 203 218 255
96.158 64.506 109.307 255 244 234
118.911 73.4403 115.577 255 195 146
111.489 109.171 99.2914 255 242 230
166.219 27.6568 111.282 194 213 255
110.204 170.287 112.148 196 214 255
98.5773 109.217 118.105 222 230 255
201.755 84.1201 110.73 185 208 255
187.187 113.481 109.729 188 209 255
51.4722 126.52 113.099 201 217 255
31.0399 176.57 110.079 182 206 255
136.693 146.186 123.416 215 226 255
57.6881 107.765 104.636 255 218 189
90.3003 217.492 113.526 184 207 255
127.997 62.8593 110.114 194 213 255
144.144 148.685 114.769 208 222 255
105.285 119.012 119.612 228 234 255
118.378 97.4283 128.972 221 229 255
115.48 87.7222 106.185 235 238 255
36.4054 129.932 112.679 199 216 255
101.373 133.179 112.285 216 227 255
69.993 85.3691 121.13 213 225 255
200.571 131.887 114.08 197 215 255
165.16 149.894 118.633 195 214 255
100.979 196.979 114.749 192 212 255
85.2415 110.506 110.421 255 204 164
139.928 165.214 109.591 213 225 255
61.5632 176.7 111.055 209 223 255
137.256 29.4546 115.513 189 210 255
100.521 120.65 106.758 204 220 255
129.855 121.236 111.081 219 228 255
91.3068 89.1435 112.201 248 245 255
155.049 94.4852 112.839 216 227 255
177.666 145.684 114.882 191 211 255
122.949 84.1777 107.209 255 237 222
64.7775 169.197 115.421 217 227 255
152.728 125.689 117.241 199 216 255
198.874 84.2132 113.17 193 213 255
61.861 169.133 115.664 213 225 255
126.82 60.2711 117.538 199 216 255
45.7421 156.418 112.758 207 221 255
87.8245 53.8054 118.164 198 216 255
74.2524 146.522 109.909 255 244 233
68.0873 97.8533 121.655 226 233 255
19.9519 133.004 113.539 184 207 255
49.248 110.518 111.748 222 230 255
109.699 94.3254 125.954 216 226 255
92.9701 115.909 121.043 255 237 221
45.583 136.039 116.162 189 210 255
5.68109 115.031 113.986 188 210 255
40.2032 121.747 113.805 196 214 255
56.7345 79.6466 117.977 209 223 255
66.6034 140.773 112.037 194 213 255
98.8595 105.853 114.08 255 230 210
94.4095 81.4275 111.167 222 230 255
76.8602 145.525 110.042 229 234 255
94.9324 175.527 112.67 255 242 230
153.136 173.745 111.788 222 230 255
91.6258 165.462 107.56 209 223 255
106.15 143.621 117.802 206 221 255
167.736 69.2859 112.583 255 254 250
142.158 59.681 106.802 214 225 255
93.2621 110.663 127.472 255 194 145
76.3707 105.555 114.363 214 225 255
116.412 72.4007 104.495 243 242 255
114.693 99.5127 124.515 255 250 243
127.242 155.293 105.685 229 234 255
159.044 67.5799 116.882 197 215 255
173.282 112.061 117.471 221 229 255
50.9561 167.567 110.759 191 211 255
104.754 80.7277 104.709 213 225 255
120.423 219.203 110.101 193 212 255
141.081 127.365 109.953 222 230 255
70.91 20.0342 112.604 190 210 255
151.603 143.423 120.789 215 226 255
141.762 121.647 123.483 202 218 255
152.477 100.335 123.466 254 248 255
58.4682 127.414 111.598 203 219 255
50.3837 135.299 108.086 196 214 255
149.537 209.824 111.517 185 207 255
86.154 15.0426 111.596 183 206 255
60.7351 129.902 113.53 208 222 255
69.5003 49.7202 110.502 207 221 255
103.749 101.51 94.606 255 214 181
106.048 87.7023 104.712 201 217 255
141.01 168.626 114.361 210 223 255
67.4371 114.574 105.046 255 226 203
205.763 108.521 113.257 196 214 255
65.7784 98.3732 115.41 205 220 255
170.837 48.7217 109.651 195 214 255
78.6886 108.296 113.833 187 209 255
97.7187 133.064 102.068 255 154 59
90.7445 99.17 119.675 227 233 255
31.1667 99.6568 111.681 198 215 255
201.845 129.023 111.611 220 229 255
60.0635 62.9641 109.477 181 205 255
147.764 166.864 112.794 186 208 255
126.169 160.391 116.561 221 230 255
26.2667 63.3639 115.177 200 217 255
88.8802 94.1746 124.776 227 233 255
160.909 89.5997 118.591 237 239 255
53.7973 69.7906 108.93 205 220 255
107.74 45.5349 114.762 188 210 255
98.2636 22.9754 114.825 202 218 255
131.152 118.954 124.391 231 235 255
47.9702 75.8927 109.112 195 214 255
42.3372 72.7796 112.915 193 213 255
119.83 103.049 96.927 255 230 210
75.1641 127.932 122.941 255 228 206
93.8725 150.865 103.625 210 223 255
88.7294 53.839 110.744 197 215 255
219.167 90.0116 114.556 181 205 255
94.8315 100.93 110.971 255 195 147
45.3389 177.187 111.513 192 212 255
109.166 11.6607 111.937 198 215 255
14.8916 115.872 113.319 187 209 255
23.093 174.192 113.348 198 216 255
171.949 33.1518 113.303 179 203 255
162.93 113.526 109.453 219 228 255
162.483 146.958 113.634 255 246 237
115.95 213.059 112.423 209 222 255
113.421 113.056 101.189 255 242 230
107.84 142.533 112.557 255 241 229
45.2097 72.5165 115.206 190 211 255
83.4569 116.774 104.914 206 221 255
197.518 51.3577 111.984 183 206 255
40.4404 93.0956 110.607 202 218 255
131.489 65.6914 113.812 205 220 255
67.6834 66.4882 112.761 208 222 255
127.324 38.8748 114.107 216 226 255
194.111 116.801 110.308 189 210 255
153.358 116.946 122.905 190 211 255
72.3004 58.9305 110.352 199 216 255
107.694 63.1888 111.126 195 214 255
194.817 76.4435 110.082 196 214 255
51.8005 68.5631 110.546 208 221 255
142.193 127.122 108.925 221 230 255
129.494 123.845 111.634 203 219 255
151.916 121.436 110.107 255 250 255
79.3304 145.547 107.237 212 224 255
77.0219 76.5268 120.073 206 221 255
164.125 95.684 104.907 223 231 255
133.741 55.0844 113.404 240 241 255
135.164 81.5235 122.426 255 239 225
28.0535 121.212 111.348 189 210 255
112.991 72.9169 120.249 241 241 255
90.6583 170.939 116.999 218 228 255
108.432 120.938 101.233 210 223 255
15.1157 88.0108 113.436 193 212 255
74.1672 164.424 117.484 196 214 255
37.1872 81.3469 111.056 217 227 255
84.4471 108.965 113.998 255 244 234
173.841 132.261 114.798 204 219 255
71.6497 101.956 117.948 212 224 255
109.008 126.735 118.01 255 245 236
70.2869 134.493 108.756 255 249 242
100.753 121.633 105.119 255 251 255
84.7688 71.2785 115.232 198 215 255
124.497 104.821 123.343 255 251 255
183.489 131.502 109.427 202 218 255
89.4873 89.7391 117.077 215 226 255
119.14 166.373 119.153 201 217 255
124.2 101.027 125.812 255 231 211
68.3011 100.519 108.025 214 226 255
85.5007 162.828 117.12 202 218 255
103.3 168.069 108.355 201 217 255
109.803 99.9421 105.293 255 216 185
129.401 135.981 105.824 255 244 233
154.915 147.885 119.585 253 248 255
119.294 120.329 119.63 255 248 241
103.343 110.419 93.0716 255 209 173
110.207 48.5104 107.347 194 213 255
146.199 95.6121 110.452 255 241 228
32.1788 97.9794 113.686 200 217 255
162.116 87.5169 118.374 228 233 255
63.0332 67.279 111.118 239 240 255
127.524 67.9275 120.261 207 221 255
78.8604 147.409 111.009 206 221 255
127.479 124.317 97.4497 255 220 193
47.9998 26.1538 110.519 181 205 255
105.217 83.9986 99.4013 245 243 255
140.757 90.7313 106.863 228 234 255
121.478 197.581 113.314 204 219 255
65.5453 188.555 112.011 199 216 255
139.471 96.6833 120.217 225 232 255
220.828 124.981 110.461 188 209 255
111.14 149.313 110.081 235 238 255
77.0775 65.6244 111.656 238 239 255
49.464 66.4965 113.891 191 211 255
125.127 138.927 122.195 202 218 255
74.962 131.038 120.966 255 247 239
91.4644 65.9525 118.172 204 219 255
126.867 27.2747 114.79 204 219 255
123.34 46.2983 114.279 255 240 226
165.935 53.5529 112.758 202 218 255
97.1135 92.5679 121.094 220 229 255
135.662 142.327 105.471 240 241 255
44.7916 138.386 111.233 215 226 255
128.958 114.204 104.407 255 248 240
175.099 29.7888 111.367 202 218 255
145.706 140.818 111.337 226 232 255
72.3902 110.48 122.174 209 222 255
64.1213 60.2541 113.832 219 228 255
145.991 131.971 110.069 255 237 222
77.6704 108.258 113.094 255 250 244
132.235 168.599 105.816 188 209 255
77.2227 11.0122 114.01 185 208 255
77.7588 164.789 116.876 208 222 255
120.477 113.603 128.341 255 252 247
131.546 59.1503 115.48 203 219 255
83.9449 111.274 104.168 255 190 136
138.352 69.9049 111.967 255 240 227
87.7482 168.474 118.153 255 251 255
152.012 113.964 113.643 255 254 251
143.694 147.049 108.512 211 224 255
108.616 139.916 121.211 255 248 240
136.504 50.2226 112.844 211 224 255
101.748 113.095 102.328 227 233 255
118.035 121.284 111.407 208 222 255
76.1458 8.50314 110.322 191 211 255
102.461 54.3629 108.032 217 227 255
96.3681 76.4555 104.966 199 216 255
105.849 133.18 125.97 230 235 255
48.9125 87.184 112.202 204 219 255
105.68 89.5736 108.704 226 233 255
83.5467 158.122 114.27 194 213 255
162.29 145.778 119.146 234 237 255
175.982 114.326 111.403 195 213 255
107.635 67.2287 103.084 221 229 255
111.733 121.507 98.9869 255 179 115
87.1001 68.5232 114.492 201 218 255
77.113 48.2647 111.256 255 247 238
172.555 120.089 108.688 255 250 243
67.5433 50.8371 114.23 212 224 255
121.905 94.1488 118.42 249 245 255
86.8525 138.682 121.487 255 227 205
123.882 99.0138 127.012 255 236 220
60.3706 65.1294 110.196 183 206 255
118.321 42.8739 112.788 197 215 255
159.165 67.4304 110.45 196 214 255
146.418 134.162 116.579 221 230 255
120.288 221.003 111.843 184 207 255
132.308 26.9915 109.161 192 212 255
204.888 84.8905 110.839 187 209 255
133.761 119.738 116.222 255 0 0
136.047 85.9892 115.449 204 219 255
78.3 132.609 108.13 190 211 255
126.726 70.1826 104.413 190 210 255
116.581 86.3641 126.836 236 238 255
122.787 108.114 95.7609 255 240 226
62.3604 93.8447 105.673 248 245 255
187.104 164.648 111.737 188 209 255
129.966 77.4034 114.017 231 236 255
115.161 201.53 110.89 202 218 255
172.062 43.5647 112.42 182 206 255
137.396 109.604 99.5079 241 241 255
44.8123 89.5758 109.098 201 217 255
121.162 107.899 132.165 214 226 255
151.203 127.489 112.311 255 175 106
108.982 114.726 125.481 255 236 220
180.779 102.448 111.914 200 217 255
136.26 158.913 111.358 247 244 255
173.08 200.726 113.814 194 213 255
54.3946 112.266 109.87 193 213 255
124.125 150.395 112.37 222 230 255
107.865 59.6748 104.356 246 244 255
189.305 103.263 114.037 188 209 255
111.693 95.9601 96.8677 216 226 255
193.925 109.858 115.305 196 214 255
134.724 161.683 114.558 255 253 248
53.9912 87.0495 118.659 210 223 255
107.314 107.934 96.9691 255 198 152
44.2861 64.7991 111.406 195 214 255
129.79 86.7698 119.097 255 244 233
138.529 130.49 103.975 255 228 207
86.7872 150.598 108.981 198 216 255
116.883 84.8643 101.778 255 248 241
53.9854 23.7185 114.153 195 214 255
124.057 98.8492 104.123 255 243 232
181.954 185.985 114.136 187 209 255
128.919 132.034 110.113 209 222 255
95.5312 98.846 108.886 255 221 195
177.828 65.7314 113.713 213 225 255
115.436 68.7629 121.191 226 232 255
105.121 119.29 133.263 209 222 255
133.482 147.487 120.486 255 217 187
199.495 167.386 113.842 185 207 255
62.4923 112.11 108.084 193 212 255
88.8949 149.76 104.238 235 238 255
129.864 103.631 99.8311 191 211 255
125.561 142.416 112.125 242 242 255
107.343 133.289 127.563 249 245 255
85.1485 139.741 101.07 209 222 255
58.4414 58.6608 109.518 242 241 255
116.263 145.956 116.942 255 238 224
83.0636 207.886 113.314 205 220 255
144.135 126.172 108.546 216 227 255
130.035 102.036 98.6154 255 221 193
100.419 112.089 114.628 215 226 255
70.3054 114.755 113.569 209 222 255
128.434 183.339 115.589 193 213 255
124.45 83.2934 120.18 208 221 255
167.935 172.275 114.478 199 216 255
164.669 105.395 118.029 191 211 255
109.399 158.003 121.851 255 246 237
90.4738 79.4357 112.234 205 220 255
94.9205 190.708 111.806 195 214 255
174.091 197.886 112.494 179 204 255
128.151 137.978 99.1619 212 224 255
150.36 171.347 115.738 203 219 255
42.9055 123.664 115.128 212 224 255
157.059 115.166 107.348 255 252 247
67.0349 142.761 118.332 207 221 255
54.6892 161.408 108.796 183 206 255
60.574 159.529 114.323 255 239 225
107.106 159.07 103.027 255 253 248
105.326 148.563 107.674 197 215 255
151.29 54.7919 112.981 211 223 255
143.831 69.3566 117.337 199 216 255
116.171 146.185 102.063 196 214 255
56.3349 64.3225 109.068 205 220 255
135.006 152.77 118.452 243 242 255
152.833 90.0796 105.43 213 224 255
148.165 149.143 117.966 208 221 255
141.38 127.765 103.207 255 241 229
89.9242 205.721 112.692 179 204 255
154.854 107.226 112.688 217 227 255
187.363 109.11 109.461 204 219 255
153.77 117.975 109.87 252 247 255
166.017 132.32 109.864 255 221 193
35.3503 102.645 114.347 204 219 255
36.1389 149.233 112.458 226 232 255
96.4829 110.523 114.711 255 113 0
71.8252 100.634 110.667 255 254 251
151.616 181.806 111.569 193 212 255
122.256 124.013 93.8942 255 238 224
138.159 96.9586 113.666 213 225 255
107.374 72.24 114.955 255 255 251
155.337 160.508 109.012 231 235 255
66.2515 96.2684 120.592 192 212 255
55.0458 151.831 107.94 202 218 255
138.384 196.397 111.663 188 209 255
66.9472 99.2775 109.666 255 252 246
39.2896 46.9465 114.132 190 211 255
150.017 83.6347 108.424 241 241 255
20.1462 100.817 110.769 194 213 255
161.798 120.123 121.403 211 224 255
151.789 48.5808 108.268 198 215 255
173.488 178.34 114.168 204 219 255
90.3024 125.542 117.276 255 229 207
121.01 98.5522 102.923 212 224 255
94.9435 74.9415 123.417 252 247 255
120.744 191.052 115.644 185 208 255
125.709 44.5129 108.709 203 219 255
60.6688 135.454 107.682 190 211 255
125.577 162.662 107.573 200 217 255
93.6924 77.3159 121.207 255 224 199
142.059 112.797 103.039 188 209 255
47.8481 137.892 116.254 215 226 255
118.572 109.392 129.677 255 235 218
131.781 162.839 106.032 196 214 255
161.853 112.837 102.983 223 231 255
87.435 141.638 124.388 255 250 243
169.447 195.342 114.532 204 219 255
165.454 129.092 107.956 216 226 255
67.9609 87.2868 116.44 197 215 255
91.3575 130.343 118.355 255 197 150
89.5086 84.1893 118.333 239 240 255
90.7598 82.8588 121.386 187 209 255
134.2 86.6527 112.435 255 198 151
99.7959 71.9877 105.732 255 249 255
169.065 123.465 114.297 216 226 255
124.812 207.64 113.148 189 210 255
45.1433 115.577 113.963 197 215 255
125.057 216.291 114.372 183 206 255
107.484 65.5684 118.369 239 240 255
141.589 130.936 106.568 255 206 167
182.305 47.8916 112.154 192 212 255
56.6149 100.352 110.424 196 215 255
36.2951 184.302 114.414 185 208 255
198.822 72.4821 111.946 182 206 255
134.191 168.299 116.011 202 218 255
119.524 81.2517 111.665 217 227 255
127.419 35.0273 116.033 243 242 255
89.0553 61.0194 119.134 229 234 255
31.7279 116.606 110.229 218 228 255
54.8629 119.391 111.16 227 233 255
150.381 153.82 119.527 196 214 255
183.104 193.587 109.825 192 212 255
71.5349 48.6625 110.403 201 217 255
153.554 108.32 115.946 255 250 243
212.357 92.3711 113.563 185 208 255
107.48 25.3596 109.148 201 218 255
109.756 69.5742 105.576 237 239 255
144.188 82.0628 115.788 194 213 255
70.4841 164.94 114.959 213 225 255
57.1696 124.37 113.998 191 211 255
87.5692 110.429 124.876 255 245 236
116.178 88.9804 103.323 255 224 200
140.298 137.286 116.483 255 220 193
186.43 180.455 112.532 184 207 255
200.687 81.2016 111.78 187 208 255
111.758 57.5485 105.824 195 213 255
133.987 95.1981 121.448 255 216 186
138.633 116.086 99.9583 255 232 213
141.479 102.797 101.925 255 214 182
94.1747 25.6542 110.624 193 213 255
76.9897 102.914 103.408 213 225 255
167.769 108.56 119.804 214 225 255
110.115 91.8729 108.75 255 219 191
114.273 111.012 96.8509 205 220 255
143.24 179.237 113.172 204 219 255
84.9321 96.8368 111.786 226 232 255
102.59 76.897 114.86 224 231 255
139.246 96.238 119.609 255 249 241
171.141 73.2049 110.52 196 214 255
118.708 84.4608 118.533 255 203 161
67.1519 107.724 107.263 221 229 255
35.4535 130.909 112.811 202 218 255
137.519 70.5752 104.458 202 218 255
161.695 133.807 111.854 234 237 255
90.478 66.6712 110.542 205 220 255
68.32 92.8757 117.656 217 227 255
57.2338 108.952 106.37 204 219 255
191.231 151.837 114.468 193 213 255
99.025 200.952 114.484 182 205 255
191.459 62.3119 112.704 190 211 255
128.727 160.283 104.984 255 249 255
190.598 80.3437 113.812 195 214 255
77.0883 117.93 107.527 255 250 244
97.7584 114.172 93.6627 223 231 255
105.626 61.1203 105.983 255 249 242
110.535 38.3646 112.247 219 228 255
167.573 52.309 112.811 255 206 166
38.2894 102.62 113.078 187 209 255
65.1095 39.7125 112.527 192 212 255
139.336 71.8089 110.535 255 251 244
95.9866 206.894 110.946 215 226 255
188.456 49.4125 110.376 190 211 255
44.1996 178.069 111.17 192 212 255
161.722 139.497 115.795 196 214 255
49.5444 80.8733 109.087 207 221 255
128.081 45.593 108.61 232 236 255
95.8287 191.491 113.891 192 212 255
142.424 104.707 99.5363 255 237 221
58.9312 116.094 112.98 217 227 255
148.909 34.7475 109.267 202 218 255
131.036 130.2 113.216 255 245 236
164.745 172.924 114.674 195 214 255
178.773 125.369 110.797 205 220 255
181.325 40.0689 112.177 189 210 255
172.122 132.352 106.634 220 229 255
77.8855 124.101 118.346 255 209 172
89.1466 90.8649 105.359 255 216 185
121.882 141.042 124.719 206 221 255
43.6696 60.854 109.237 192 212 255
107.572 102.076 108.8 216 227 255
115.567 35.987 115.899 191 211 255
93.2159 115.238 109.559 243 242 255
192.806 109.798 114.373 200 217 255
205.796 69.4825 111.364 191 211 255
88.8302 105.453 114.877 255 194 144
104.556 187.071 115.245 188 209 255
98.0717 125.482 112.512 255 192 141
136.018 67.559 115.7 253 248 255
87.9756 143.493 122.308 214 225 255
201.148 160.749 110.652 187 209 255
82.7535 74.2273 109.775 215 226 255
104.139 168.51 118.518 195 214 255
133.477 124.045 114.697 227 233 255
112.797 39.1847 112.41 186 208 255
97.125 110.118 98.1255 255 223 198
183.371 176.464 115.059 192 212 255
117.658 140.469 122.715 255 250 255
198.466 93.1718 109.199 188 210 255
164.238 154.447 107.496 205 220 255
129.271 88.9218 101.506 255 225 202
189.549 104.785 113.816 196 214 255
120.794 55.7898 117.969 204 219 255
125.185 89.6657 116.439 255 238 223
17.4658 58.9353 114.643 193 212 255
140.328 113.308 123.242 255 216 185
66.0452 69.5019 106.829 230 234 255
163.91 71.83 118.474 255 253 248
131.387 64.0556 110.18 192 212 255
94.3346 45.7547 108.174 205 220 255
135.766 115.807 100.388 255 239 224
172.411 37.9718 114.552 183 206 255
180.94 115.585 112.062 186 208 255
140.494 54.6388 115.739 185 207 255
120.938 98.67 126.908 255 238 223
69.2344 76.5238 113.003 223 230 255
48.9768 134.757 113.364 208 222 255
97.3971 123.577 116.097 255 231 211
90.0631 9.01713 112.476 179 204 255
168.303 106.04 112.598 191 211 255
180.093 136.353 107.361 195 214 255
177.728 50.5632 113.724 186 208 255
143.822 25.4852 114.023 195 214 255
25.9783 103.878 112.985 193 213 255
144.873 136.94 103.51 225 232 255
43.0153 106.837 117.166 187 209 255
104.976 139.329 119.095 208 222 255
141.979 179.229 114.032 207 221 255
150.942 10.0645 112.796 177 202 255
102.801 88.3474 122.154 229 234 255
109.432 146.772 119.497 255 219 190
129.796 115.642 111.098 203 218 255
156.605 84.5741 115.708 241 241 255
84.9879 132.174 112.189 218 228 255
107.446 147.425 104.474 255 250 244
137.093 141.105 112.263 203 219 255
106.768 158.155 117.756 255 252 248
122.507 209.979 110.973 181 205 255
59.8417 184.426 110.22 193 213 255
77.8945 74.4529 120.193 215 226 255
157.545 162.893 106.99 194 213 255
36.7532 102.805 115.281 200 217 255
92.8822 94.3021 98.5109 255 185 126
203.585 106.739 112.881 197 215 255
90.0345 87.0876 125.453 208 222 255
115.329 93.0768 115.148 203 219 255
174.273 138.921 111.781 255 243 231
72.6732 114.08 107.803 212 224 255
102.122 107.613 131.6 255 254 250
97.9119 179.554 113.414 204 220 255
100.217 106.976 110.271 255 171 97
93.3585 81.0495 114.823 199 216 255
63.529 160.653 116.177 209 223 255
141.511 107.947 124.68 200 217 255
117.36 79.64 101.348 255 249 255
58.555 91.247 108.77 255 238 224
115.784 160.761 108.829 216 226 255
154.701 140.833 115.303 188 209 255
171.181 136.964 117.608 231 235 255
40.8258 114.623 113.725 198 215 255
108.382 120.55 118.907 255 173 101
67.8217 174.239 116.508 202 218 255
120.873 105.04 125.57 255 237 222
144.304 65.2668 117.355 198 216 255
104.08 126.298 123.791 194 213 255
103.033 82.8973 122.34 255 252 247
147.443 111.164 120.214 251 246 255
42.525 174.306 110.062 255 216 185
120.264 165.132 113.232 202 218 255
76.3374 39.7715 110.602 204 219 255
117.359 179.203 117.238 190 210 255
138.991 62.9719 109.27 200 217 255
126.517 138.019 108.765 223 231 255
86.1332 123.062 114.3 255 230 210
60.9093 56.0575 108.927 199 216 255
92.9478 176.013 111.341 202 218 255
129.358 58.5513 109.764 190 211 255
73.4361 79.7338 105.216 207 221 255
118.692 64.2911 118.81 191 212 255
160.628 122.817 106.536 219 229 255
128.327 119.054 111.096 206 221 255
41.8629 57.6083 113.328 193 212 255
81.0084 132.426 122.729 255 212 178
169.906 63.9118 110.142 210 223 255
159.241 199.833 113.473 185 207 255
171.501 115.669 107.966 247 244 255
127.348 111.349 120.24 255 231 212
168.201 167.67 115.193 213 225 255
204.715 100.763 113.402 191 211 255
56.6554 155.715 110.287 210 223 255
57.8373 141.946 111.685 255 235 219
110.906 72.9925 122.197 221 230 255
155.637 80.4533 113.186 198 216 255
84.749 103.054 124.483 247 244 255
100.875 125.024 104.554 205 220 255
127.783 136.261 123.55 255 249 255
75.0544 105.083 110.375 215 226 255
112.754 31.0444 113.232 208 222 255
53.8628 125.143 115.421 201 217 255
190.617 43.7109 111.335 182 206 255
148.617 86.7217 104.375 251 247 255
142.283 86.8897 106.557 235 237 255
167.908 203.991 112.608 219 228 255
92.5255 120.321 97.929 255 250 244
74.5413 106.737 105.307 255 237 223
145.281 109.006 103.204 222 230 255
107.813 178.458 109.971 197 215 255
133.085 55.0064 109.956 180 204 255
81.9519 171.773 117.212 192 212 255
42.0252 143.664 113.53 193 212 255
113.046 120.919 93.4555 234 237 255
111.349 188.913 108.604 188 210 255
144.573 91.2967 103.908 255 251 245
101.482 171.936 109.701 214 225 255
167.337 33.6556 114.389 194 213 255
62.7282 109.805 116.292 229 234 255
44.0254 154.64 114.999 219 228 255
85.9811 156.355 116.937 211 224 255
158.449 62.1428 108.29 204 219 255
183.097 138.764 111.539 207 221 255
103.015 118.715 126.788 255 239 225
196.614 153.431 110.139 211 223 255
90.4763 139.26 124.748 199 216 255
57.0407 136.516 113.766 201 218 255
122.514 111.139 132.858 224 231 255
93.8668 137.79 122.236 255 252 247
89.4838 58.4128 118.436 193 212 255
86.7445 130.283 108.054 214 225 255
118.375 82.2303 124.572 255 218 188
129.511 149.539 121.256 211 224 255
133.578 84.5481 120.135 255 186 128
190.059 65.0276 113.588 207 221 255
124.464 35.8315 116.339 196 214 255
176.929 90.9834 113.334 189 210 255
148.577 96.1815 120.843 216 226 255
52.5562 137.791 106.511 194 213 255
101.673 62.0174 105.911 215 226 255
80.7888 82.3664 104.566 204 219 255
84.9569 69.0107 118.14 235 238 255
114.749 55.6692 112.054 255 247 238
167.299 201.256 110.665 185 207 255
92.7827 175.115 111.385 207 221 255
60.7085 30.2809 113.703 189 210 255
43.583 74.3347 113.838 186 208 255
156.157 118.912 113.751 209 222 255
144.788 125.193 102.199 255 202 159
131.326 199.004 114.191 191 211 255
97.7392 35.3651 108.946 213 224 255
93.0109 175.287 111.093 195 214 255
156.198 146.318 118.77 233 237 255
111.733 58.571 115.843 255 232 213
173.232 170.768 111.731 197 215 255
161.874 37.371 110.967 191 211 255
145.341 164.139 107.991 255 205 165
171.812 199.563 110.129 186 208 255
147.745 87.5548 102.551 255 236 220
39.6843 140.064 116.875 212 224 255
41.2762 74.9347 111.976 219 228 255
150.97 100.279 122.798 219 228 255
104.393 73.6252 121.339 194 213 255
121.512 128.375 122.378 209 223 255
142.357 138.199 107.568 255 249 255
154.711 107.155 109.249 228 234 255
48.1838 129.634 115.329 193 213 255
43.5874 65.0903 110.803 203 219 255
89.851 74.2893 109.979 219 228 255
172.126 145.871 117.265 200 217 255
64.3006 186.94 114.23 195 214 255
50.8741 193.88 110.844 184 207 255
94.3182 55.3273 110.428 200 217 255
161.053 132.96 111.618 255 251 255
132.731 144.619 113.964 204 219 255
99.7641 176.624 110.073 193 212 255
103.598 42.0378 110.96 184 207 255
159.402 80.0773 118.291 192 212 255
108.396 181.31 110.038 193 213 255
172.049 73.3048 113.978 193 212 255
82.4923 176.831 108.756 206 221 255
209.989 131.704 114.594 185 208 255
58.2515 101.858 116.047 255 246 238
163.404 106.87 111.412 201 218 255
189.045 173.95 111.598 191 211 255
188.635 42.9258 114.666 197 215 255
136.333 65.1962 116.936 209 222 255
88.3468 39.6543 113.243 196 215 255
127.488 44.7025 112.273 212 224 255
62.3842 36.4532 113.479 185 207 255
132.938 5.49343 114.158 186 208 255
108.86 107.967 126.064 243 242 255
44.8553 180.619 113.279 188 210 255
128.575 86.3419 110.433 226 232 255
146.393 80.1262 118.042 216 226 255
81.4837 106.52 105.16 210 223 255
59.3904 140.155 111.714 214 225 255
143.342 173.901 111.133 198 216 255
85.7208 125.137 106.796 207 221 255
92.8056 119.323 126.236 255 195 145
62.2948 110.973 103.649 201 218 255
116.429 122.685 118.873 255 229 208
45.0085 81.2084 108.777 200 217 255
203.14 145.777 114.642 187 209 255
182.079 137.878 110.278 191 211 255
47.32 32.8006 111.846 198 216 255
93.2281 201.772 111.479 208 222 255
83.9666 79.3804 106.521 255 218 188
195.377 100.028 112.54 181 205 255
14.2893 80.5452 114.075 187 208 255
80.5057 8.45291 113.693 198 216 255
69.3224 120.087 118.619 201 218 255
178.694 61.8895 111.637 196 214 255
118.669 108.403 128.197 255 233 216
30.3787 161.595 114.729 186 208 255
69.6979 121.937 102.841 197 215 255
144.386 79.0745 112.475 255 249 255
193.044 62.6446 110.977 188 209 255
76.4669 37.1517 112.456 182 206 255
48.8351 125.925 117.458 201 218 255
58.5154 97.8654 115.859 191 212 255
77.7502 137.989 102.924 194 213 255
123.999 108.283 120.589 238 239 255
138.649 99.0387 102.828 208 222 255
111.705 191.425 114.592 209 222 255
89.0969 146.198 110.096 220 229 255
99.6317 70.8341 111.416 236 238 255
187.34 94.9377 114.506 189 210 255
93.8436 148.868 106.604 198 216 255
125.397 43.966 117.173 213 225 255
171.248 156.176 110.757 206 220 255
68.301 100.128 120.045 199 216 255
108.221 138.635 123.672 255 247 239
148.077 130.981 103.363 202 218 255
105.898 104.403 126.763 255 201 157
127.609 23.8767 113.504 181 205 255
131.858 73.3684 109.67 218 228 255
43.2448 29.5387 111.227 180 204 255
73.9442 131.035 116.117 255 251 255
44.5925 166.677 111.043 249 246 255
124.112 170.477 113.359 200 217 255
157.983 153.712 111.147 189 210 255
74.9444 101.484 106.388 249 245 255
118.887 78.573 116.079 215 226 255
120.954 90.8097 114.778 240 240 255
59.3613 174.331 109.798 217 227 255
62.2335 163.081 113.61 204 219 255
49.6949 98.9392 111.531 206 220 255
114.073 90.2234 128.265 237 239 255
84.4277 132.696 108.261 212 224 255
150.704 115.07 123.283 203 219 255
119.981 137.372 111.699 255 186 128
135.031 168.732 117.697 255 231 211
122.354 130.356 123.057 199 216 255
141.943 11.2553 112.4 186 208 255
136.694 27.2038 111.559 207 221 255
94.4507 163.355 119.185 239 240 255
144.543 113.829 125.214 229 234 255
109.157 51.0798 110.146 216 226 255
129.596 99.6185 122.604 255 234 217
34.1383 57.397 109.983 189 210 255
82.924 78.5989 114.463 253 248 255
140.617 65.621 112.454 211 223 255
26.2911 177.287 113.769 177 202 255
149.377 120.147 123.485 246 244 255
128.741 188.658 113.102 202 218 255
57.5107 160.611 110.142 196 215 255
179.678 77.488 108.061 194 213 255
170.104 75.9114 107.622 190 211 255
26.3232 77.5706 114.49 217 227 255
77.9978 126.653 110.601 255 236 221
134.745 123.13 111.087 241 241 255
106.488 88.5161 101.654 226 232 255
47.4331 49.1328 112.928 201 217 255
183.856 181.826 113.863 189 210 255
78.7119 161.675 113.047 213 225 255
158.642 71.2861 112.854 199 216 255
108.667 90.3341 98.3749 222 230 255
67.0597 13.9163 111.412 183 206 255
121.636 111.337 102.824 255 241 228
91.028 132.247 126.274 255 249 242
100.634 194.725 108.962 202 218 255
123.607 77.0782 105.293 211 224 255
101.703 167.285 116.677 255 223 198
105.955 117.742 128.167 216 226 255
183.711 93.6356 111.737 202 218 255
55.2305 117.679 115.223 202 218 255
213.05 70.4791 115.358 210 223 255
110.751 96.3141 117.996 255 227 204
111.375 64.3775 121.659 201 217 255
85.4379 122.95 124.736 194 213 255
134.276 158.24 115.898 213 225 255
74.0754 107.944 101.336 240 241 255
159.962 129.411 110.414 194 213 255
135.875 135.406 103.259 249 246 255
137.714 9.39788 113.058 187 209 255
141.532 162.777 113.48 230 235 255
101.404 169.106 110.725 218 228 255
125.685 174.365 113.5 215 226 255
153.827 104.333 123.617 207 221 255
145.087 96.0171 110.657 233 236 255
122.579 96.9526 98.906 227 233 255
121.611 127.481 101.726 244 243 255
182.1 190.594 110.498 188 209 255
155.835 31.9944 114.473 178 203 255
159.291 123.306 112.769 192 212 255
86.4119 125.586 104.997 255 187 131
105.624 57.4559 106.683 216 227 255
97.1246 148.649 123.817 197 215 255
141.348 185.011 111.142 191 211 255
124.765 33.8677 112.26 204 219 255
124.609 116.785 114.5 255 253 249
85.572 140.132 108.04 221 229 255
128.489 120.426 104.1 214 225 255
165.682 35.0931 110.44 195 214 255
51.0349 136.014 109.564 204 219 255
31.2801 79.83 113.707 209 222 255
200.206 92.6055 112.67 204 219 255
167.998 204.827 113.273 196 214 255
93.1183 175.624 111.152 235 238 255
53.8776 138.756 118.099 225 232 255
140.729 97.6815 122.676 255 229 209
117.046 166.082 117.23 206 221 255
102.073 138.587 108.601 204 219 255
160.881 155.341 112.761 218 227 255
162.683 76.8699 112.985 216 226 255
66.3892 128.247 119.46 201 217 255
111.751 109.562 97.4913 224 231 255
92.1641 116.2 123.579 208 222 255
193.773 85.0037 113.849 219 228 255
82.3281 151.725 121.124 255 253 248
118.702 82.4607 118.582 235 238 255
63.0404 137.851 110 203 218 255
95.1196 104.601 124.551 212 224 255
103.606 111.928 120.512 255 191 138
119.008 75.0947 123.805 187 208 255
124.578 173.043 109.608 215 226 255
93.5608 108.541 104.271 242 242 255
101.202 5.04187 110.26 192 212 255
111.689 86.2465 112.212 255 245 235
103.707 66.8785 106.828 188 209 255
139.408 82.83 112.889 255 249 255
175.493 201.421 111.993 191 211 255
67.0107 203.045 110.659 190 210 255
92.997 86.9403 106.38 204 219 255
139.346 116.7 111.596 255 198 152
88.6514 93.7634 108.7 255 230 210
127.273 150.233 104.274 235 238 255
124.597 85.3778 112.898 255 244 234
89.2186 62.1051 113.531 197 215 255
122.215 136.019 108.632 201 217 255
103.717 143.514 114.581 242 242 255
119.336 93.4938 113.015 255 215 183
125.164 118.864 126.916 255 240 227
126.767 117.949 112.232 255 185 126
112.352 46.5059 114.944 189 210 255
140.147 62.9193 107.62 229 234 255
98.4286 136.048 98.8044 230 235 255
127.118 118.712 106.591 216 227 255
88.9958 150.471 108.37 255 249 241
173.545 174.586 109.457 197 215 255
65.5853 58.7641 107.585 213 225 255
127.586 159.913 109.887 226 232 255
100.321 103.238 114.731 195 213 255
214.675 93.7006 111.488 182 206 255
126.046 113.774 127.084 255 248 241
125.421 39.448 114.965 195 214 255
130.641 90.9944 109.765 255 234 217
72.0588 68.5269 108.825 204 219 255
64.3997 170.789 112.7 189 210 255
149.656 70.0442 114.819 221 230 255
103.346 163.687 104.02 199 216 255
179.294 63.7676 109.622 194 213 255
80.0941 207.323 113.635 185 207 255
105.936 46.5175 109.648 196 215 255
92.3572 32.9231 114.838 205 220 255
93.1101 175.852 111.556 198 216 255
69.6822 108.005 102.319 235 238 255
126.742 52.8962 118.199 206 220 255
34.8801 98.7514 113.684 187 209 255
161.52 136.528 119.269 250 246 255
115.392 161.778 104.459 202 218 255
47.8209 69.3392 111.622 209 222 255
162.2 183.973 115.292 180 205 255
144.7 59.8482 114.937 204 219 255
108.929 186.322 116.088 191 211 255
176.24 114.056 108.911 203 218 255
83.8667 192.881 113.494 189 210 255
125.275 103.012 112.549 255 126 0
91.3794 98.8312 99.7744 255 250 244
54.1067 33.0922 113.539 189 210 255
92.5827 49.4155 111.013 209 222 255
110.466 116.169 132.525 255 249 255
125.721 84.3868 99.8214 204 219 255
15.2604 111.723 111.031 203 219 255
170.484 59.8344 107.926 185 208 255
67.5606 133.811 105.064 235 237 255
130.687 154.272 102.384 255 245 234
116.836 169.772 106.45 205 220 255
193.798 160.076 114.826 189 210 255
106.254 59.997 119.076 197 215 255
82.6486 55.0154 118.079 231 235 255
105.517 140.571 108.24 228 233 255
93.1901 130.623 122.417 227 233 255
111.232 211.323 111.592 212 224 255
134.853 162.562 120.064 239 240 255
121.541 85.9342 102.607 255 255 251
107.254 45.4671 113.024 185 207 255
15.5488 101.657 114.203 188 210 255
94.3301 49.1872 107.403 255 241 229
91.7707 135.88 101.304 255 242 230
144.615 111.38 122.17 208 222 255
202.172 175.286 114.809 195 214 255
59.8085 192.756 112.763 197 215 255
28.0606 95.6889 109.576 211 224 255
37.6267 59.4608 113.56 189 210 255
35.3986 179.561 110.898 185 208 255
91.3715 150.424 114.87 195 214 255
48.6567 150.147 111.15 221 229 255
22.2355 85.7364 113.114 188 210 255
128.289 12.3974 111.147 182 205 255
101.914 65.192 118.071 205 220 255
114.325 120.201 122.748 249 245 255
89.6772 161.907 113.731 192 212 255
127.515 99.0902 127.881 244 243 255
157.543 195.744 113.626 181 205 255
36.2577 81.3077 114.631 208 222 255
91.602 61.9415 112.825 199 216 255
115.074 121.184 121.595 204 219 255
104.067 120.103 122.344 255 231 211
129.945 77.9576 111.997 228 234 255
112.573 135.98 101.494 255 254 251
71.5996 86.0573 110.644 208 222 255
94.0821 201.485 113.728 203 219 255
121.285 95.9883 125.727 218 228 255
108.046 131.231 110.475 227 233 255
139.57 8.19157 111.539 187 208 255
184.106 101.197 111.94 192 212 255
95.3655 112.224 127.79 213 224 255
138.444 147.148 121.476 207 221 255
186.789 86.8163 109.246 244 243 255
80.4093 44.5034 108.373 189 210 255
7.98821 145.333 113.139 187 209 255
84.4929 7.07559 112.868 180 204 255
70.7377 120.088 118.742 255 249 241
83.8675 157.663 113.834 199 216 255
116.592 60.3148 109.303 208 222 255
145.391 114.275 118.041 237 239 255
105.807 131.575 116.726 255 253 249
81.7751 167.565 107.039 219 228 255
120.359 174.271 109.109 207 221 255
87.2724 82.4279 111.795 255 249 242
115.025 85.093 115.86 216 226 255
70.2845 84.9952 117.654 212 224 255
85.7767 61.4671 119.118 206 220 255
64.2953 93.5687 112.431 238 239 255
205.883 114.768 112.059 193 212 255
138.502 94.5809 124.428 246 244 255
101.851 120.058 99.2739 255 218 189
144.928 20.1676 113.8 196 214 255
89.8215 118.957 113.517 252 247 255
123.434 79.633 115.748 225 232 255
190.261 61.3156 110.495 202 218 255
38.8456 48.4472 114.184 183 206 255
178.582 176.014 114.516 201 217 255
99.4541 73.1852 121.364 255 254 250
149.13 200.922 112.874 203 218 255
125.728 7.72555 111.991 184 207 255
65.8595 154.611 112.354 203 218 255
108.005 69.9031 120.982 255 251 246
67.8094 99.9786 122.189 207 221 255
126.565 97.3605 100.295 249 246 255
165.615 120.349 106.3 202 218 255
207.357 74.1869 111.798 184 207 255
173.659 145.515 116.077 181 205 255
102.785 135.15 104.377 207 221 255
202.194 113.647 111.566 186 208 255
143.144 102.864 116.528 225 232 255
90.4337 81.6941 115.314 206 220 255
218.488 103.397 113.992 184 207 255
90.925 169.866 108.974 191 211 255
151.719 124.514 107.332 231 235 255
104.417 78.8893 116.205 254 248 255
44.5913 127.21 109.129 206 220 255
76.3799 136.999 116.069 204 219 255
156.704 172.753 111.382 255 237 222
63.3768 105.371 117.203 255 253 249
71.1035 110.82 111.108 255 225 200
108.192 80.8809 99.2127 218 227 255
85.2573 108.8 99.8155 218 228 255
155.878 90.2315 113.525 206 220 255
40.8299 84.0283 110.825 197 215 255
121.561 140.118 126.484 255 247 238
46.5823 47.4312 111.818 202 218 255
156.025 62.9673 117.529 199 216 255
145.152 41.3601 114.433 191 211 255
123.358 63.4679 120 255 239 226
143.782 113.495 108.145 255 248 241
147.399 210.593 113.382 190 211 255
108.032 129.969 128.415 233 237 255
120.178 127.597 102.833 217 227 255
130.446 140.107 114.02 249 246 255
151.383 121.384 105.707 255 223 198
63.1631 154.258 109.725 231 235 255
141.83 107.277 111.295 255 244 234
187.003 132.188 109.195 218 227 255
176.766 137.586 112.335 208 221 255
110.88 134.21 102.169 255 242 229
149.072 44.8442 116.652 195 214 255
63.0246 43.1049 112.286 204 219 255
148.286 112.31 114.548 215 226 255
119.082 106.436 91.5815 218 228 255
47.9238 188.856 112.536 182 206 255
94.6243 80.7643 116.429 217 227 255
83.9932 75.8011 114.111 196 214 255
151.152 131.728 104.543 255 253 248
93.8056 173.768 111.715 206 220 255
110.106 97.4668 119.495 255 216 185
165.682 76.6055 109.096 194 213 255
92.2791 114.355 117.85 226 232 255
171.037 196.306 113.224 198 216 255
117.27 91.2126 117.31 255 251 246
86.9129 167.98 115.552 207 221 255
34.4545 87.2974 110.26 196 214 255
126.392 201.905 113.874 182 205 255
118.802 51.5768 112.883 201 218 255
79.9179 124.643 123.94 255 236 220
129.798 36.024 110.795 185 207 255
173.503 161.436 109.352 195 214 255
96.4331 128.509 96.9443 255 196 149
100.608 76.7999 107.493 202 218 255
184.334 188.858 114.875 184 207 255
59.5159 126.58 115.756 210 223 255
104.468 196.8 109.814 192 212 255
145.995 140.68 120.994 255 224 200
163.877 93.9131 112.031 236 238 255
90.4459 91.3664 116.72 255 245 235
135.745 71.1108 109.359 245 243 255
86.4181 63.1382 119.608 198 215 255
64.4679 72.7887 109.526 236 238 255
119.944 137.565 127.076 195 213 255
157.863 98.5629 109.864 255 252 247
101.759 113.5 92.2478 255 226 203
131.243 110.945 123.451 255 236 221
170.795 163.891 111.778 184 207 255
183.583 93.469 112.87 194 213 255
95.2336 26.5529 112.006 189 210 255
119.947 100.712 103.429 255 217 187
150.235 47.5497 114.556 197 215 255
25.5554 88.9355 113.896 197 215 255
170.095 105.49 110.85 209 222 255
69.8367 80.3565 105.363 238 239 255
126.043 111.422 96.2039 232 236 255
42.1559 129.723 115.722 196 214 255
120.679 128.64 124.42 255 250 244
90.5051 86.1171 115.877 197 215 255
103.497 158.747 108.76 223 231 255
142.146 136.624 123.487 255 250 255
128.146 153.033 104.566 255 238 223
113.597 122.629 115.912 255 232 214
97.9367 115.901 100.046 248 245 255
105.812 132.576 116.761 216 226 255
72.673 157.272 116.097 201 217 255
117.704 123.607 127.203 255 251 245
175.596 72.7319 113.626 187 209 255
73.9635 94.9704 107.067 218 228 255
100.335 29.8082 111.498 204 219 255
105.036 150.543 116.953 192 212 255
163.789 68.6995 116.89 213 225 255
200.753 116.259 109.964 195 214 255
128.592 127.519 97.0828 255 246 236
93.2627 175.69 111.662 255 245 235
52.29 69.5715 112.934 205 220 255
69.8604 127.917 103.722 206 221 255
71.856 84.4573 117.174 197 215 255
62.2811 48.9019 111.848 214 225 255
6.70441 99.4785 113.961 182 205 255
60.6351 145.412 110.881 193 212 255
214.378 101.19 110.388 189 210 255
88.9287 123.055 97.315 255 229 208
135.967 131.259 124.035 255 252 246
90.5004 34.0468 112.788 191 211 255
45.927 193.694 112.783 204 219 255
78.58 58.4876 108.804 195 214 255
131.212 83.4169 115.399 255 251 245
148.446 136.102 109.91 224 231 255
94.9409 71.9322 120.658 218 228 255
96.8741 158.989 110.252 204 219 255
142.708 111.188 118.437 212 224 255
106.888 106.842 124.937 255 69 0
69.5138 132.368 115.575 200 217 255
108.047 75.1673 111.053 208 221 255
130.158 67.4632 117.909 242 241 255
113.376 92.0699 109.127 255 250 255
160.7 90.8795 112.889 234 237 255
90.6062 41.9342 116.188 223 231 255
126.757 101.04 112.301 255 210 174
154.825 114.849 118.085 255 184 125
121.006 141.013 105.198 210 223 255
91.3046 111.732 107.161 255 237 221
135.09 129.129 98.3613 255 250 244
114.099 115.445 94.6916 223 231 255
97.6815 84.5614 120.128 255 253 249
183.298 174.749 113.764 188 210 255
115.543 50.6606 116.82 194 213 255
175.513 155.047 111.536 209 223 255
151.471 138.036 120.851 255 255 251
104.263 109.233 99.5167 213 224 255
111.087 187.085 116.315 183 206 255
88.8482 111.716 112.194 215 226 255
12.185 88.5618 111.09 185 208 255
13.1277 143.47 114.394 186 208 255
169.994 120.449 116.152 255 253 249
133.145 174.964 116.098 202 218 255
30.7616 46.5485 114.038 185 207 255
146.975 95.9313 115.192 255 245 236
125.915 112.604 131.592 255 229 208
167.252 167.661 111.226 201 218 255
190.825 83.4004 114.686 225 232 255
42.4765 99.1909 114.848 212 224 255
166.161 90.1737 119.069 255 236 220
108.801 180.295 113.93 194 213 255
38.5943 31.0925 114.096 188 210 255
200.949 98.7766 111.474 189 210 255
166.54 194.787 114.033 205 220 255
34.8692 181.066 110.879 187 209 255
174.452 104.477 112.057 193 212 255
146.077 146.913 107.659 255 255 252
195.938 131.664 113.826 184 207 255
9.13954 92.1971 111.996 183 206 255
161.79 105.562 118.519 203 219 255
150.439 33.0835 113.355 199 216 255
131.744 99.2054 106.344 243 242 255
81.8686 106.279 102.328 255 249 255
107.11 171.789 111.801 196 214 255
17.9538 96.7196 109.866 191 211 255
58.363 154.623 114.906 189 210 255
91.5574 95.8854 117.13 213 225 255
115.343 77.3557 108.81 234 237 255
119.554 110.294 127.057 255 225 201
74.7424 133.452 103.806 219 228 255
96.0866 147.343 121.965 209 222 255
185.427 60.6299 111.05 194 213 255
131.239 128.816 100.065 255 247 239
123.633 133.023 125.422 255 237 222
67.1375 36.3062 113.204 199 216 255
68.7902 109.045 107.512 255 220 192
114.715 163.58 109.635 226 232 255
51.6326 107.27 111.492 183 206 255
118.504 150.527 115.25 255 249 242
186.863 86.744 110.283 203 219 255
112.763 154.87 106.853 209 222 255
180.816 28.4628 110.381 181 205 255
103.544 80.0784 106.064 255 233 214
113.106 145.34 104.094 255 240 227
145.117 107.881 116.31 214 225 255
142.026 196.154 112.754 225 232 255
132.599 130.091 100.692 237 239 255
105.632 128.189 107.572 255 203 162
187.324 70.5347 109.728 204 220 255
68.6382 156.144 115.074 194 213 255
113.833 159.131 109.337 231 235 255
28.3162 169.828 110.617 192 212 255
104.468 101.248 119.05 215 226 255
193.948 68.7753 113.989 180 204 255
94.3501 180.697 110.362 194 213 255
118.351 133.307 119.336 211 224 255
55.9577 116.056 117.466 205 220 255
95.9671 122.783 111.473 215 226 255
129.965 114.926 106.287 217 227 255
27.0293 109.018 108.986 230 235 255
153.8 34.4059 114.568 192 212 255
155.816 137.027 105.156 211 223 255
102.819 48.0682 115.634 200 217 255
116.631 128.031 104.134 255 189 135
100.937 104.604 126.122 248 245 255
189.247 44.3686 110.537 188 210 255
134.665 190.262 109.297 210 223 255
132.062 207.533 112.651 186 208 255
128.281 188.368 114.556 209 222 255
170.592 18.2993 110.313 186 208 255
169.54 193.693 114.881 194 213 255
179.992 189.731 113.731 187 209 255
143.385 172.062 110.777 186 208 255
104.02 133.038 124.9 216 227 255
102.665 125.121 118.832 255 47 0
34.3172 176.877 112.483 208 222 255
194.719 153.43 112.108 181 205 255
179.576 165.191 113.991 201 217 255
187.258 39.8596 114.089 209 223 255
112.256 97.9152 100.198 248 245 255
119.095 120.129 131.204 242 242 255
