ply
format ascii 1.0
element vertex 1341
property float x
property float y
property float z
property uchar red
property uchar green
property uchar blue
end_header
100.028 176.428 109.976 197 215 255
131.358 128.166 104.828 255 233 214
55.1175 69.2362 111.901 200 217 255
93.4938 175.622 110.542 190 211 255
105.352 212.818 109.778 190 211 255
133.553 48.5526 113.444 194 213 255
98.8586 107.427 101.414 255 248 240
71.4277 136.179 111.842 250 246 255
16.7201 160.811 112.926 190 210 255
124.231 114.811 102.44 255 226 202
121.016 113.579 110.488 255 225 201
75.3912 210.486 112.219 185 207 255
123.064 117.92 114.692 216 227 255
87.94 54.4564 111.95 208 222 255
48.1331 86.72 113.444 209 222 255
66.3557 61.8156 109.284 194 213 255
155.569 86.3497 112.809 222 230 255
174.835 121.255 111.262 203 218 255
156.922 151.622 117.102 190 211 255
138.001 189.432 118.75 219 228 255
162.008 102.966 110.576 212 224 255
127.177 78.1343 121.301 255 187 131
186.751 159.695 113.6 255 252 246
140.694 80.7342 113.536 228 233 255
162.347 198.826 111.796 201 217 255
179.638 111.678 111.351 186 208 255
179.66 75.638 111.135 255 251 255
51.4081 136.804 116.41 194 213 255
116.124 138.922 116.633 255 247 239
90.8343 187.019 112.641 196 214 255
107.995 84.2765 120.033 216 227 255
105.25 118.637 102.845 255 167 88
68.6276 173.397 115.133 195 214 255
116.814 50.1197 109.633 196 214 255
123.809 17.1998 111.196 213 225 255
203.668 51.5868 109.106 200 217 255
116.126 174.458 111.152 199 216 255
82.4433 126.838 102.154 191 211 255
143.537 95.4625 115.519 234 237 255
186.534 154.977 115.381 213 225 255
93.3078 175.469 110.712 186 208 255
69.6307 106.944 104.425 228 233 255
92.8415 175.454 110.761 193 213 255
46.9859 104.867 111.182 216 227 255
164.455 11.7818 111.015 184 207 255
65.3531 129.491 117.398 228 234 255
175.154 144.654 112.812 190 210 255
167.029 57.6755 115.945 201 217 255
128.227 120.913 112.281 224 231 255
106.946 140.057 109.803 254 248 255
143.067 135.882 118.767 200 217 255
183.051 73.5294 111.583 237 239 255
95.5381 167.36 112.848 248 245 255
166.313 157.84 113.312 233 237 255
19.9268 112.572 111.95 187 209 255
53.3326 65.6883 108.84 202 218 255
82.6001 32.1151 110.768 210 223 255
133.613 139.722 104.385 232 236 255
96.6804 62.6939 107.573 194 213 255
105.427 75.5911 104.756 232 236 255
126.47 55.407 112.85 191 211 255
76.6019 141.041 112.89 218 228 255
111.731 120.344 106.161 212 224 255
141.028 126.043 102.408 226 232 255
105.75 10.9369 111.507 189 210 255
102.734 69.7112 114.535 222 230 255
102.421 153.863 112.454 215 226 255
213.727 118.457 113.299 192 212 255
111.041 94.4249 106.76 211 223 255
51.9817 140.703 110.645 204 219 255
53.3017 139.631 112.597 189 210 255
174.033 101.739 112.638 191 211 255
128.617 108.768 121.329 224 231 255
29.6935 107.741 110.154 220 229 255
140.573 74.5537 119.094 255 238 224
123.624 101.905 112.186 219 228 255
126.382 79.7623 105.984 221 230 255
119.016 108.115 103.08 255 249 255
119.075 72.7707 114.886 255 226 203
115.442 124.132 108.85 241 241 255
63.5529 50.3499 119.482 200 217 255
83.2772 144.996 109.737 222 230 255
88.6733 157.288 113.41 221 229 255
73.4571 117.283 109.613 238 239 255
208.195 94.139 115.305 191 211 255
217.423 91.4679 112.297 198 215 255
51.1993 83.7103 111.55 187 209 255
128.549 73.8855 112.38 252 247 255
134.264 53.182 111.568 223 231 255
101.155 128.128 106.434 255 249 241
98.7707 114.304 110.521 255 246 236
99.2875 23.7848 108.556 186 208 255
97.4525 155.432 111.936 255 247 239
101.87 162.346 115.519 253 248 255
168.416 139.616 108.867 213 225 255
78.6072 74.5911 116.911 198 216 255
84.2223 49.1579 111.877 179 204 255
121.635 125.013 107.877 226 232 255
60.6429 159.267 110.84 190 211 255
163.723 79.629 110.601 215 226 255
162.243 61.8804 117.062 193 212 255
135.859 119.936 111.077 202 218 255
135.748 76.5697 112.391 201 217 255
66.6048 86.4966 117.289 201 217 255
31.5291 164.885 111.985 204 219 255
104.808 178.295 110.057 193 213 255
110.925 128.459 119.725 206 221 255
86.6856 93.9442 121.053 255 223 197
120.783 31.7283 110.65 192 212 255
103.919 103.692 111.922 247 244 255
127.144 202.841 112.965 182 206 255
90.223 96.2028 107.835 220 229 255
110.549 106.299 101.932 255 233 216
109.704 115.058 121.221 255 192 141
93.0919 149.425 119.613 208 221 255
56.94 141.892 115.728 188 209 255
54.1208 85.2658 111.119 212 224 255
152.044 160.822 116.873 192 212 255
193.587 78.5296 110.487 196 214 255
197.918 92.4067 108.012 194 213 255
120.565 142.948 109.249 255 245 234
198.923 143.069 112.835 195 214 255
96.9585 114.735 110.354 255 218 188
171.603 85.2869 112.522 191 211 255
98.3753 21.8192 108.352 225 232 255
141.398 91.0974 111.669 213 225 255
189.633 120.195 114.502 191 211 255
145.005 75.1241 112.458 210 223 255
135.942 93.89 120.773 200 217 255
93.3714 177.807 111.415 255 247 238
140.172 145.05 116.288 227 233 255
30.741 151.978 111.76 187 209 255
78.1094 72.6155 113.284 205 220 255
139.697 125.111 107.003 209 222 255
97.7017 113.598 114.283 255 251 246
98.5293 111.17 122.293 255 178 113
14.381 156.461 111.504 188 209 255
71.5327 151.264 112.014 219 229 255
104.034 109.195 106.696 214 225 255
119.459 150.432 108.037 255 195 147
101.073 110.416 115.113 246 244 255
52.6211 101.872 113.104 201 217 255
79.6607 168.963 116.477 211 224 255
60.6034 83.2324 109.101 198 216 255
57.7568 171.898 111.283 206 220 255
125.537 107.292 110.226 255 252 247
120.577 88.1689 102.738 255 235 219
129.118 115.666 118.85 238 239 255
128.835 107.849 105.478 214 226 255
49.7193 95.0754 114.716 214 225 255
107.995 99.6386 110.205 208 222 255
101.65 168.931 110.372 220 229 255
154.559 85.7387 110.056 255 218 189
125.317 111.96 101.916 208 222 255
157.438 90.1613 113.104 220 229 255
149.335 182.027 108.611 184 207 255
81.2104 157.41 113.373 208 221 255
201.058 42.023 113.686 188 209 255
81.3145 58.2796 110.814 210 223 255
181.651 164.498 115.349 211 223 255
93.5256 175.591 110.589 255 213 179
162.227 11.3885 112.385 197 215 255
198.148 135.414 114.389 204 220 255
121.767 143.58 108.286 255 155 61
112.18 131.969 104.567 203 218 255
194.732 108.325 111.331 193 212 255
93.2361 176.051 110.793 191 211 255
57.412 186.309 115.158 195 214 255
111.13 110.165 97.6071 233 236 255
192.603 164.712 114.654 204 219 255
135.749 71.8467 114.267 215 226 255
126.861 162.874 110.773 203 219 255
135.625 162.575 111.607 204 219 255
129.416 185.485 114.151 229 234 255
94.9308 43.5818 110.899 215 226 255
210.262 74.3677 113.003 184 207 255
49.8401 152.511 111.798 199 216 255
73.1894 142.994 113.628 255 198 151
158.888 137.635 117.349 213 225 255
215.557 126.253 110.439 203 218 255
80.4776 141.356 118.969 232 236 255
98.9329 144.649 114.099 255 233 214
118.839 179.757 111.787 190 211 255
115.303 209.35 112.288 194 213 255
89.0069 146.962 118.659 196 214 255
140.03 97.7303 103.423 216 227 255
175.438 121.217 107.332 186 208 255
172.461 110.764 112.818 197 215 255
74.048 49.4394 113.881 208 221 255
93.533 175.561 110.542 255 248 240
65.1669 57.5978 111.496 193 212 255
106.753 104.283 116.561 255 193 141
172.873 17.7633 111.569 191 211 255
143.77 192.702 111.089 188 210 255
99.2156 81.7585 121.038 196 214 255
96.067 172.906 110.442 255 244 234
99.701 134.083 111.377 201 218 255
100.372 94.3034 117.244 213 225 255
147.861 98.0807 104.784 198 215 255
59.2939 150.052 110.916 191 212 255
194.543 88.514 112.966 192 212 255
124.36 105.836 107.644 255 202 158
46.1117 44.7622 112.434 187 209 255
207.9 108.095 109.589 195 214 255
112.564 137.277 111.224 255 85 0
10.3015 108.706 114.276 209 223 255
90.4281 112.893 111.644 198 216 255
114.215 112.871 120.172 255 229 207
215.418 82.3262 112.929 207 221 255
183.419 157.716 114.131 186 208 255
101.343 140.093 109.389 229 234 255
144.1 16.1955 113.331 191 211 255
74.2076 141.984 112.134 255 201 158
156.626 135.791 111.626 234 237 255
151.54 103.703 110.926 206 220 255
114.582 99.49 119.411 255 186 128
171.333 88.7996 111.972 206 220 255
92.2967 168.188 113.202 211 224 255
67.8887 24.6394 110.75 187 208 255
81.1222 143.699 115.986 210 223 255
161.137 160.708 114.787 186 208 255
80.8984 213.235 112.637 188 209 255
145.136 133.662 108.079 217 227 255
33.9949 117.277 115.509 198 216 255
47.868 51.8249 111.314 195 214 255
154.043 15.3699 112.222 196 214 255
107.407 29.699 113.795 203 219 255
108.212 204.806 107.744 187 208 255
162.246 127.991 114.296 253 248 255
206.879 62.1775 111.154 192 212 255
149.401 157.365 118.204 195 214 255
62.3377 44.9219 109.872 189 210 255
129.896 69.6527 116.866 241 241 255
118.926 146.267 116.12 216 226 255
146.292 116.71 121.022 255 247 239
55.1161 85.8088 111.825 216 227 255
120.029 73.7613 116.902 210 223 255
75.4052 68.7506 118.708 255 236 220
100.285 95.4473 111.741 255 249 255
97.6336 85.2845 106.163 255 254 250
120.422 175.426 108.132 222 230 255
105.593 107.412 121.481 255 246 236
134.475 72.8826 113.065 197 215 255
133.078 96.0262 120.161 215 226 255
103.898 156.309 109.679 200 217 255
115.034 147.989 108.818 255 247 238
85.4249 19.0976 115.323 186 208 255
106.64 136.193 109.478 239 240 255
37.9861 137.407 114.514 187 209 255
134.723 50.1646 109.145 212 224 255
97.2038 150.394 112.469 208 222 255
211.019 80.5937 114.361 201 218 255
67.9311 116.169 118.1 255 116 0
128.252 87.8284 112.106 255 201 157
95.5445 172.902 109.766 205 220 255
64.8844 110.846 106.319 234 237 255
95.1181 144.621 112.563 216 227 255
51.8862 155.305 114.924 195 214 255
57.9523 57.0919 112.603 189 210 255
176.303 71.5962 112.041 197 215 255
25.5161 164.301 108.659 198 216 255
91.6654 125.978 103.573 255 251 246
125.228 77.2994 105.066 203 219 255
95.1883 88.7764 111.645 255 253 248
119.633 132.835 117.789 233 236 255
117.732 32.0848 117.297 197 215 255
71.5517 122.151 104.043 229 234 255
186.044 122.037 113.14 191 211 255
101.82 157.274 113.041 255 238 224
64.1142 117.785 108.543 242 242 255
96.59 114.579 107.704 255 243 232
48.0506 86.1948 108.723 226 232 255
135.657 106.604 122.111 255 239 224
123.992 163.498 112.22 211 223 255
86.21 43.9953 114.492 211 224 255
96.2214 173.981 110.439 226 233 255
109.225 78.9608 110.415 255 238 224
91.7998 113.688 114.146 214 225 255
18.3669 130.215 109.016 220 229 255
113.134 98.7806 123.336 235 238 255
173.611 84.4835 109.917 192 212 255
80.8551 162.048 116.225 201 217 255
13.1544 111.379 110.146 190 211 255
139.61 81.7981 108.746 255 248 240
68.2996 62.0986 113.385 255 244 234
179.57 169.053 112.7 197 215 255
26.6885 103.61 114.93 211 224 255
128.29 134.672 120.704 255 201 158
57.5997 57.8102 110.346 197 215 255
124.248 66.4642 107.905 195 214 255
109.785 106.093 104.568 227 233 255
97.6285 164.762 110.592 230 235 255
86.2242 53.4623 111.853 251 246 255
139.911 83.4855 116.529 208 222 255
84.7146 95.2312 117.827 225 232 255
55.6397 141.327 113.393 217 227 255
140.372 71.5829 122.515 214 225 255
174.864 123.309 110.906 250 246 255
59.7695 112.27 110.954 215 226 255
116.425 127.31 107.481 246 244 255
114.467 132.772 105.409 255 247 239
39.0875 154.451 116.282 193 213 255
178.354 187.894 112.643 178 203 255
134.941 160.898 113.588 200 217 255
134.991 40.0974 114.907 218 228 255
122.526 123.273 112.82 211 224 255
116.727 103.71 100.763 232 236 255
94.0292 173.213 111.94 248 245 255
135.677 62.1797 112.817 225 232 255
122.683 168.924 108.564 227 233 255
83.4762 8.57341 88.5031 204 219 255
12.3529 79.3134 110.23 197 215 255
132.999 67.8076 110.765 197 215 255
121.022 95.3252 102.266 221 229 255
93.9995 176.056 109.849 215 226 255
219.033 95.8204 114.496 184 207 255
202.535 53.7802 109.908 188 209 255
112.573 130.315 113.356 198 216 255
49.592 192.514 113.535 182 206 255
184.649 96.8289 108.125 194 213 255
35.8047 47.7103 108.763 191 211 255
187.598 86.9107 115.21 188 209 255
16.2543 146.181 110.464 193 213 255
129.826 134.829 113.361 202 218 255
109.689 173.439 112.17 209 222 255
137.151 136.309 119.531 244 243 255
113.282 68.2542 107.23 255 235 218
160.15 132.956 113.495 255 251 255
117.805 132.516 120.111 255 254 250
71.1046 61.3994 118.602 199 216 255
138.478 78.7108 120.174 236 238 255
143.84 76.2958 119.466 222 230 255
141.994 176.602 111.772 184 207 255
117.173 116.934 125.706 233 236 255
93.5105 175.656 110.608 192 212 255
109.642 126.406 123.14 255 219 191
159.848 22.3641 113.822 183 206 255
76.794 147.568 111.489 200 217 255
154.215 38.7954 112.277 186 208 255
117.417 107.924 116.472 255 176 108
103.586 155.752 116.608 255 232 213
202.345 150.661 109.178 195 214 255
152.282 119.852 109.746 255 249 242
65.8135 136.446 111.446 208 222 255
139.355 84.1238 110.907 204 220 255
122.013 102.342 104.426 255 254 250
67.3521 140.315 109.715 202 218 255
1.44838 104.264 109.998 192 212 255
120.842 120.833 102.878 255 237 221
60.543 132.595 113.726 228 234 255
161.304 173.243 109.799 195 214 255
127.499 144.945 112.578 198 216 255
14.7616 154.818 111.545 182 206 255
75.9816 106.26 106.747 255 213 179
37.8503 134.233 114.963 201 218 255
166.953 26.4062 112.058 197 215 255
102.612 142.182 103.593 227 233 255
86.2697 124.871 104.23 255 241 228
53.7592 115.235 111.348 252 247 255
168.443 101.887 114.065 200 217 255
110.359 115.127 128.919 255 182 120
87.3341 91.3064 116.05 201 218 255
54.7521 60.1484 109.475 199 216 255
90.5929 102.372 119.759 255 237 221
44.219 42.7971 110.732 201 218 255
90.328 12.2467 90.0215 187 209 255
146.907 50.3043 109.384 193 213 255
106.697 111.62 129.259 225 232 255
171.272 118.326 112.841 255 250 243
103.186 131.094 108.709 230 235 255
90.2859 161.996 104.748 224 231 255
56.1345 127.199 112.218 213 225 255
136.337 7.90242 110.732 195 214 255
90.4767 89.7012 107.989 202 218 255
136.88 126.273 122.21 224 231 255
168.024 129.106 116.575 255 236 219
165.606 139.457 109.795 207 221 255
98.5983 129.622 124.329 255 245 235
122.894 59.1229 116.636 202 218 255
131.074 95.811 100.998 255 215 183
119.25 117.765 110.988 255 251 245
174.278 118.704 111.181 235 238 255
147.277 38.7042 112.549 255 252 246
139.959 196.903 112.233 203 218 255
128.77 178.204 114.386 199 216 255
117.702 117.605 118.328 211 224 255
81.3967 52.9685 110.085 200 217 255
114.147 157.52 118.231 255 250 244
55.109 187.582 113.315 187 209 255
55.6827 105.745 111.998 255 209 172
124.602 96.4393 111.961 255 247 238
77.3615 101.352 121.517 205 220 255
71.0212 141.728 110.959 255 202 159
154.821 123.072 109.946 255 241 229
118.342 130.098 116.578 233 237 255
51.3641 70.6074 110.984 183 206 255
180.296 132.9 113.698 185 208 255
154.022 95.7941 116.327 186 208 255
82.9423 196.532 112.348 185 207 255
131.837 11.3766 106.613 197 215 255
140.51 96.1217 102.096 255 181 118
99.9645 84.3857 105.778 233 237 255
92.3304 152.938 116.446 203 219 255
50.0597 130.444 112.85 206 220 255
70.1616 139.852 110.113 203 219 255
50.4623 205.519 111.807 195 214 255
119.682 107.149 101.678 237 239 255
110.551 124.348 123.29 205 220 255
91.2265 64.1833 116.673 255 248 241
114.316 9.28347 99.9901 184 207 255
201.435 132.014 109.319 194 213 255
141.057 199.571 112.526 184 207 255
76.3019 95.963 118.193 255 241 228
155.87 160.371 115.786 199 216 255
60.425 17.4704 111.656 187 209 255
110.268 120.902 116.35 226 233 255
61.453 128.236 114.91 200 217 255
81.126 143.68 111.08 238 239 255
110.326 104.878 117.958 255 228 207
203 72.6329 115.804 203 219 255
45.9515 102.895 113.742 199 216 255
91.0203 26.2484 112.261 191 211 255
127.424 78.8507 111.852 219 228 255
173.527 127.066 109.816 200 217 255
129.489 67.0738 112.556 245 244 255
97.614 121.749 115.416 255 228 206
25.2569 115.546 113.095 190 211 255
91.9681 68.0281 116.184 211 223 255
101.218 110.233 99.8139 195 214 255
103.072 116.428 109.347 255 224 199
105.954 109.603 119.473 247 244 255
68.9056 211.839 111.116 196 214 255
42.2616 35.6161 113.569 184 207 255
162.068 204.134 112.482 182 206 255
131.023 49.2005 111.737 194 213 255
93.6663 175.6 111.536 229 234 255
28.5876 70.9509 109.308 190 210 255
93.4824 175.655 110.663 206 220 255
153.161 37.7308 114.399 196 214 255
148.241 198.059 113.898 185 207 255
138.52 107.964 104.298 220 229 255
108.906 27.1314 105.85 195 214 255
118.858 103.834 108.323 255 225 201
93.2941 69.405 115.132 210 223 255
217.104 95.1189 108.253 180 204 255
165.141 98.8877 113.599 238 239 255
97.1269 18.4648 111.529 193 212 255
105.574 107.938 104.72 241 241 255
211.864 97.2412 112.017 191 211 255
96.3823 173.961 110.045 200 217 255
78.2392 130.281 115.107 255 253 249
67.5695 133.027 111.137 217 227 255
26.72 185.646 113.96 188 210 255
82.7371 129.081 114.084 255 212 178
163.015 161.903 112.092 210 223 255
65.787 119.177 119.526 200 217 255
119.044 145.134 119.867 255 217 187
106.158 103.83 111.499 255 245 235
189.799 71.8603 110.078 200 217 255
114.372 146.16 114.486 204 219 255
123.51 43.7216 109.777 217 227 255
132.979 126.303 111.174 239 240 255
130.023 87.8564 108.408 255 219 191
115.318 118.302 107.367 232 236 255
162.796 18.6356 112.033 189 210 255
185.423 91.5863 114.312 190 210 255
133.103 12.1987 111.324 182 206 255
146.406 191.921 91.8348 194 213 255
165.638 106.774 113.822 204 219 255
119.609 47.2642 111.444 240 241 255
90.1814 133.789 118.353 251 247 255
142.871 78.0511 110.896 220 229 255
110.769 117.719 129.277 255 234 217
74.404 139.987 111.242 219 228 255
141.599 78.977 113.823 215 226 255
143.667 132.532 121.706 255 243 233
136.085 71.6395 118.421 255 241 229
93.3421 175.416 110.672 184 207 255
29.2523 102.677 109.577 197 215 255
108.391 122.75 107.337 255 229 207
82.8155 84.7606 116.054 235 237 255
104.865 116.918 127.554 255 206 167
11.697 117.271 115.064 183 206 255
112.675 75.1255 110.407 224 231 255
136.135 192.931 112.377 192 212 255
54.2096 129.901 111.295 210 223 255
72.233 139.827 120.866 215 226 255
98.2552 123.837 110.292 226 232 255
58.5151 114.091 108.004 197 215 255
141.727 166.635 113.723 207 221 255
90.8916 110.009 106.088 208 221 255
114.136 148.946 113.158 211 223 255
46.4184 110.853 111.806 190 211 255
201.164 137.269 112.573 206 221 255
110.401 113.125 121.578 255 212 179
113.44 79.344 115.478 255 243 232
132.463 120.39 122.268 229 234 255
55.2609 154.527 110.829 223 230 255
122.659 200.428 115.017 196 214 255
104.934 123.436 123.941 255 206 166
101.024 120.471 121.251 209 222 255
122.455 112.328 102.257 255 215 184
169.314 126.911 116.674 199 216 255
102.483 52.912 117.295 207 221 255
46.7438 59.5085 116.123 198 216 255
114.056 94.3738 109.256 255 253 249
54.3611 101.849 114.336 193 213 255
43.0946 104.446 110.254 206 220 255
94.8017 173.75 111.842 199 216 255
155.052 161.323 113.968 255 251 246
135.534 166.329 110.159 231 235 255
169.542 105.731 112.347 222 230 255
115.388 143.15 112.803 208 222 255
172.898 134.959 111.855 240 241 255
170.653 75.2695 113.04 247 244 255
143.652 183.533 115.189 222 230 255
116.801 151.777 110.717 218 228 255
70.2665 89.8549 110.341 255 252 246
134.137 72.6304 110.881 190 211 255
119.219 119.584 117.719 255 171 97
118.946 166.572 109.592 255 201 158
92.4019 175.521 111.312 241 241 255
144.991 99.0159 113.901 227 233 255
119.313 110.213 106.357 228 234 255
47.6955 100.263 111.856 188 209 255
192.475 45.1743 111.677 182 206 255
93.8356 80.6429 112.429 214 225 255
157.697 92.967 119.118 243 242 255
122.987 41.9286 115.51 204 219 255
200.088 85.1403 112.078 185 208 255
66.5101 75.3744 112.72 241 241 255
67.1739 98.8528 117.739 255 251 246
117.99 118.441 105.519 191 211 255
179.802 152.394 114.286 193 213 255
73.4314 185.335 111.899 200 217 255
32.7441 112.865 113.703 197 215 255
114.545 170.112 114.365 197 215 255
118.374 108.66 126.125 204 219 255
53.4463 90.7643 113.392 217 227 255
75.4572 38.5504 107.121 190 211 255
128.205 79.6231 114.979 202 218 255
96.8766 176.228 110.283 201 217 255
94.0798 175.112 110.069 217 227 255
133.805 131.475 106.438 195 214 255
135.372 52.5186 106.964 228 234 255
173.994 51.9111 114.57 194 213 255
114.248 91.6778 105.696 221 230 255
134.67 59.7373 113.639 216 227 255
188.788 123.272 108.63 195 214 255
23.9095 154.719 113.529 189 210 255
71.8245 143.632 112.002 219 228 255
174.414 40.0074 111.687 193 213 255
66.9185 36.6528 112.168 181 205 255
100.838 72.1928 119.053 202 218 255
147.111 57.5155 118.041 197 215 255
97.4105 104.805 108.961 225 232 255
87.0564 57.7732 111.021 191 211 255
115.552 139.152 106.034 255 187 130
40.1295 90.0836 111.426 203 219 255
105.732 98.3004 122.318 255 244 234
116.112 130.613 112.178 228 233 255
140.03 101.997 102.144 217 227 255
55.5131 125.334 120.293 202 218 255
119.562 113.444 104.313 255 211 176
108.396 116.542 104.331 254 249 255
156.729 97.7038 107.706 202 218 255
98.3773 114.376 125.022 218 228 255
129.237 190.054 93.4753 197 215 255
101.284 198.95 111.667 197 215 255
82.8315 30.0947 114.052 188 209 255
128.325 160.513 108.717 221 230 255
69.214 155.713 110.616 255 223 197
163.742 188.012 112.826 190 210 255
154.547 65.5375 112.849 226 232 255
81.0726 173.37 110.687 211 223 255
110.766 99.7376 105.075 255 254 250
140.58 72.3273 125.951 205 220 255
114.178 68.3413 107.147 204 219 255
140.869 111.772 118.092 221 229 255
142.46 125.071 121.713 201 218 255
142.575 70.0387 122.194 255 223 198
164.599 139.546 107.278 201 218 255
114.937 110.59 101.014 255 90 0
169.832 171.792 112.448 201 217 255
127.297 104.792 117.03 241 241 255
104.106 101.701 99.1588 242 241 255
108.591 14.4904 110.781 210 223 255
171.949 137.71 111.174 207 221 255
55.3601 205.25 111.876 196 214 255
111.258 65.5942 111.364 226 232 255
165.378 152.835 110.493 204 219 255
110.91 121.117 123.178 255 232 214
58.9157 43.4096 106.799 196 215 255
93.5184 175.66 110.599 202 218 255
127.944 108.666 112.486 255 238 223
72.2048 58.964 114.776 194 213 255
81.3493 152.871 114.034 210 223 255
106.856 168.812 110.45 212 224 255
167.2 119.418 110.303 205 220 255
87.7635 137.799 107.223 229 234 255
40.9346 33.1918 115.412 186 208 255
120.36 134.836 106.001 201 217 255
63.1483 79.9925 110.199 252 247 255
130.907 97.7984 111.23 255 233 215
173.014 84.3075 113.564 211 224 255
169.463 107.891 112.78 209 222 255
120.37 33.9471 112.554 193 213 255
17.2123 110.911 109.474 187 209 255
159.089 52.8293 106.884 212 224 255
87.5338 112.806 111.287 193 212 255
62.9291 93.8644 105.921 230 235 255
96.0823 126.146 114.658 207 221 255
35.9307 82.1953 110.483 223 231 255
50.307 82.5004 112.447 194 213 255
83.9409 217.611 113.566 201 218 255
109.351 143.93 121.149 234 237 255
136.212 127.093 113.693 254 248 255
155.28 159.494 108.776 238 240 255
70.1183 123.023 114.392 210 223 255
125.537 134.627 119.09 255 176 108
57.9774 153.039 113.694 187 209 255
126.554 75.9536 117.033 222 230 255
80.8129 103.935 113.934 255 213 180
127.718 104.691 114.277 255 228 207
129.866 37.8392 115.562 205 220 255
108.923 98.5705 121.046 255 242 230
110.842 210.184 110.904 205 220 255
115.242 110.879 101.633 255 247 239
49.2683 115.945 112.755 191 211 255
217.464 109.626 114.551 204 219 255
93.8205 175.5 110.757 184 207 255
194.117 87.8269 107.991 202 218 255
139.315 121.034 123.6 201 217 255
13.0628 149.753 110.654 196 215 255
161.836 4.15948 117.092 195 214 255
102.856 175.88 109.796 213 225 255
120.952 110.575 112.574 255 243 231
108.184 92.0012 106.623 209 222 255
164.02 134.715 117.272 255 216 185
71.2457 91.2744 106.849 194 213 255
212.08 116.243 113.482 181 205 255
136.498 79.8716 108.535 212 224 255
74.7241 34.6622 108.371 183 206 255
183.277 89.6448 113.331 255 245 236
100.083 145.725 107.37 216 226 255
93.4157 173.196 110.86 203 219 255
60.7904 161.798 115.074 255 241 229
119.938 152.161 112.097 255 90 0
95.1802 114.19 114.9 255 242 231
196.703 38.3176 113.52 189 210 255
154.333 113.899 104.882 218 228 255
93.4113 191.544 110.258 205 220 255
95.345 89.2599 111.546 216 227 255
149.131 179.711 111.957 200 217 255
159.304 90.9514 96.945 219 228 255
142.776 73.1545 120.126 200 217 255
89.4824 116.292 103.439 226 232 255
136.831 114.772 114.254 221 229 255
165.527 89.5399 111.737 255 253 248
141.472 73.0299 129.164 210 223 255
126.689 112.023 112.471 195 214 255
166.411 35.541 111.12 186 208 255
81.7745 28.0467 113.339 193 212 255
99.9866 113.467 102.826 226 233 255
58.7214 43.8414 109.091 189 210 255
124.909 204.913 117.044 198 216 255
72.7961 197.106 110.846 203 219 255
205.939 82.2341 115.195 197 215 255
112.952 118.861 101.211 233 237 255
105.84 131.797 105.051 255 222 195
160.609 95.2973 113.543 205 220 255
93.2948 175.307 110.842 234 237 255
57.2461 60.0034 116.663 197 215 255
201.773 156.563 115.295 184 207 255
141.651 136.873 111.799 255 208 171
220.893 109.17 111.213 200 217 255
160.484 126.274 118.395 192 212 255
211.916 160.92 111.302 198 216 255
186.57 129.731 113.788 199 216 255
142.518 87.5054 107.05 221 229 255
107.115 117.93 103.498 255 226 203
144.118 79.223 111.656 212 224 255
55.0533 122.68 110.643 216 226 255
114.838 99.4794 109.455 250 246 255
93.1415 175.67 110.775 223 231 255
83.3515 57.7315 110.51 190 211 255
54.7701 88.8148 108.424 220 229 255
131.629 42.7583 110.134 197 215 255
30.8419 144.174 110.396 195 214 255
99.2084 105.529 110.744 226 232 255
112.936 124.738 124.198 255 241 229
99.196 38.6633 110.849 199 216 255
122.07 73.7225 115.032 206 220 255
143.258 73.0934 120.544 255 239 225
46.3808 106.427 111.4 202 218 255
74.9105 141.41 111.696 245 243 255
97.9465 87.5266 108.87 223 231 255
117.039 73.7295 105.521 210 223 255
106.356 48.7517 116.796 186 208 255
88.6149 220.121 115.858 181 205 255
66.0948 57.2043 111.334 191 212 255
183.73 70.3508 111.51 185 208 255
77.4218 145.53 112.265 207 221 255
93.5211 175.638 110.603 222 230 255
90.5366 96.4221 112.566 221 230 255
69.171 191.359 112.048 186 208 255
88.6313 142.873 112.503 251 246 255
177.285 181.016 104.137 217 227 255
127.319 16.0452 110.538 201 217 255
88.4443 120.462 122.333 197 215 255
72.7782 80.3832 115.864 198 215 255
210.316 65.9474 110.547 187 209 255
172.117 134.508 109.831 196 215 255
94.1407 137.775 110.203 235 238 255
110.062 118.474 110.797 255 218 188
72.7352 123.167 111.139 255 249 242
45.7895 108.987 112.433 199 216 255
165.505 172.635 110.645 217 227 255
121.037 86.3327 112.65 228 234 255
69.1703 207.361 113.706 188 209 255
139.189 153.429 114.741 189 210 255
73.377 177.253 114.61 205 220 255
133.001 53.4568 116.728 238 239 255
110.129 137.302 109.329 255 161 76
121.66 118.705 100.989 255 184 123
156.202 171.401 112.482 184 207 255
81.6934 87.0951 107.5 210 223 255
64.922 47.6893 108.649 197 215 255
106.314 79.1038 117.051 221 229 255
116.437 68.6335 119.873 199 216 255
71.2637 112.919 111.143 241 241 255
93.3383 174.219 111.013 203 219 255
135.305 119.098 111.371 201 217 255
125.05 117.979 117.827 205 220 255
130.314 60.0346 108.549 200 217 255
150.92 114.676 117.063 234 237 255
153.035 53.9757 116.641 210 223 255
105.858 49.3368 111.84 214 225 255
101.729 118.985 110.241 255 228 206
164.637 101.635 115.578 218 228 255
135.333 101.31 120.802 255 195 147
93.5176 175.646 110.609 191 211 255
156.26 116.792 111.245 219 228 255
187.169 187.189 109.508 185 207 255
137.583 10.487 107.506 206 221 255
114.9 75.9253 112.146 223 231 255
14.6257 60.4333 113.235 190 211 255
120.937 96.2948 122.932 221 229 255
101.809 103.415 117.129 255 246 237
143.209 90.1973 113.829 255 242 230
119.737 103.647 109.962 205 220 255
131.039 106.952 115.766 222 230 255
93.5204 175.741 110.612 199 216 255
182.906 36.1428 112.138 188 209 255
127.072 89.9295 114.352 255 149 47
101.618 59.9483 113.391 254 248 255
110.048 77.0243 114.898 255 213 180
145.16 41.6147 111.356 194 213 255
111.195 116.609 99.0183 255 233 214
116.633 4.92738 107.354 185 208 255
85.892 118.381 117.235 255 222 195
162.78 36.917 109.566 193 212 255
133.312 24.622 110.266 199 216 255
120.35 36.5017 116.105 195 214 255
26.1626 70.8463 110.95 206 221 255
96.2123 15.8854 112.306 212 224 255
170.752 96.0729 109.054 202 218 255
110.331 34.6646 117.054 202 218 255
108.633 118.709 101.35 253 248 255
58.2998 168.924 116.562 231 235 255
67.4221 122.976 111.682 255 211 176
148.442 83.9389 107.667 213 225 255
56.2191 40.3818 112.367 209 222 255
120.851 112.156 108.72 255 240 227
150.194 208.392 118.164 183 206 255
93.5188 175.644 110.597 194 213 255
187.964 97.8911 116.579 191 211 255
144.318 132.121 121.842 210 223 255
97.2209 122.591 114.783 255 242 230
79.7855 142.474 115.481 212 224 255
103.648 48.3675 117.651 255 217 187
40.2429 133.575 115.232 202 218 255
117.65 121.51 126.543 255 223 197
163.801 86.9469 114.894 221 229 255
79.2746 104.095 106.094 192 212 255
104.228 124.575 112.22 255 127 0
113.963 77.3909 112.849 197 215 255
73.8144 202.305 112.326 189 210 255
142.512 31.7458 113.211 204 219 255
161.53 147.763 106.955 200 217 255
21.6204 113.068 113.942 181 205 255
33.855 70.2596 112.679 189 210 255
117.62 121.872 105.606 255 238 223
130.99 72.8761 112.558 193 213 255
26.326 100.951 112.043 188 209 255
116.986 112.275 116.674 255 253 249
86.2651 108.073 120.83 210 223 255
93.535 175.617 110.613 189 210 255
144.127 79.7071 112.513 203 219 255
175.179 125.956 112.373 242 241 255
56.8918 33.5327 115.009 178 203 255
177.943 125.028 112.631 217 227 255
57.8233 162.885 114.994 188 210 255
121.192 106.836 117.698 255 178 113
99.3688 82.6398 109.647 255 249 241
119.188 41.2574 112.632 198 216 255
88.7944 153.156 116.143 255 205 164
123.681 119.04 110.278 221 229 255
93.5103 175.656 110.604 197 215 255
41.3413 164.55 110.259 226 232 255
174.606 137.027 110.439 189 210 255
64.1158 110.872 111.406 207 221 255
35.0438 132.378 114.928 206 221 255
174.155 118.189 113.923 255 220 193
75.6999 130.902 105.578 215 226 255
170.962 102.468 113.927 255 253 249
144.78 76.5937 112.664 210 223 255
106.668 103.578 103.686 255 244 233
51.5635 73.2073 111.053 199 216 255
95.0001 175.238 111.528 255 238 224
97.5614 198.002 110.49 188 209 255
150.494 75.4787 108.06 255 254 251
60.2591 95.1289 112.836 255 253 248
113.099 135.652 109.428 252 247 255
72.824 72.6172 110.07 206 220 255
129.357 60.1573 115.126 200 217 255
149.286 83.9511 119.446 200 217 255
153.142 62.7634 116.109 188 209 255
104.558 140.095 108.521 207 221 255
93.833 175.635 110.559 255 247 239
188.378 58.0189 113.601 197 215 255
115.195 120.461 115.996 255 0 0
100.85 64.493 119.788 228 234 255
16.5139 151.874 112.752 188 209 255
6.95617 130.804 114.198 191 211 255
131.378 146.401 116.835 228 234 255
98.4642 64.8887 116.321 232 236 255
97.4574 68.0655 111.973 184 207 255
93.7291 106.297 120.408 230 235 255
110.52 107.366 98.904 255 242 230
177.631 147.958 112.155 195 214 255
46.5107 178.109 110.8 197 215 255
108.318 131.032 116.938 227 233 255
70.749 141.598 112.277 246 244 255
118.166 96.6786 108.205 255 217 186
72.5655 133.995 112.194 255 249 242
113.174 102.875 104.361 255 196 147
159.393 82.4338 115.386 223 231 255
143.714 77.3163 114.308 211 224 255
148.242 153.216 118.288 255 249 241
23.5908 106.796 114.137 215 226 255
69.9931 160.367 116.969 203 218 255
96.2803 63.509 113.017 255 255 251
123.437 90.9213 123.887 255 242 230
173.167 110.826 99.9559 215 226 255
93.4237 175.486 110.807 218 228 255
69.1466 143.896 113.616 209 222 255
35.3124 44.6854 112.381 210 223 255
53.0513 124.941 112.608 190 210 255
87.2382 130.96 107.315 203 219 255
124.438 56.5079 118.425 221 230 255
174.786 141.573 111.432 199 216 255
113.269 113.95 102.061 255 252 248
171.959 115.325 111.27 216 227 255
104.37 118.928 107.395 255 209 172
111.249 103.709 117.407 255 215 184
123.016 74.9753 117.612 255 228 206
105.887 106.107 102.542 222 230 255
73.3122 119.495 121.102 212 224 255
131.014 90.8922 104.359 212 224 255
93.5601 175.533 110.613 208 222 255
153.218 138.33 111.314 255 211 177
124.83 116.11 112.367 255 219 190
93.5583 175.391 110.758 235 238 255
168.916 190.773 111.461 180 204 255
93.6078 175.645 110.701 208 222 255
167.141 101.379 116.634 222 230 255
69.1628 25.5491 116.827 207 221 255
73.3608 215.394 105.31 182 205 255
116.549 100.031 100.199 229 234 255
32.7411 136.129 107.792 212 224 255
84.5755 51.0575 114.988 216 226 255
158.52 122.582 113.072 204 219 255
76.6886 105.841 118.247 219 228 255
61.0327 170.665 114.504 206 220 255
77.2464 55.4028 112.003 194 213 255
100.38 94.6373 108.519 213 225 255
100.316 123.485 101.477 225 232 255
150.732 116.01 103.364 197 215 255
91.8506 120.308 105.767 255 234 217
101.988 151.094 114.679 210 223 255
15.6845 131.508 113.064 206 221 255
111.77 61.604 115.217 224 231 255
130.904 8.86784 105.849 193 212 255
40.8164 112.161 111.69 204 219 255
121.599 115.139 124.801 205 220 255
132.992 82.637 117.489 222 230 255
127.459 134.415 112.162 230 235 255
134.643 99.5478 113.441 255 245 236
91.5557 159.648 109.932 222 230 255
102.234 116.443 121.124 255 246 236
120.695 164.525 116.198 244 243 255
173.424 88.9794 111.644 202 218 255
119.956 99.6065 111.984 255 220 193
119.829 218.685 113.546 191 211 255
169.829 134.896 114.107 241 241 255
148.412 77.3935 118.539 183 206 255
171.468 108.445 119.203 197 215 255
79.4711 114.363 114.74 227 233 255
100.416 84.5836 115.106 255 221 194
117.583 93.2608 113.488 255 223 197
78.2238 10.0474 112.532 183 206 255
126.901 62.7782 112.322 205 220 255
94.2216 126.571 112.769 239 240 255
105.645 102.79 105.144 255 254 250
126.838 74.8483 110.916 224 231 255
116.951 149.652 106.732 216 226 255
91.2522 207.899 108.715 189 210 255
135.705 159.588 112.582 196 215 255
102.844 122.095 108.181 223 231 255
131.062 83.5403 114.549 255 244 234
199.275 69.1898 114.75 229 234 255
107.283 125.952 100.719 255 239 225
169.754 161.671 111.854 255 233 214
139.464 179.771 114.341 255 254 250
120.783 112.619 119.619 219 228 255
106.313 103.675 115.614 223 231 255
84.1111 155.877 114.757 255 246 238
93.57 175.56 110.569 198 215 255
160.129 86.6595 111.549 207 221 255
116.725 82.3867 118.321 255 249 242
109.206 120.579 117.476 255 254 250
145.799 123.298 108.245 210 223 255
155.16 100.316 106.557 201 217 255
164.354 110.199 110.652 255 250 255
56.012 176.213 110.085 195 214 255
133.412 90.7715 105.37 203 219 255
59.424 54.0013 107.022 186 208 255
77.7667 190.733 109.385 182 206 255
93.8249 175.299 110.348 218 228 255
143.375 108.626 103.008 229 234 255
103.269 175.769 110.314 184 207 255
173.645 132.549 113.432 195 214 255
69.889 123.397 116.399 241 241 255
111.449 156.674 108.684 255 242 230
100.571 170.941 112.66 194 213 255
75.9699 86.3105 105.709 221 230 255
33.712 96.3111 112.095 195 214 255
28.1129 57.0927 113.53 179 203 255
89.3004 37.0061 116.546 200 217 255
163.577 105.229 113.545 207 221 255
93.5239 175.618 110.605 222 230 255
65.516 156.83 114.981 202 218 255
108.737 111.949 102.48 255 251 246
97.544 110.301 101.82 210 223 255
101.382 103.884 109.754 223 231 255
121.499 100.425 120.079 205 220 255
145.734 134.618 113.057 255 246 238
164.181 44.9681 111.24 209 222 255
124.856 153.332 107.783 201 217 255
93.6263 175.772 110.223 216 226 255
149.021 30.3187 113.199 192 212 255
154.632 172.453 115.815 190 211 255
59.7586 17.3828 112.675 185 207 255
131.076 131.698 117.314 255 170 96
86.299 148.329 112.497 250 246 255
77.3411 51.0127 115.315 237 239 255
110.05 126.249 99.2583 255 250 255
115.091 108.133 121.919 237 239 255
102.146 139.606 110.384 198 216 255
156.384 146.539 117.394 236 238 255
116.686 120.476 112.431 211 223 255
165.719 64.8032 113.097 211 223 255
114.207 53.9146 114.37 200 217 255
54.1493 113.086 113.241 217 227 255
51.3285 124.188 112.763 201 217 255
80.8792 96.0944 109.72 194 213 255
79.4223 143.496 112.463 213 225 255
148.963 113.026 117.459 255 251 246
93.5304 175.557 110.644 201 218 255
76.6851 163.802 115.281 205 220 255
102.79 124.036 127.014 200 217 255
101.827 102.807 106.097 219 228 255
102.032 113.093 107.102 255 238 223
111.487 100.695 121.229 214 225 255
195.401 121.896 115.49 176 202 255
100.502 103.261 105.956 202 218 255
78.0444 89.149 116.444 222 230 255
73.4794 34.6579 115.987 197 215 255
4.30479 109.392 112.126 193 212 255
82.9979 19.5836 111.151 189 210 255
79.6148 191.857 110.704 201 217 255
94.1901 138.049 110.982 255 243 232
193.2 136.631 112.872 186 208 255
141.114 73.0541 103.019 210 223 255
61.3684 61.6777 109.472 202 218 255
66.0281 88.1533 115.299 203 218 255
112.537 124.453 125.315 209 222 255
94.7367 176.688 110.679 203 219 255
118.397 5.87188 100.874 194 213 255
65.4351 143.518 113.401 196 215 255
100.524 161.414 113.115 209 222 255
97.5296 131.701 116.235 208 222 255
111.259 90.1458 112.544 255 233 215
77.0532 105.976 107.994 245 243 255
116.633 27.4699 116.786 189 210 255
140.496 140.224 114.639 220 229 255
138.605 37.0902 116.304 192 212 255
127.391 162.67 109.718 191 211 255
197.427 108.715 111.992 197 215 255
111.181 150.685 113.755 204 219 255
120.085 133.09 108.576 255 228 206
45.9327 69.2206 122.994 195 214 255
147.047 97.9294 111.995 222 230 255
212.701 62.228 112.539 219 228 255
152.782 81.0047 113.694 218 228 255
131.024 95.4217 118.164 231 235 255
129.415 124.487 113.717 255 253 249
112.288 12.6224 109.733 188 210 255
143.365 71.3214 120.372 190 211 255
122.687 54.0189 118.144 194 213 255
131.128 78.7393 117.155 255 246 237
108.819 111.504 129.435 226 232 255
93.539 175.615 110.571 255 247 238
113.388 130.036 106.861 225 232 255
37.1274 132.681 114.901 199 216 255
134.568 42.0852 113.947 190 211 255
41.579 114.315 112.267 194 213 255
115.51 106.708 129.217 204 219 255
121.444 80.0069 120.308 226 232 255
126.073 110 100.944 255 208 170
57.7446 126.676 109.84 224 231 255
54.9017 106.191 114.902 217 227 255
93.4881 185.64 110.717 220 229 255
119.275 58.8482 109.142 229 234 255
59.8093 125.634 112.101 216 227 255
170.221 113.188 111.249 217 227 255
93.7936 53.9996 117.898 187 209 255
131.241 102.117 112.171 255 192 141
114.976 156.619 116.144 210 223 255
97.6768 78.0864 112.439 234 237 255
41.4695 103.157 112.483 200 217 255
148.962 137.214 117.25 229 234 255
114.232 75.337 116.848 255 252 247
30.5918 175.703 112.424 194 213 255
106.33 57.3992 114.513 255 254 251
31.2511 113.067 113.798 209 222 255
191.378 98.2279 110.649 255 238 223
165.529 89.6963 114.209 201 217 255
104.201 110.183 105.568 219 228 255
139.028 76.178 116.848 215 226 255
92.139 94.9951 107.332 207 221 255
93.5736 174.712 111.084 199 216 255
79.5028 37.1041 111.627 183 206 255
107.412 180.065 110.806 203 218 255
120.739 153.067 116.803 255 253 249
81.9416 137.477 114.394 255 249 255
60.8898 55.6208 111.764 195 214 255
93.3472 175.808 110.916 197 215 255
98.8576 100.983 117.092 255 245 235
125.432 101.386 114.935 212 224 255
159.362 120.802 106.073 213 225 255
81.4222 60.209 116.007 213 225 255
108.472 64.5094 109.671 197 215 255
88.2441 72.9616 118.225 203 219 255
124.092 78.6456 114.934 255 233 215
74.4194 128.451 118.214 200 217 255
161.564 179.394 109.155 195 214 255
55.5238 62.0159 112.212 255 252 246
116.997 91.7894 102.4 255 253 248
110.052 67.0773 115.072 233 236 255
85.6066 15.5407 120.66 192 212 255
75.6409 75.5151 110.992 189 210 255
146.829 152.166 111.707 255 126 0
195.078 133.856 112.845 211 223 255
175.331 121.048 110.392 193 212 255
157.86 127.612 118.359 201 217 255
139.953 138.654 114.177 255 247 239
44.8218 61.5395 115.076 185 207 255
158.641 114.418 107.075 255 250 255
78.7216 16.6447 112.285 180 204 255
128.488 199.229 111.97 214 226 255
71.4652 116.544 105.477 228 233 255
84.0835 208.678 112.429 197 215 255
81.7426 90.9187 119.988 248 245 255
151.886 38.5792 111.762 190 210 255
113.417 116.502 97.7618 236 238 255
110.519 118.284 122.744 255 187 130
171.687 109.78 113.241 194 213 255
114.367 139.539 117.569 255 225 201
101.891 149.177 108.554 217 227 255
122.486 24.3378 114.644 219 228 255
127.73 101.583 119.49 234 237 255
108.804 128.411 110.767 238 239 255
72.0508 129.776 105.502 198 215 255
137.314 8.02592 113.011 182 206 255
133.154 181.196 111.611 197 215 255
112.05 118.319 108.58 209 223 255
179.853 128.494 112.662 207 221 255
111.559 76.5693 111.66 255 249 255
66.7171 135.793 109.366 198 216 255
66.2027 139.863 113.684 203 218 255
191.157 70.79 112.824 192 212 255
79.7383 79.0432 103.712 215 226 255
96.2357 167.375 118.927 217 227 255
142.31 71.6028 111.037 212 224 255
100.729 94.3065 103.553 222 230 255
128.446 101.954 109.324 255 221 194
29.081 149.684 111.321 181 205 255
52.2756 153.164 113.971 204 219 255
103.313 178.809 110.888 202 218 255
91.3018 190.223 111.895 204 219 255
112.76 87.9481 116.752 209 222 255
85.0728 19.6038 109.988 195 214 255
107.782 74.8282 117.643 189 210 255
93.4996 175.654 110.52 186 208 255
118.791 137.451 110.831 255 249 255
197.887 143.564 111.002 180 204 255
96.5664 116.595 123.854 230 235 255
106.678 168.457 111.438 189 210 255
37.3382 141.826 111.97 184 207 255
31.2088 187.836 111.773 176 202 255
114.073 123.458 104.439 197 215 255
149.896 159.86 111.895 191 211 255
115.786 127.248 123.586 214 225 255
142.824 65.2994 115.861 210 223 255
118.178 142.197 119.377 211 223 255
64.2752 33.3222 111.922 213 225 255
190.856 76.2858 115.11 205 220 255
164.946 55.6698 112.786 191 211 255
74.1403 144.413 110.223 200 217 255
141.134 27.3225 109.785 185 207 255
99.387 45.686 116.081 200 217 255
55.3515 144.439 109.464 214 225 255
169.915 135.059 117.314 206 220 255
116.986 103.592 98.0654 246 244 255
95.3646 85.4313 119.624 199 216 255
159.05 103.138 112.707 206 221 255
60.9206 108.566 119.201 191 211 255
50.8143 163.326 110.037 199 216 255
191.397 61.0989 111.891 192 212 255
191.425 150.716 112.088 208 222 255
56.6088 119.245 112.192 207 221 255
118.266 147.152 115.786 197 215 255
115.547 119.439 106.487 249 246 255
55.5337 168.924 108.709 198 215 255
98.3502 86.2151 112.101 217 227 255
93.5557 175.432 110.53 191 211 255
87.2027 65.754 108.945 192 212 255
68.0617 139.384 112.564 219 228 255
216.049 126.548 114.018 188 210 255
70.1724 140.441 110.158 255 247 239
103.509 159.005 115.544 196 215 255
68.9511 44.4477 114.956 197 215 255
93.6894 175.616 111.025 217 227 255
160.804 50.6785 114.937 211 223 255
129.716 108.647 110.551 204 219 255
21.7223 73.8575 112.91 189 210 255
215.742 73.9309 111.628 191 211 255
93.4284 175.678 110.494 185 208 255
96.2145 107.358 118.249 255 204 162
65.5749 125.329 108.721 255 250 255
128.778 173.962 112.477 183 206 255
109.601 153.663 112.008 255 225 201
36.127 189.482 113.022 189 210 255
83.9864 53.0015 114.138 231 235 255
88.5425 160.526 113.784 255 225 201
155.815 124.093 109.772 201 217 255
150.143 84.8123 112.75 222 230 255
26.6628 133.786 114.335 200 217 255
116.677 136.637 105.011 242 241 255
103.558 42.5031 113.826 206 220 255
48.062 122.87 109.921 255 232 214
85.7137 126.086 114.171 255 242 231
125.533 118.513 112.361 255 218 188
123.935 84.0852 115.207 224 231 255
96.7095 113.517 116.536 234 237 255
127.868 38.6753 111.413 194 213 255
111.841 128.343 125.012 255 243 232
93.922 173.465 111.045 207 221 255
136.547 80.2724 119.054 213 224 255
140.05 22.8793 114.588 192 212 255
119.005 175.297 110.159 221 230 255
83.1249 213.041 122.125 181 205 255
84.6998 69.3207 114.518 233 236 255
153.255 69.76 115.829 190 211 255
156.916 59.1072 112.308 223 231 255
156.8 149.772 109.342 216 227 255
99.6092 30.1129 109.087 205 220 255
53.507 108.044 115.803 231 235 255
41.1734 42.9621 114.095 184 207 255
93.1035 175.306 111.177 205 220 255
131.107 195.857 121.016 188 209 255
89.6593 75.5103 117.531 200 217 255
157.513 3.20587 115.119 221 229 255
94.489 175.904 111.351 200 217 255
57.8559 158.654 110.147 188 209 255
87.7648 157.541 115.499 186 208 255
121.513 83.3022 111.523 255 245 234
123.947 127.877 109.943 255 124 0
72.2921 76.3732 113.55 200 217 255
72.5336 171.617 113.114 201 218 255
94.9322 176.098 111.573 213 225 255
150.004 81.0631 112.018 217 227 255
154.851 172.312 110.211 181 205 255
136.436 54.5965 110.279 250 246 255
77.4272 22.2887 115.876 192 212 255
65.2122 213.539 117.22 175 201 255
56.4895 112.987 110.049 195 214 255
107.531 152.402 112.348 255 234 216
191.926 100.601 109.581 198 216 255
186.951 63.8624 113.228 210 223 255
47.8695 109.784 112.291 212 224 255
46.0128 104.772 112.821 201 218 255
116.703 114.06 99.4825 217 227 255
189.586 34.0079 113.259 192 212 255
158.445 170.265 112.823 201 217 255
87.4633 29.4408 109.936 191 211 255
117.863 102.202 105.857 241 241 255
68.2521 101.612 117.159 213 225 255
30.5713 150.54 108.688 178 203 255
54.0096 56.7388 110.219 212 224 255
112.781 119.665 108.815 255 234 216
117.647 103.157 120.166 255 230 210
102.204 129.908 114.65 218 228 255
72.3046 160.614 109.624 186 208 255
103.866 175.441 111.456 255 248 241
72.0714 25.7327 98.1155 192 212 255
87.418 148.551 117.233 223 231 255
170.833 109.819 115.026 200 217 255
144.047 82.2579 118.106 189 210 255
116.477 111.437 126.192 255 169 93
170.89 142.36 109.998 192 212 255
105.465 117.871 125.843 234 237 255
129.564 103.458 113.998 239 240 255
59.2773 105.266 111.725 229 234 255
203.109 86.8882 112.666 176 202 255
101.872 147.713 111.716 208 221 255
112.485 97.9865 117.94 221 229 255
198.416 173.232 116.028 202 218 255
57.7254 109.807 109.435 255 244 234
181.625 78.0698 111.987 210 223 255
91.6238 74.7431 110.381 203 219 255
120.511 146.061 110.176 232 236 255
62.1728 186.329 112.057 205 220 255
91.9917 39.6584 113.192 194 213 255
98.0293 126.176 104.944 255 227 205
129.881 115.654 112.09 199 216 255
156.286 89.1669 110.761 247 245 255
128.725 154.985 118.016 255 211 176
198.259 154.518 114.857 186 208 255
34.7057 145.319 109.598 202 218 255
93.0811 175.749 110.384 255 251 255
154.024 162.193 110.023 186 208 255
122.752 136.025 116.593 195 214 255
88.9805 67.5614 114.799 208 222 255
112.021 60.6846 108.556 198 215 255
86.685 58.1747 105.54 203 219 255
164.148 168.192 113.911 205 220 255
51.1615 111.323 109.295 202 218 255
93.4558 175.624 110.687 220 229 255
114.387 31.2099 134.749 206 220 255
103.146 161.548 114.022 219 228 255
192.275 106.898 111.654 255 253 248
131.652 138.048 110.982 222 230 255
54.102 115.565 111.021 204 219 255
93.9658 176.098 110.32 255 235 218
176.552 131.329 111.007 196 214 255
114.758 78.4149 116.079 200 217 255
199.956 159.765 116.538 186 208 255
124.444 77.0093 119.48 255 228 206
124.487 148.781 111.885 186 208 255
86.0416 57.6097 112.875 195 214 255
87.3431 59.7186 110.934 229 234 255
152.665 157.481 116.962 186 208 255
120.418 118.671 117.902 249 246 255
110.441 72.3098 112.737 203 218 255
91.3674 10.5962 113.826 192 212 255
142.257 74.3234 114.794 207 221 255
21.9726 84.384 113.711 207 221 255
54.4089 191.446 114.469 200 217 255
45.0307 53.8522 123.648 206 221 255
76.5714 56.9808 117.424 219 229 255
1.81711 107.233 113.773 191 211 255
91.0082 74.9677 114.353 187 209 255
56.6861 126.391 108.58 187 208 255
106.632 70.888 116.574 199 216 255
120.375 101.148 107.364 255 199 153
44.2298 149.429 110.858 208 221 255
58.1488 120.757 110.951 188 209 255
119.708 121.674 114.631 255 125 0
149.872 185.581 114.268 185 208 255
141.088 137.587 105.159 204 219 255
123.778 131.221 110.432 214 225 255
132.945 126.023 120.531 255 227 204
144.317 122.638 114.617 208 222 255
126.069 94.1497 108.74 255 103 0
163.985 83.1446 111.831 206 220 255
94.4952 118.367 108.111 224 231 255
150.321 210.5 111.194 197 215 255
204.064 129.808 109.832 191 211 255
126.026 129.992 114.403 195 213 255
89.6578 15.5172 123.231 191 211 255
101.273 40.5026 113.102 186 208 255
62.5263 52.8926 112.757 195 214 255
111.897 120.428 121.762 255 167 88
47.0189 139.177 111.027 208 222 255
94.7429 33.1931 111.158 255 254 250
80.5183 151.694 111.232 206 220 255
118.265 124.16 117.607 255 221 195
112.944 155.073 109.17 217 227 255
164.889 166.119 110.631 255 244 234
113.309 35.5934 113.353 196 214 255
43.554 190.094 112.222 195 214 255
85.7083 53.1033 108.505 218 228 255
101.109 53.3385 111.745 255 253 249
73.0346 99.4579 107.096 255 109 0
151.533 79.6084 111.279 230 235 255
169.83 155.065 110.746 205 220 255
153.944 178.825 112.254 199 216 255
78.8014 94.1943 121.617 198 216 255
67.2786 161.501 111.778 225 232 255
73.4996 143.542 113.223 216 227 255
101.21 63.7257 106.449 245 243 255
72.0539 97.2731 107.423 216 226 255
101.574 115.251 105.364 255 206 167
111.744 122.931 101.994 255 244 233
203.368 81.081 112.597 191 211 255
99.6661 77.2225 114.414 255 192 141
106.5 183.823 110.696 201 218 255
98.4389 165.154 110.79 255 239 226
101.541 199.282 112.121 196 214 255
33.4305 138.777 112.502 204 219 255
96.114 66.8613 113.211 200 217 255
136.038 71.3453 110.908 201 217 255
180.956 96.0171 111.874 192 212 255
93.5847 174.798 111.319 195 214 255
86.9101 109.95 107.376 230 234 255
117.913 5.51379 95.4889 198 216 255
63.853 169.127 112.451 195 214 255
128.761 169.761 112.428 194 213 255
