ply
format ascii 1.0
element vertex 1340
property float x
property float y
property float z
property uchar red
property uchar green
property uchar blue
end_header
179.662 57.1132 112.707 185 208 255
133.818 72.2315 120.247 207 221 255
105.015 102.474 112.164 255 228 206
49.8555 166.967 115.093 205 220 255
4.44996 172.544 113.105 176 202 255
95.1556 119.897 112.318 255 245 235
63.6978 43.0748 107.743 213 224 255
213.721 35.3422 110.409 200 217 255
149.71 137.035 111.488 195 214 255
56.9135 26.1784 116.24 190 211 255
57.0647 187.948 112.22 214 225 255
125.772 79.3224 109.868 237 239 255
58.1963 88.6397 113.343 199 216 255
117.848 88.8948 116.398 255 233 215
95.4762 203.628 98.2093 200 217 255
166.141 125.749 100.097 204 219 255
82.2567 55.2332 114.188 200 217 255
99.9355 43.1879 113.206 203 219 255
116.927 113.672 101.426 207 221 255
79.626 34.9681 107.954 182 206 255
60.3668 81.0189 117.232 255 250 255
157.403 106.37 131.27 195 214 255
115.039 110.648 114.874 255 219 191
123.371 102.315 100.755 255 235 219
113.075 188.428 113.266 190 210 255
108.234 104.551 111.093 248 245 255
36.5169 160.154 111.347 177 202 255
142.17 91.9942 111.526 197 215 255
80.5002 116.21 112.56 255 143 31
120.684 78.9664 120.25 205 220 255
145.476 92.2073 104.815 204 219 255
61.9616 179.009 113.503 210 223 255
93.6771 173.644 110.601 255 191 139
93.0357 180.52 109.074 255 243 231
116.274 119.373 112.786 255 250 255
160.957 126.047 111.354 208 222 255
118.266 117.705 107.874 230 235 255
134.561 70.3836 111.726 201 218 255
185.684 81.0619 116.365 211 223 255
122.506 108.68 116.575 222 230 255
177.17 56.6559 115.483 202 218 255
93.425 173.543 110.147 240 241 255
56.0497 114.893 116.197 219 228 255
133.755 171.034 118.995 203 219 255
116.654 165.118 112.013 208 222 255
102.525 154.947 112.352 211 223 255
1.73755 80.2411 109.744 181 205 255
100.211 102.008 116.768 204 219 255
129.827 85.051 113.179 203 219 255
124.331 123.647 115.96 221 230 255
95.2348 88.0649 85.808 224 231 255
112.835 121.128 115.825 255 245 235
93.3279 173.57 110.234 221 229 255
117.317 194.018 130.559 180 204 255
93.5719 173.705 110.448 201 218 255
114.942 122.897 119.268 219 228 255
47.1565 88.9831 131.067 205 220 255
105.665 117.911 119.593 252 247 255
93.0742 173.806 109.672 194 213 255
170.664 78.3646 110.671 194 213 255
76.0134 166.741 115.208 191 211 255
110.548 70.6802 121.889 234 237 255
117.803 123.494 112.229 255 247 238
54.9107 137.256 109.235 212 224 255
125.349 155.857 111.276 193 213 255
19.9464 187.715 111.714 181 205 255
107.906 94.6442 120.133 216 226 255
99.3687 109.892 115.142 229 234 255
81.1589 102.917 112.924 255 247 238
67.1958 39.184 109.657 188 209 255
148.066 100.305 111.118 255 210 174
121.658 116.608 111.119 220 229 255
82.7935 156.181 109.799 250 246 255
130.53 74.0293 126.738 236 238 255
93.6016 173.647 110.419 185 207 255
104.023 108.653 117.315 239 240 255
123.14 170.61 116.182 187 209 255
144.502 82.762 93.2508 223 230 255
123.115 195.805 116.214 192 212 255
114.357 157.251 112.777 195 214 255
80.2144 158.532 105.607 255 224 199
192.083 172.516 113.592 179 203 255
79.11 26.7676 143.231 189 210 255
93.7943 173.563 110.504 255 244 233
105.433 157.417 118.518 255 245 236
131.986 72.0172 110.571 255 230 210
136.009 68.9642 116.071 221 229 255
111.986 97.5716 120.389 243 242 255
100.321 88.343 125.402 237 239 255
73.311 168.612 113.256 255 253 248
119.752 130.645 115.018 255 250 255
201.679 38.5294 113.276 187 209 255
165.343 130.341 113.801 232 236 255
102.682 103.506 110.657 255 240 226
133.881 82.7864 107.857 255 181 118
146.036 128.061 76.6656 191 211 255
93.571 173.678 110.39 239 240 255
93.5721 173.699 110.437 229 234 255
111.672 109.502 128.133 221 230 255
93.9503 39.9938 112.809 244 243 255
161.6 139.616 110.608 238 239 255
164.261 113.921 101.93 195 214 255
115.081 143.867 114.183 252 247 255
60.7737 59.7651 85.0676 255 240 228
25.3276 51.3927 116.668 189 210 255
153.131 135.904 111.377 251 246 255
72.4594 23.4946 109.365 184 207 255
46.4338 58.0234 111.993 205 220 255
93.5709 173.714 110.466 218 228 255
127.119 77.3874 124.116 242 242 255
68.8053 64.6729 104.72 206 221 255
45.4889 75.9147 110.924 193 212 255
121.946 110.387 103.079 216 227 255
130.933 103.164 135.302 205 220 255
109.12 157.472 117.935 212 224 255
116.329 112.551 115.275 255 182 120
44.6818 71.7862 115.352 187 209 255
187.869 86.6561 109.604 198 215 255
139.709 82.3116 129.953 255 246 236
95.3978 140.853 111.987 229 234 255
160.744 19.5463 111.574 187 209 255
121.98 29.5373 110.615 205 220 255
94.0625 211.533 105.614 192 212 255
122.616 75.608 124.998 189 210 255
188.647 34.4016 111.831 188 210 255
82.7397 125.823 112.815 237 239 255
196.079 26.3504 111.205 204 220 255
68.3647 89.6222 113.997 212 224 255
111.109 108.837 113.721 229 234 255
156.534 114.67 100.112 239 240 255
78.3667 111.388 110.462 216 227 255
112.158 32.5998 119.776 186 208 255
51.9945 131.347 115.998 220 229 255
108.451 104.444 109.939 242 241 255
174.899 91.3457 113.65 196 214 255
101.912 124.251 121.399 205 220 255
85.7466 144.202 111.464 228 234 255
153.099 107.1 121.821 239 240 255
117.115 114.939 128.672 192 212 255
138.946 91.7276 113.882 240 241 255
117.834 120.685 123.804 255 225 201
51.4699 85.7362 108.587 250 246 255
117.14 181.949 118.331 187 209 255
94.1749 178.617 111.527 206 220 255
81.4332 107.926 112.742 214 225 255
204.909 23.372 121.58 178 203 255
103.011 95.3648 115.149 225 232 255
183.418 129.851 127.435 212 224 255
98.7912 67.1128 111.997 213 225 255
93.5461 173.662 110.316 255 250 255
166.671 104.626 116.028 187 209 255
114.786 160.06 110.407 191 211 255
100.654 29.9843 110.128 219 228 255
52.4234 54.8502 105.92 190 210 255
106.156 114.448 123.531 235 238 255
63.4501 96.7826 112.017 212 224 255
53.834 119.631 121.702 255 245 236
152.113 94.1037 119.902 186 208 255
101.662 177.338 121.453 205 220 255
113.039 99.1216 116.273 255 221 194
52.1208 105.659 103.161 192 212 255
84.1326 66.7819 115.287 199 216 255
51.5843 101.233 113.001 215 226 255
157.377 95.7249 113.341 219 228 255
118.967 187.681 106.339 204 219 255
101.812 183.143 115.501 255 206 167
115.618 117.612 111.829 255 249 255
77.3353 135.978 112.493 202 218 255
159.206 110.498 113.431 204 219 255
110.099 124.899 103.705 221 229 255
113.787 87.6963 119.153 213 225 255
178.931 180.986 114.234 181 205 255
96.4958 104.378 104.815 255 250 244
127.573 147.935 110.36 215 226 255
68.8276 162.293 112.291 200 217 255
93.5281 166.243 106.812 215 226 255
138.182 123.152 110.666 255 254 251
111.381 178.784 111.1 188 210 255
48.5443 128.124 72.8967 213 225 255
147.605 153.703 112.155 193 213 255
62.223 125.974 109.417 214 225 255
102.818 106.182 111.382 223 230 255
140.611 125.825 110.999 197 215 255
66.6388 108.633 117.691 224 231 255
143.535 92.1705 83.8626 228 234 255
118.06 125.675 105.084 250 246 255
120.165 123.437 103.091 208 222 255
93.5717 173.709 110.456 200 217 255
123.919 31.1671 112.405 201 218 255
152.238 89.3425 122.258 213 225 255
110.185 101.787 114.894 255 198 151
93.5718 173.684 110.404 190 210 255
154.519 153.503 143.257 189 210 255
93.572 173.703 110.444 240 241 255
110.226 105.591 115.904 255 253 248
112.371 113.36 110.106 225 232 255
148.12 142.292 113.948 215 226 255
48.0374 67.0911 114.517 195 214 255
105.647 102.125 104.714 255 233 215
113.758 91.8019 113.336 185 207 255
108.157 3.25992 111.982 214 225 255
34.7491 114.534 116.032 244 243 255
75.5118 14.9572 142.62 199 216 255
115.641 118.236 112.525 210 223 255
100.741 145.732 113.93 224 231 255
156.404 124.117 110.045 187 209 255
168.52 101.654 107.442 206 220 255
93.5721 173.701 110.44 245 243 255
199.962 84.5002 115.135 190 211 255
115.764 95.8954 114.109 255 220 192
93.6215 173.747 110.541 203 219 255
66.9066 134.383 104.656 205 220 255
56.5637 18.0445 86.4963 194 213 255
111.405 127.154 108.992 217 227 255
114.098 86.0736 114.84 203 219 255
187.949 14.3061 110.937 195 214 255
157.668 40.159 115.7 196 214 255
165.296 176.144 101.784 201 217 255
128.26 100.024 113.638 227 233 255
109.245 106.063 121.377 255 212 178
75.3916 66.2106 112.437 199 216 255
83.6577 192.167 112.595 181 205 255
186.658 19.847 123.648 189 210 255
66.0787 104.393 112.122 221 229 255
95.5079 124.536 112.879 255 203 161
110.861 115.516 109.03 220 229 255
82.477 132.435 112.275 199 216 255
105.699 101.722 108.766 255 226 202
113.67 116.612 107.922 209 222 255
105.459 113.332 120.898 198 216 255
51.0395 104.265 99.723 212 224 255
101.292 129.85 124.118 217 227 255
180.073 199.837 104.319 195 214 255
111.851 103.849 97.9182 255 249 255
87.6849 86.7764 112.538 204 219 255
32.2097 114.403 106.582 255 240 227
153.798 80.5548 115.913 247 245 255
93.5717 173.706 110.452 197 215 255
120.521 77.9788 121.062 248 245 255
71.7677 93.4414 111.822 232 236 255
117.999 143.329 110.985 232 236 255
159.511 100.551 113.704 197 215 255
66.0469 104.263 121.928 193 212 255
131.091 47.3747 119.208 186 208 255
170.967 136.339 104.002 207 221 255
81.1517 47.1997 112.029 193 212 255
131.1 86.2195 113.372 255 251 244
55.2813 88.4198 98.5604 197 215 255
93.5721 173.692 110.423 196 214 255
101.673 52.8631 109.811 212 224 255
161.008 111.716 112.118 197 215 255
121.517 89.9053 111.888 223 231 255
78.9235 68.0621 112.247 193 212 255
182.111 36.9463 113.377 191 211 255
106.08 83.0349 111.029 218 228 255
201.732 78.2474 109.963 197 215 255
115.02 95.8184 115.347 255 194 144
110.905 103.039 104.434 248 245 255
52.3422 37.9969 135.747 212 224 255
107.503 110.742 121.686 255 199 154
78.9381 141.322 122.502 255 204 164
71.2245 115.508 109.445 204 220 255
158.898 149.159 111.451 205 220 255
93.5746 173.951 110.42 214 225 255
69.8859 126.861 111.53 217 227 255
100.03 93.105 108.95 226 232 255
73 73.5715 113.482 255 226 203
51.6567 123.221 97.7972 241 241 255
98.0551 116.108 114.799 255 250 244
182.135 49.1461 113.898 204 219 255
93.5717 173.704 110.447 231 235 255
114.763 122.595 107.891 255 234 216
100.196 17.1549 103.914 255 249 242
119.328 90.0689 115.292 239 240 255
121.647 118.627 109.639 230 235 255
140.372 71.1891 123.085 255 253 249
93.572 173.702 110.443 194 213 255
36.9131 67.1331 111.577 200 217 255
93.5723 173.696 110.43 255 243 232
130.203 81.7188 121.561 255 250 243
57.7986 126.677 114.855 194 213 255
214.369 139.121 121.118 183 206 255
59.5979 125.344 102.242 255 248 240
165.479 156.352 113.078 215 226 255
108.575 102.008 113.199 219 228 255
117.61 115.987 102.083 234 237 255
121.944 120.818 108.948 205 220 255
138.759 82.9055 120.999 186 208 255
113.751 117.04 127.443 255 226 203
86.7783 58.6053 114.182 255 242 231
99.1093 100.644 122.848 214 225 255
118.299 153.494 112.313 201 218 255
78.6064 74.8761 114.795 210 223 255
107.857 210.775 114.371 206 220 255
136.851 15.451 109.489 180 204 255
135.712 36.4203 113.462 195 214 255
81.7563 112.783 112.684 255 238 224
158.816 102.226 90.2911 225 232 255
223.212 96.9324 111.467 182 206 255
172.125 192.54 107.799 182 205 255
216.708 30.0691 114.406 183 206 255
168.948 110.38 93.6226 202 218 255
13.5959 188.519 112.703 188 210 255
110.262 149.455 116.458 255 252 247
93.6904 173.549 110.301 236 238 255
93.5721 173.702 110.443 227 233 255
111.762 123.685 112.311 209 222 255
93.5717 173.707 110.452 217 227 255
100.767 127.869 110.812 246 244 255
3.19124 131.031 95.6707 201 218 255
93.5909 173.076 109.649 194 213 255
141.929 32.5616 114.404 208 222 255
117.977 45.4048 110.938 219 228 255
115.972 80.1937 118.497 255 254 251
140.165 84.299 103.414 218 228 255
71.3237 114.815 113.459 212 224 255
89.715 54.8634 115.207 208 222 255
120.502 119.945 110.166 214 226 255
76.8239 12.134 94.6222 201 218 255
120.882 80.1865 123.078 207 221 255
154.445 48.09 112.018 193 212 255
93.5721 173.7 110.44 202 218 255
139.991 105.6 111.645 255 250 255
212.144 93.9975 107.235 185 207 255
174.934 98.584 109.507 186 208 255
93.572 173.702 110.443 216 227 255
163.514 14.9868 99.3763 190 211 255
111.756 95.4586 109.08 255 129 0
59.6223 85.5766 113.362 187 208 255
103.009 102.433 117.174 255 250 244
98.5358 124.101 116.353 217 227 255
95.9389 88.6228 116.649 255 251 245
11.6767 161.382 113.293 177 202 255
74.4245 146.713 109.565 219 228 255
93.5716 173.669 110.365 212 224 255
139.285 3.62831 107.964 203 218 255
102.982 143.001 112.516 232 236 255
102.157 54.0632 112.685 209 222 255
63.3692 126.31 108.379 197 215 255
63.6384 35.0413 118.888 206 221 255
110.359 110.953 110.641 197 215 255
93.6626 173.275 110.154 225 232 255
151.622 88.4837 104.451 241 241 255
93.572 173.689 110.415 255 251 245
120.227 123.682 108.195 207 221 255
122.239 79.868 115.801 255 219 190
97.9333 77.2964 112.443 213 225 255
153.489 39.8182 113.495 193 213 255
113.647 104.812 114.44 210 223 255
93.5721 173.701 110.44 193 213 255
122.148 96.9247 114.697 218 228 255
50.9846 53.7036 108.745 208 222 255
93.4898 173.662 111.315 222 230 255
120.563 95.4529 113.515 255 234 217
213.422 93.5614 113.887 207 221 255
117.022 87.7838 116.227 216 227 255
162.699 144.726 112.816 217 227 255
63.5648 91.1445 121.712 220 229 255
153.051 44.378 113.735 193 212 255
90.0615 141.075 113.127 230 235 255
144.075 119.166 111.566 195 214 255
164.623 103.791 116.457 255 239 226
93.5596 173.662 110.348 195 214 255
123.037 81.7489 113.003 202 218 255
96.7998 172.357 121.198 210 223 255
23.4213 64.6786 114.332 185 207 255
92.751 172.807 109.846 193 213 255
218.451 59.3158 109.976 194 213 255
100.383 82.178 128.339 255 207 169
62.5615 117.799 124.247 200 217 255
144.328 1.75538 113.401 191 211 255
208.062 70.9356 108.777 192 212 255
99.5092 198.154 104.715 204 219 255
98.9755 173.208 114.118 195 214 255
64.9587 89.428 110.982 255 211 176
198.86 6.55266 105.133 188 209 255
93.5694 173.642 110.314 208 222 255
104.353 109.186 110.65 255 249 242
93.7941 173.223 110.397 244 243 255
103.478 185.479 112.076 194 213 255
145.136 158.539 114.55 196 214 255
106.629 139.771 111.416 202 218 255
207.664 48.7084 111.912 198 215 255
193.803 33.5203 109.562 200 217 255
119.216 84.0966 123.448 192 212 255
143.117 131.747 110.845 194 213 255
137.914 122.594 111.82 183 206 255
93.5748 173.668 110.365 205 220 255
189.094 73.8327 112.67 193 212 255
115.066 9.89631 116.982 186 208 255
108.278 104.905 111.057 255 235 218
28.1453 130.52 109.411 197 215 255
217.196 119.083 107.287 219 228 255
111.776 114.072 99.5903 255 247 239
183.761 11.3507 107.686 199 216 255
152.192 103.926 114.051 210 223 255
116.163 121.675 106.402 255 249 241
93.7008 174.689 111.373 212 224 255
117.053 124.9 107.472 211 223 255
118.174 107.595 102.779 200 217 255
93.0382 108.163 110.162 204 219 255
152.295 141.954 116.985 203 219 255
112.147 31.3454 112.294 192 212 255
93.4744 134.374 112.74 211 223 255
93.5634 173.789 110.5 188 209 255
76.0208 17.2698 117.192 184 207 255
93.5117 173.892 110.294 255 249 242
93.661 173.704 110.357 255 251 245
90.6055 149.743 115.956 255 229 209
127.598 88.6717 114.935 191 211 255
119.026 104.575 112.923 255 227 204
47.4174 87.4531 102.37 196 214 255
103.702 127.678 110.16 241 241 255
81.9527 221.864 105.444 194 213 255
122.263 119.121 109.623 255 243 232
79.3378 125.714 112.726 204 219 255
173.886 134.593 121.467 188 209 255
93.5722 173.697 110.432 246 244 255
93.7664 26.4951 99.3364 204 219 255
93.3784 173.378 110.707 255 249 242
112.86 118.256 107.784 255 159 70
88.5695 57.0606 117.64 190 211 255
93.4235 173.923 110.382 255 193 143
109.917 126.274 105.039 255 199 154
155.694 11.6738 113.591 181 205 255
56.6296 124.553 92.0071 200 217 255
134.9 85.032 111.742 196 214 255
120.891 118.323 111.894 255 217 187
175.971 31.5876 112.303 192 212 255
141.941 12.7925 108.179 204 219 255
147.48 9.7729 119.674 193 212 255
151.982 86.804 105.011 255 206 167
64.1381 166.818 111.407 237 239 255
123.034 124.891 108.773 209 222 255
140.171 155.606 112.155 197 215 255
114.085 135.411 114.902 229 234 255
146.327 84.1275 123.331 188 210 255
155.408 27.3599 111.926 215 226 255
54.7806 56.4372 105.201 255 252 247
110.976 151.101 116.907 201 217 255
112.328 125.745 121.396 255 249 242
134.635 128.812 111.194 255 201 158
145.364 132.537 114.363 194 213 255
102 113.228 121.048 230 235 255
105.203 122.831 109.732 250 246 255
61.3716 129.784 106.787 200 217 255
99.5414 8.72428 111.414 186 208 255
67.6566 107.493 112.564 221 230 255
172.439 85.2551 115.05 193 212 255
85.9491 180.816 119.739 255 220 192
161.274 78.1661 121.448 193 212 255
165.841 143.262 112.048 205 220 255
158.947 110.444 112.149 197 215 255
33.8243 169.364 108.645 220 229 255
126.621 77.1079 110.44 252 247 255
104.242 114.69 115.412 211 223 255
61.0585 114.497 97.9689 218 228 255
110.099 129.468 103.417 212 224 255
94.4781 103.566 116.7 255 228 206
140.154 102.946 113.615 213 225 255
103.551 146.899 110.933 201 217 255
43.6083 53.3 70.6996 244 242 255
177.668 133.63 106.865 255 250 255
91.1838 52.2019 115.887 198 216 255
60.4413 111.316 121.684 255 203 161
82.0119 38.127 110.239 182 206 255
114.411 119.889 103.797 197 215 255
103.717 167.11 99.8908 213 225 255
53.3287 70.7046 133.009 189 210 255
65.7893 88.2603 113.284 255 252 248
93.5209 173.598 110.283 205 220 255
56.5122 121.27 123.071 204 220 255
114.666 37.0144 113.947 198 216 255
126.277 26.3473 112.336 195 214 255
127.297 35.9908 115.487 205 220 255
32.0096 117.029 106.831 203 219 255
121.604 119.071 123.688 210 223 255
86.4735 174.765 112.291 188 209 255
62.806 213.525 99.9815 196 214 255
168.598 110.303 138.677 230 235 255
107.91 110.814 119.377 213 225 255
71.9063 130.059 110.968 255 232 214
67.1874 208.33 116.431 184 207 255
73.4472 218.355 98.3747 207 221 255
113.074 39.6214 111.312 200 217 255
80.281 31.8491 115.453 196 214 255
114.774 126.082 113.141 214 225 255
114.907 122.532 108.979 255 248 241
104.424 104.831 111.484 255 183 123
173.308 20.9395 105.132 189 210 255
82.4579 120.228 113.882 223 231 255
27.4178 86.7419 113.615 184 207 255
106.953 169.306 104.564 255 210 175
85.9982 91.7736 112.466 240 240 255
13.1925 155.657 118.382 181 205 255
111.828 114.996 109.416 255 201 158
93.5722 173.698 110.435 187 209 255
152.446 130.852 99.6688 192 212 255
58.7207 111.891 112.769 232 236 255
83.4109 149.688 114.592 235 237 255
124.489 94.3535 99.4281 255 250 243
190.952 101.792 114.119 207 221 255
104.141 170.975 127.015 216 227 255
112.139 124.069 106.83 255 221 194
49.1883 201.324 116.393 188 209 255
100.201 107.239 111.217 255 195 146
75.2554 106.155 111.608 218 228 255
162.389 27.4009 120.035 195 214 255
110.005 155.191 114.554 198 215 255
55.8738 181.175 112.303 198 216 255
170.131 72.3498 115.919 223 230 255
147.415 93.1639 107.546 212 224 255
213.139 142.614 114.588 231 235 255
139.98 149.967 111.249 231 235 255
113.003 137.139 108.267 255 197 151
214.842 139.349 112.363 195 214 255
134.301 106.616 113.372 255 250 244
153.982 123.428 111.083 227 233 255
153.468 144.368 113.065 255 250 244
163.779 85.7723 112.633 202 218 255
202.279 146.027 121.621 199 216 255
115.872 135.298 120.455 243 242 255
93.5722 173.691 110.42 192 212 255
115.447 101.2 114.936 255 218 189
102.354 86.821 114.543 255 220 192
128.986 100.588 112.658 226 232 255
109.19 99.3878 118.625 197 215 255
95.3559 112.015 108.492 233 237 255
93.572 173.702 110.442 201 218 255
117.617 117.871 108.305 255 201 158
78.5323 79.6997 114.226 255 242 230
70.9218 63.6665 118.07 183 206 255
160.891 140.718 115.454 202 218 255
63.0065 111.316 109.075 221 230 255
94.6141 23.9544 106.33 195 214 255
72.065 60.9803 106.086 221 229 255
53.5273 63.1001 115.229 202 218 255
135.559 135.027 117.783 192 212 255
93.5717 173.708 110.455 193 212 255
112.38 196.489 110.452 199 216 255
109.375 114.044 110.836 243 242 255
114.956 52.6769 115.621 205 220 255
88.6945 51.1505 112.517 211 224 255
188.816 153.026 114.047 191 211 255
105.391 152.117 104.054 225 232 255
74.1959 98.4096 111.685 239 240 255
86.8048 19.2543 103.747 180 204 255
125.613 116.479 121.865 197 215 255
79.9164 79.1478 112.12 255 246 237
148.56 11.1099 112.43 188 209 255
109.344 119.919 112.812 234 237 255
68.6848 98.4297 112.484 255 229 209
93.5785 173.639 110.337 202 218 255
103.237 155.967 104.357 248 245 255
50.5808 73.3675 127.719 245 243 255
173.456 49.5127 111.148 202 218 255
146.853 148.915 110.15 202 218 255
73.265 142.871 116.438 255 225 201
115.487 123.437 109.178 255 222 196
52.3383 73.3669 116.077 198 216 255
93.5722 173.694 110.427 246 244 255
12.8011 104.352 106.691 188 209 255
149.537 89.8313 119.567 205 220 255
68.9085 126.934 104.267 209 222 255
63.1328 72.6182 113.087 201 218 255
93.348 173.828 110.972 249 246 255
137.544 177.956 120.053 213 225 255
116.337 148.692 112.255 255 197 150
129.481 73.2853 109.818 197 215 255
108.223 81.9233 131.011 255 203 162
108.093 118.987 115.307 214 225 255
113.703 131.037 113.988 199 216 255
124.266 98.5684 102.802 255 243 232
93.5615 174.741 112.258 198 216 255
212.609 41.2078 112.943 182 205 255
46.2577 66.4912 115.618 192 212 255
121.653 71.5037 121.341 186 208 255
114.601 111.877 116.237 206 221 255
108.263 109.863 107.83 193 213 255
186.561 87.4154 110.311 181 205 255
93.5722 173.7 110.439 233 237 255
93.5721 173.7 110.44 191 211 255
111.462 100.342 116.028 255 201 158
111.924 126.546 117.184 255 222 195
152.952 134.65 112.372 214 225 255
112.117 146.775 134.542 255 217 188
93.5721 173.692 110.421 195 214 255
78.7218 141.612 104.083 192 212 255
97.5067 153.333 127.212 255 185 125
108.974 106.77 111.953 255 205 165
85.3555 184.048 102.266 255 206 168
0.461303 109.59 116.288 186 208 255
164.538 106.151 99.8221 209 222 255
129.402 82.2523 109.024 209 222 255
79.0987 109.437 113.411 196 214 255
76.6683 87.3567 110.628 214 225 255
121.775 108.712 123.642 237 239 255
69.8163 75.133 121.092 197 215 255
93.4274 172.962 109.492 186 208 255
101.1 107.926 128.23 255 159 71
114.768 125.211 106.234 255 217 187
122.296 28.2183 113.951 189 210 255
193.705 90.2326 112.646 198 215 255
123.86 155.411 114.634 204 219 255
82.7249 97.3897 114.119 218 228 255
110.676 117.293 130.964 195 214 255
80.2922 153.212 113.677 193 213 255
82.3464 174.189 119.309 255 236 219
58.3483 162.275 113.056 229 234 255
59.2748 109.934 112.464 209 222 255
114.924 107.93 104.271 255 234 216
69.2622 52.7135 105.574 208 221 255
116.49 107.642 106.364 255 225 200
74.4212 89.5304 113.223 199 216 255
108.13 137.404 106.961 209 223 255
130.328 71.8424 113.669 255 247 238
93.5818 173.397 110.095 209 222 255
158.129 130.813 110.349 194 213 255
93.7315 173.615 109.794 246 244 255
6.5146 89.2158 113.258 211 223 255
12.6893 77.2613 114.534 220 229 255
93.5724 173.688 110.412 194 213 255
93.5721 173.7 110.438 255 250 255
83.5869 93.7029 113.353 190 210 255
112.884 104.753 102.259 240 240 255
95.0371 174.483 112.802 202 218 255
8.69773 199.377 113.707 186 208 255
86.4667 223.199 116.004 179 204 255
81.1074 136.935 110.291 255 250 255
93.5739 173.683 110.39 217 227 255
53.4165 99.4484 113.489 206 220 255
111.08 122.926 112.927 231 235 255
168.216 12.6431 119.073 196 214 255
124.916 212.244 124.274 189 210 255
19.8896 81.9807 115.196 192 212 255
67.6966 123.235 107.283 219 229 255
132.113 137.634 113.905 196 214 255
89.9083 151.947 108.286 197 215 255
106.676 22.4247 92.8909 189 210 255
140.501 33.4306 112.88 194 213 255
93.5745 173.676 110.348 193 213 255
219.45 61.6823 111.994 181 205 255
63.4289 85.6717 110.491 255 243 232
93.5721 173.703 110.445 210 223 255
110.199 142.715 112.085 215 226 255
156.884 25.9736 113.796 193 212 255
106.543 121.223 117.61 255 204 162
12.3684 72.0397 114.655 180 204 255
126.588 78.0432 107.224 255 250 244
93.573 173.691 110.413 196 214 255
93.0015 174.102 110.99 207 221 255
93.5762 173.778 110.548 212 224 255
118.36 140.014 108.44 224 231 255
109.89 97.06 109.458 255 241 229
98.5649 96.9187 117.867 255 250 244
115.035 110.785 111.322 255 216 185
88.0083 2.83952 112.018 196 214 255
147.215 124.496 91.4555 200 217 255
132.889 124.965 111.376 216 227 255
93.572 173.701 110.441 217 227 255
63.4229 121.723 101.044 204 219 255
105.018 165.315 105.452 194 213 255
93.4959 174.117 109.958 195 214 255
93.5719 173.704 110.446 239 240 255
88.1625 99.1654 114.11 255 238 224
114.393 210.18 99.9192 192 212 255
176.489 64.052 114.512 204 219 255
102.685 188.069 112.732 255 225 201
97.2825 114.921 114.885 255 246 237
93.5721 173.699 110.436 255 252 248
93.1627 174.853 114.965 255 239 225
70.7491 27.837 109.743 195 214 255
87.8656 95.2788 113.321 192 212 255
4.96566 84.1758 119.309 215 226 255
108.063 128.871 106.608 255 231 212
199.649 167.303 110.249 202 218 255
104.943 104.523 118.335 209 222 255
98.3694 114.835 113.666 228 233 255
56.2768 189.346 112.755 191 211 255
54.8266 121.231 117.176 214 225 255
134.816 67.8565 126.669 233 237 255
100.204 169.459 109.2 241 241 255
108.157 112.517 111.536 235 238 255
103.946 161.307 122.255 200 217 255
123.53 106.243 113.339 255 240 227
93.5721 173.701 110.441 193 213 255
156.892 147.277 140.166 203 219 255
148.271 144.26 90.1172 199 216 255
85.5583 127.081 113.528 196 214 255
168.027 152.587 114.191 188 209 255
102.09 5.65413 109.747 187 208 255
110.496 59.4067 82.5655 191 211 255
95.2995 72.5237 114.446 196 215 255
111.384 90.4695 107.162 195 214 255
123.291 111.475 111.907 246 244 255
106.424 97.3964 108.41 255 244 234
113.261 123.616 121.303 247 244 255
135.615 33.9807 115.649 198 216 255
93.1954 178.039 111.191 222 230 255
86.7747 94.7789 121.955 210 223 255
138.637 53.3825 114.956 216 226 255
98.1064 202.074 118.071 190 211 255
154.714 99.4433 97.4847 212 224 255
106.368 110.197 112.124 255 233 215
147.555 96.4928 111.645 206 220 255
166.001 110.203 114.107 210 223 255
211.119 78.2309 109.085 189 210 255
69.6902 62.1403 108.529 243 242 255
93.8373 174.144 109.714 245 243 255
76.6639 106.438 111.421 223 231 255
107.784 123.122 104.612 255 183 122
117.277 100.045 114.402 216 227 255
110.344 152.7 118.931 232 236 255
93.572 173.702 110.443 207 221 255
112.893 221.044 150.918 190 211 255
69.7393 134.499 131.03 255 227 205
193.553 160.933 117.617 188 209 255
104.223 158.367 97.5295 194 213 255
54.8331 207.307 110.693 205 220 255
113.062 113.143 110.057 215 226 255
118.828 116.391 119.385 255 179 115
98.9419 180.09 115.369 255 245 236
113.815 131.483 107.038 205 220 255
205.3 140.15 110.659 187 209 255
103.341 161.137 108.631 255 210 173
153.162 102.728 113.677 219 229 255
60.8077 115.015 111.988 255 202 158
144.353 15.5368 108.049 185 207 255
93.572 173.702 110.443 204 219 255
116.849 122.555 109.446 255 214 182
148.003 101.499 115.141 209 222 255
16.4963 171.019 113.329 189 210 255
93.6255 173.418 109.526 202 218 255
60.9951 99.2964 103.107 187 209 255
94.4031 153.33 115.624 209 222 255
44.3782 91.1635 112.849 192 212 255
44.1646 109.744 99.1511 213 225 255
93.4841 61.0258 113.794 237 239 255
70.2366 113.992 112.787 255 220 192
111.307 137.451 108.755 255 237 222
208.515 15.1664 118.156 200 217 255
114.68 198.819 107.102 199 216 255
189.057 21.1321 109.4 197 215 255
169.698 134.418 110.277 196 214 255
167.274 127.451 113.645 212 224 255
106.576 112.509 129.995 237 238 255
172.727 104.987 111.705 187 209 255
115.027 142.901 115.56 255 231 212
116.429 56.3403 116.434 212 224 255
106.254 117.862 125.547 229 234 255
118.025 118.171 98.3425 255 206 166
148.263 3.093 110.305 189 210 255
87.0928 63.8885 109.953 184 207 255
106.988 107.47 117.259 202 218 255
105.443 125.039 113.994 255 223 197
175.223 69.6277 116.616 209 222 255
17.191 137.501 111.345 192 212 255
101.564 102.413 119.885 255 231 212
184.761 138.495 116.516 191 211 255
50.8295 112.307 105.49 210 223 255
122.437 110.925 98.1602 229 234 255
14.6127 154.388 111.68 203 219 255
102.556 102.099 112.788 255 208 170
93.5721 173.699 110.436 212 224 255
93.5717 173.682 110.398 213 225 255
207.214 111.148 117.878 190 210 255
143.397 91.9732 116.727 213 225 255
39.6795 13.5149 133.76 207 221 255
173.262 94.7123 111.182 224 231 255
134.653 92.2241 112.946 231 235 255
122.987 86.665 125.623 222 230 255
93.552 173.641 110.315 188 209 255
217.235 58.839 112.295 255 230 209
117.81 131.12 114.894 205 220 255
58.0483 212.592 111.139 187 209 255
107.952 8.10199 115.899 187 209 255
71.7363 143.278 102.39 221 229 255
126.579 168.261 113.169 192 212 255
136.012 71.5656 110.037 209 222 255
106.398 140.06 118.052 213 225 255
0.240746 91.937 119.207 190 210 255
120.073 120.396 112.052 255 225 202
112.623 139.457 112.16 255 250 243
93.5716 173.691 110.421 229 234 255
114.064 106.549 97.6524 255 208 171
117.289 112.475 109.817 226 233 255
104.696 166.416 102.705 255 248 240
20.5145 58.4701 116.816 183 206 255
118.128 130.812 105.728 216 227 255
166.577 155.978 113.619 210 223 255
110.9 111.712 109.616 248 245 255
45.1045 206.189 120.029 201 217 255
162.286 135.008 115.214 210 223 255
111.893 123.302 104.91 223 231 255
95.831 138.138 112.334 255 185 126
71.993 41.3313 98.6037 201 217 255
60.3698 79.2721 96.3206 200 217 255
6.18908 155.333 109.925 190 211 255
175.096 29.8076 110.15 185 208 255
116.471 142.049 107.802 255 239 225
20.0771 47.7015 117.534 202 218 255
103.298 125.505 112.2 255 221 194
96.9306 153.823 122.715 213 225 255
93.5608 173.592 110.262 191 211 255
107.378 116.236 115.296 242 241 255
177.75 90.4453 112.269 206 221 255
93.5719 173.703 110.446 242 241 255
117.822 193.325 100.747 187 208 255
118.796 120.721 108.948 251 246 255
106.416 152.084 109.993 215 226 255
109.217 138.189 107.37 208 222 255
97.8893 55.8293 112.988 199 216 255
182.132 112.483 107.352 201 217 255
173.993 121.672 100.215 205 220 255
44.2678 96.3498 107.027 199 217 255
38.5398 212.297 104.901 184 207 255
80.7803 208.322 112.057 192 212 255
93.572 173.703 110.444 255 230 209
158.601 127.932 113.401 226 232 255
181.334 100.255 115.209 201 217 255
107.749 169.228 109.198 213 225 255
93.572 173.701 110.442 199 216 255
69.1166 176.302 113.512 211 223 255
156.445 115.782 116.422 198 216 255
104.948 84.876 115.804 255 245 236
91.8617 218.491 116.333 199 216 255
31.3536 130.907 113.658 209 223 255
58.6798 128.231 106.829 197 215 255
98.6689 99.2659 117.524 216 226 255
145.124 63.4681 117.93 202 218 255
183.273 101.348 115.168 193 213 255
59.7918 141.539 109.924 192 212 255
67.222 134.839 121.615 255 211 176
92.3251 164.327 109.382 214 225 255
118.109 125.1 117.444 215 226 255
159.205 99.0159 94.2207 255 253 248
111.772 99.4796 116.187 255 240 227
119.462 25.1582 112.63 198 215 255
85.5508 101.278 111.036 238 239 255
113.163 104.898 122.5 255 208 171
173.707 136.846 113.814 195 214 255
219.131 111.631 109.091 191 211 255
170.901 130.321 110.157 202 218 255
91.6132 139.784 127.822 201 217 255
130.001 119.39 112.357 226 232 255
205.952 165.43 115.257 195 214 255
109.357 99.8392 109.246 235 238 255
100.593 92.1557 116.156 212 224 255
80.0387 145.815 102.269 229 234 255
113.572 126.221 105.646 255 242 229
65.8353 140.055 98.4653 199 216 255
199.205 131.118 119.637 194 213 255
54.9148 69.0795 106.07 193 212 255
178.083 141.638 125.264 192 212 255
118.922 102.506 124.797 255 251 246
104.432 104.324 105.502 255 123 0
126.515 170.016 111.538 195 214 255
99.8091 168.104 105.442 255 245 236
102.782 100.765 116.187 237 239 255
54.406 114.083 118.867 197 215 255
104.857 65.8499 114.005 199 216 255
93.5643 173.68 110.39 219 228 255
161.284 83.7267 125.272 223 231 255
181.578 86.7527 109.8 200 217 255
69.524 85.2821 109.711 203 219 255
63.8953 65.6336 110.374 210 223 255
70.4358 137.056 115.032 255 254 250
41.3066 70.8507 113.008 186 208 255
116.4 124.35 110.739 255 241 229
50.2171 66.4137 123.265 192 212 255
108.033 156.084 102.351 255 251 255
133.401 143.061 113.926 186 208 255
32.9912 113.589 108.779 187 208 255
113.364 121.113 115.595 248 245 255
59.5347 143.418 97.4091 218 228 255
69.8969 95.6247 111.073 216 227 255
90.6904 183.878 109.372 255 209 172
100.488 115.188 107.674 245 243 255
110.136 111.037 117.182 255 201 158
65.4694 87.9419 111.633 255 246 237
58.0323 137.301 120.924 233 236 255
114.102 128.504 108.14 255 251 246
113.237 129.89 103.708 222 230 255
52.4588 97.4207 111.198 196 215 255
107.205 116.671 108.632 217 227 255
144.996 7.51323 106.643 192 212 255
142.936 83.4817 105.457 252 247 255
42.2939 140.453 114.671 198 216 255
205.635 157.274 113.625 214 225 255
141.552 174.206 111.629 224 231 255
114.338 127.927 122.887 217 227 255
120.157 164.367 112.452 216 226 255
73.5687 144.331 103.176 255 235 218
221.486 115.091 112.768 181 205 255
111.587 105.739 116.347 255 225 202
85.1038 122.232 112.868 234 237 255
76.063 171.817 110.723 255 199 154
66.0858 95.2497 112.391 186 208 255
7.37245 146.222 110.719 195 213 255
93.5706 173.676 110.385 196 214 255
79.483 141.806 101.13 198 216 255
140.812 89.7595 111.839 222 230 255
149.248 144.291 113.243 211 224 255
113.73 111.168 111.495 227 233 255
85.2375 210.27 128.262 183 206 255
78.9156 43.8067 111.683 190 210 255
17.1742 167.772 116.896 198 216 255
137.303 59.4515 108.309 255 252 247
62.6646 126.31 102.024 203 219 255
124.45 93.7395 122.945 255 242 230
169.454 83.5749 114.075 200 217 255
93.9022 174.669 111.349 199 216 255
138.084 77.5032 108.798 231 236 255
105.114 153.275 109.475 196 214 255
65.9458 51.4958 113.675 191 211 255
104.715 76.3668 115.799 197 215 255
158.948 142.76 107.915 198 215 255
149.09 93.5259 115.924 233 236 255
133.234 85.792 109.245 228 234 255
156.407 212.824 39.9763 193 213 255
93.5302 173.775 110.404 255 250 244
87.1177 58.3281 114.726 255 235 218
114.211 124.654 109.429 255 212 179
112.13 142.083 107.989 190 211 255
169.41 156.749 115.817 188 210 255
103.502 120.249 112.524 226 232 255
108.656 103.901 111.719 255 235 218
117.658 123.618 105.29 255 240 227
166.734 108.292 102.527 206 220 255
106.255 134.418 114.639 249 245 255
93.399 173.429 110.069 238 239 255
175.612 26.3962 115.212 199 216 255
197.785 30.8082 117.87 195 214 255
122.208 74.4307 111.844 255 255 251
213.211 79.12 113.014 187 209 255
56.8752 117.083 112.234 214 225 255
59.3704 191.66 151.517 250 246 255
143.379 73.6417 114.896 253 248 255
73.5951 124.158 108.34 189 210 255
212.275 154.528 109.824 191 211 255
8.89041 141.236 157.793 223 231 255
116.097 140.633 115.622 255 245 235
138.421 166.389 110.49 198 216 255
117.828 190.148 122.444 203 219 255
118.657 107.224 105.445 255 236 219
166.832 27.7655 111.005 192 212 255
105.556 161.056 102.094 215 226 255
10.5349 173.582 114.943 189 210 255
93.5716 173.708 110.455 255 254 250
105.055 110.795 124.211 255 246 237
93.5629 174.052 110.804 248 245 255
108.621 116.109 109.76 255 254 251
89.6796 76.225 114.673 232 236 255
66.35 112.705 123.516 225 232 255
113.883 109.492 112.601 255 250 255
164.45 103.809 129.89 211 223 255
103.743 105.946 111.709 255 250 243
102.71 27.8639 102.632 203 219 255
114.134 125.898 105.863 224 231 255
98.1902 155.274 111.464 198 216 255
106.79 157.784 106.508 214 225 255
208.741 160.232 112.082 190 211 255
103.265 15.7534 113.056 191 211 255
165.571 125.542 97.7843 209 223 255
93.5593 173.736 110.535 212 224 255
125.572 10.2696 118.53 184 207 255
66.6362 140.984 108.852 182 205 255
158.987 94.1725 104.826 255 242 229
110.394 112.28 111.929 221 229 255
157.273 163.843 112.198 190 211 255
42.4059 139.959 111.346 192 212 255
143.161 73.7908 127.199 205 220 255
96.039 125.791 112.139 255 255 251
120.006 122.569 66.0509 199 216 255
179.594 133.322 98.7361 213 224 255
93.572 173.703 110.444 234 237 255
115.448 131.291 103.233 196 214 255
93.3545 173.529 109.872 250 246 255
45.387 102.846 104.078 221 230 255
121.294 119.007 109.437 255 218 189
125.056 96.3598 114.054 199 216 255
165.629 98.3448 115.301 214 225 255
17.9428 118.708 125.525 193 212 255
102.792 104.182 106 255 233 215
101.424 94.8155 108.786 255 252 248
204.747 45.3346 110.839 189 210 255
104.58 93.2109 112.303 255 212 178
172.408 4.57671 129.438 187 208 255
103.71 124.377 117.103 255 225 202
114.087 108.994 111.566 219 228 255
73.3473 109.607 112.25 200 217 255
26.1096 201.997 109.401 192 212 255
73.0612 97.8104 111.924 255 236 221
103.722 155.895 117.779 251 246 255
59.2232 91.2363 99.2158 217 227 255
101.682 210.842 130.308 199 216 255
53.7426 124.163 110.226 187 209 255
17.8383 201.053 105.206 187 209 255
52.8162 151.711 111.007 182 205 255
189.229 111.234 110.719 189 210 255
76.2938 165.092 113.54 247 244 255
94.1632 173.8 111.195 255 229 207
128.071 119.129 115.892 196 214 255
110.218 99.7075 114.979 224 231 255
147.179 186.848 126.743 211 223 255
130.556 3.84097 90.0753 180 204 255
97.3594 177.236 122.316 191 211 255
74.0004 135.741 101.961 254 248 255
104.153 120.694 123.479 204 220 255
97.4529 112.992 117.192 230 234 255
98.1096 37.396 114.07 198 215 255
172.417 116.814 110.184 201 217 255
55.5423 89.6123 104.034 196 214 255
110.916 99.4088 111.932 222 230 255
93.9061 3.00956 93.4258 181 205 255
128.652 10.6759 111.577 189 210 255
104.56 153.187 110.814 255 227 205
111.786 88.5322 118.096 222 230 255
55.3758 106.375 109.613 214 225 255
120.149 118.217 106.063 202 218 255
51.2927 80.1095 102.601 190 210 255
93.5667 173.693 110.437 235 238 255
204.301 158.095 114.26 204 219 255
129.253 77.6073 120.103 255 220 193
115.197 177.741 114.487 198 216 255
152.765 107.7 111.319 219 228 255
110.587 164.327 108.331 255 240 227
21.9776 152.701 117.383 208 222 255
73.3039 127.919 115.531 196 214 255
106.015 160.56 102.644 235 238 255
74.4231 131.983 121.932 208 222 255
111.506 41.2057 115.886 195 214 255
101.303 156.918 106.341 254 248 255
139.747 88.2634 107.516 201 217 255
123.809 111.561 115.362 253 247 255
104.348 104.187 122.569 255 250 244
135.089 104.732 112.527 209 222 255
118.522 145.153 107.296 216 227 255
155.239 101.254 98.9306 255 228 206
102.295 108.895 120.419 255 231 211
89.1086 42.8947 112.674 194 213 255
110.619 53.2004 130.069 255 200 156
166.018 85.037 114.563 199 216 255
173.882 122.248 114.364 187 208 255
117.79 108.333 99.9623 255 204 164
97.1927 112.048 112.981 235 237 255
133.779 61.8241 115.173 205 220 255
166.871 117.165 111.241 255 253 249
93.994 172.603 109.979 247 244 255
93.6645 174.636 111.445 224 231 255
135.717 86.9593 113.252 205 220 255
173.012 20.1362 112.687 190 211 255
39.799 142.168 110.438 193 212 255
105.319 93.9246 93.9936 201 217 255
93.5717 173.707 110.453 197 215 255
132.983 95.5452 112.896 241 241 255
54.9508 120.381 121.842 205 220 255
93.572 173.689 110.416 191 211 255
127.369 80.4867 121.797 203 219 255
107.815 108.884 114.026 251 247 255
117.195 135.489 120.095 255 202 160
93.519 173.789 110.49 192 212 255
93.5701 173.719 110.471 255 252 247
140.242 98.7103 113.382 201 218 255
60.1276 118.511 114.472 200 217 255
71.8308 35.0914 109.905 197 215 255
65.5487 143.807 142.811 206 220 255
91.1992 44.4135 112.335 190 211 255
93.5716 173.683 110.403 247 245 255
117.817 144.771 108.413 255 195 146
108.853 134.912 120.598 210 223 255
93.5721 173.701 110.441 211 223 255
93.5714 173.71 110.459 190 211 255
105.477 90.8756 108.125 227 233 255
80.1994 31.8464 106.144 182 205 255
97.6693 86.3363 114.773 255 254 250
98.5514 104.142 120.216 255 187 131
154.081 153.362 99.5666 201 217 255
110.68 126.814 110.137 205 220 255
93.8488 173.784 110.407 255 231 211
98.8354 47.3024 115.091 186 208 255
142.001 113.38 112.203 255 247 239
149.007 32.1508 110.542 199 216 255
144.05 94.7697 114.058 211 223 255
91.3701 158.22 107.337 210 223 255
114.511 31.8422 113.461 203 219 255
94.0778 74.2846 130.096 196 214 255
212.757 135.252 117.259 196 214 255
101.408 132.17 112.386 255 243 232
65.9075 119.419 116.401 201 217 255
107.45 47.3698 113.592 211 224 255
140.505 78.233 113.278 209 222 255
147.932 94.3166 108.487 214 225 255
130.331 70.0023 119.708 185 207 255
116.514 130.265 106.95 255 216 184
54.6689 103.172 105.726 188 210 255
181.932 164.589 103.066 193 212 255
83.5864 87.5562 110.742 205 220 255
109.624 124.309 113.445 204 219 255
146.932 107.401 112.181 255 215 183
103.483 113.105 101.21 235 238 255
93.5721 173.692 110.422 219 228 255
152.225 33.5368 94.5931 183 206 255
84.7404 111.52 111.249 255 253 248
103.9 121.302 112.072 255 238 224
56.1572 116.946 110.371 255 252 247
89.4574 15.996 83.446 184 207 255
62.2884 66.8677 103.71 197 215 255
140.459 106.511 111.721 200 217 255
117.199 76.0119 103.408 216 226 255
159.045 104.051 112.69 203 219 255
95.2305 115.006 108.885 211 224 255
140.343 23.0311 112.315 193 213 255
119.82 107.797 113.65 255 216 184
99.9911 120.778 112.651 236 238 255
121.499 98.2142 111.069 207 221 255
107.4 100.595 117.563 255 213 179
177.055 24.5902 111.989 192 212 255
118.293 83.5278 115.599 212 224 255
110.569 111.897 119.667 232 236 255
119.238 123.728 119.691 255 217 186
133.563 47.061 110.301 218 228 255
121.967 117.653 109.249 255 225 201
158.141 90.7868 113.935 203 218 255
107.3 82.8739 113.844 255 245 235
104.726 121.898 111.048 212 224 255
99.1086 104.129 109.486 196 214 255
63.8473 141.749 101.177 255 248 240
208.281 170.091 116.431 186 208 255
69.4963 121.914 130.699 201 217 255
110.008 128.923 106.13 255 249 242
118.195 145.953 108.534 237 239 255
93.5719 173.704 110.447 209 222 255
123.513 76.6104 120.057 210 223 255
129.601 79.8307 112.155 203 219 255
24.5569 104.392 112.138 180 205 255
88.2506 175.072 111.199 217 227 255
146.035 103.73 113.124 239 240 255
101.929 123.625 108.994 255 239 224
102.229 114.444 119.815 255 162 78
171.067 134.34 105.379 206 220 255
120.167 129.004 110.449 255 227 205
149.447 81.9466 115.205 188 210 255
83.9038 143.158 110.202 211 223 255
156.528 178.691 143.287 217 227 255
218.31 57.2075 112.64 195 214 255
10.3703 127.287 111.16 185 208 255
115.692 97.0571 114.202 255 202 160
74.0327 138.454 125.124 206 220 255
174.469 144.77 112.819 255 249 243
97.3537 109.484 109.132 228 234 255
169.341 144.33 111.592 200 217 255
33.3501 36.5481 105.953 190 211 255
103.25 71.2246 111.459 204 219 255
67.9381 57.8834 114.909 203 219 255
108.301 133.25 117.468 255 251 245
144.004 168.725 111.729 189 210 255
160.574 113.046 111.038 214 225 255
111.983 128.182 106.006 255 237 222
42.2578 121.181 103.411 199 216 255
30.7204 213.572 107.601 194 213 255
93.5705 173.715 110.469 255 249 255
2.85446 83.845 115.062 193 212 255
97.6842 172.059 111.156 255 228 206
85.2448 65.2863 111.723 199 216 255
157.838 120.085 109.779 198 215 255
103.139 111.595 107.172 255 253 249
142.959 13.9696 102.62 207 221 255
63.2558 197.74 112.403 184 207 255
110.446 127.375 117.344 255 238 224
203.413 80.0648 106.844 177 202 255
110.312 102.094 107.603 201 217 255
128.436 81.5015 108.967 242 242 255
122.669 174.182 111.591 195 214 255
112.089 102.918 102.795 211 224 255
162.096 140.058 110.829 216 226 255
29.6893 180.21 112.553 182 205 255
114.662 121.415 110.945 242 242 255
78.3647 145.898 105.957 210 223 255
111.522 98.7006 111.628 255 241 229
123.395 116.874 108.441 255 242 231
167.024 168.066 114.548 183 206 255
93.5695 173.667 110.353 218 228 255
105.272 100.836 106.534 254 248 255
93.2591 173.648 110.626 239 240 255
100.174 176.87 115.484 214 226 255
91.7156 97.8158 115.244 219 228 255
90.2209 185.239 96.5478 222 230 255
103.296 112.438 111.886 255 196 148
54.4821 76.1865 114.487 188 209 255
102.549 108.799 121.903 255 238 224
93.5718 173.705 110.449 255 213 181
139.595 83.7857 121.236 203 218 255
85.5174 141.342 114.083 187 209 255
93.572 173.703 110.445 223 231 255
93.5938 173.733 110.493 224 231 255
102.381 123.113 111.091 215 226 255
113.494 126.109 103.629 210 223 255
89.5271 114.25 112.577 212 224 255
222.638 145.214 113.871 177 202 255
127.516 15.2004 90.1988 221 229 255
95.955 103.493 106.833 255 246 236
97.9572 115.491 109.866 209 223 255
116.923 134.609 110.153 209 223 255
160.145 133.536 110.712 255 253 249
134.125 61.2163 113.393 205 220 255
135.256 103.889 111.188 213 225 255
91.7145 108.512 108.212 255 246 237
104.047 105.563 109.072 255 223 198
173.347 5.59169 135.917 190 210 255
93.5723 173.717 110.474 255 250 244
108.723 112.743 108.513 255 244 234
147.904 27.6738 114.804 193 212 255
12.7857 86.6828 113.709 209 222 255
196.339 27.4651 110.143 187 209 255
130.101 80.6032 130.827 195 214 255
109.117 101.66 118.907 228 233 255
112.664 149.49 110.187 187 209 255
93.5708 173.715 110.467 237 239 255
110.596 113.736 111.942 255 225 201
115.713 155.128 112.001 255 251 246
161.899 120.297 133.309 201 217 255
100.972 83.0506 114.83 240 241 255
93.7622 174.341 111.49 202 218 255
44.6083 69.29 107.217 208 222 255
93.4258 174.537 110.797 252 247 255
93.6305 173.594 110.195 243 242 255
4.73335 78.6533 108.468 175 201 255
208.57 77.711 113.111 204 219 255
108.744 123.415 112.985 255 187 131
27.8232 135.237 113.132 225 232 255
128.253 69.3809 119.801 198 216 255
137.312 161.66 116.02 203 219 255
114.72 120.664 127.949 231 235 255
107.175 100.995 109.388 255 227 205
179.583 89.1313 114.38 201 217 255
141.46 82.709 111.426 255 196 148
155.546 29.0728 109.367 204 219 255
64.6241 80.7404 109.449 205 220 255
102.702 166.688 99.6258 255 220 192
74.8835 141.958 107.806 202 218 255
8.90413 109.031 116.11 187 209 255
165.148 46.1617 114.864 212 224 255
143.545 196.396 102.969 215 226 255
166.912 107.645 114.608 223 231 255
93.4181 173.294 109.799 247 244 255
93.5718 173.704 110.448 214 225 255
172.009 48.8051 111.641 212 224 255
25.0347 202.166 109.149 187 209 255
93.7921 173.544 110.422 209 222 255
120.637 79.5533 117.509 211 224 255
85.1403 32.2601 109.57 198 216 255
133.056 120.694 111.069 225 232 255
79.5934 144.363 104.915 189 210 255
176.654 85.5537 114.727 187 209 255
93.5739 173.702 110.429 194 213 255
111 217.648 101.071 181 205 255
107.603 162.813 114.51 225 232 255
93.6121 173.637 110.248 255 244 234
110.771 107.022 116.298 246 244 255
118.859 86.0972 123.237 231 235 255
45.4945 144.968 112.996 198 215 255
157.379 107.466 112.807 198 215 255
110.047 112.553 116.062 255 252 246
71.527 140.973 108.478 200 217 255
186.236 16.9395 107.709 190 211 255
119.058 119.053 109.424 218 228 255
53.0127 81.6453 105.681 190 211 255
103.67 106.996 108.651 255 239 225
106.483 104.239 113.495 255 225 201
93.6221 173.355 109.594 201 217 255
91.1154 41.1434 110.667 199 216 255
114.183 112.39 103.184 255 211 175
115.778 106.087 104.897 211 224 255
154.31 47.1503 114.311 255 249 242
98.8418 168.698 103.56 248 245 255
103.003 104.477 111.021 255 243 232
34.7322 105.593 110.396 209 222 255
179.905 150.701 116.267 187 209 255
52.108 73.6389 118.409 255 252 246
166.57 145.684 135.3 201 217 255
108.986 142.189 110.326 212 224 255
112.715 171.685 112.309 185 207 255
45.6557 107.927 111.464 255 253 248
82.5069 134.176 111.837 243 242 255
112.96 107.373 116.446 224 231 255
82.742 6.40442 119.661 186 208 255
113.639 192.302 112.525 200 217 255
71.7611 111.965 114.358 255 253 248
132.661 168.575 112.088 188 209 255
27.4802 147.801 125.222 211 223 255
219.28 123.671 116.087 185 207 255
93.5712 173.712 110.468 200 217 255
89.3064 162.189 122.399 255 251 246
113.25 151.3 113.759 255 249 255
87.7775 158.177 119.717 206 221 255
108.158 112.88 99.7668 255 231 212
94.1677 173.473 111.01 234 237 255
96.0316 148.322 115.587 255 230 210
110.217 96.8398 114.161 255 233 215
152.798 0.114512 106.038 180 204 255
93.5722 173.697 110.432 229 234 255
70.2865 224.49 103.52 194 213 255
64.395 121.647 111.108 210 223 255
123.246 79.4875 123.904 213 224 255
112.436 162.696 109.006 192 212 255
73.3157 221.658 103.353 182 205 255
178.293 105.642 98.5133 255 237 221
140.07 167.763 108.731 191 211 255
113.17 102.026 115.633 255 251 245
105.184 109.974 117.903 214 225 255
71.0231 142.191 104.685 191 211 255
160.886 50.5591 114.619 186 208 255
106.724 108.777 122.746 214 225 255
93.5688 173.725 110.486 255 251 245
93.7353 173.629 110.641 224 231 255
119.404 105.763 114.959 205 220 255
146.701 160.152 112.899 189 210 255
63.233 86.8635 115.354 192 212 255
163.5 120.129 105.708 184 207 255
124.658 120.138 114.768 243 242 255
138.522 122.388 112.321 202 218 255
149.949 96.947 96.7478 214 226 255
90.9831 23.0162 92.7711 181 205 255
91.4613 11.5342 113.129 180 204 255
99.7561 176.209 119.885 217 227 255
62.5843 217.289 108.896 205 220 255
104.554 79.5406 112.882 222 230 255
119.184 127.882 112.665 241 241 255
60.1075 167.437 108.481 198 216 255
104.957 131.084 105.034 218 228 255
31.1216 139.197 116.246 218 228 255
13.8377 130.059 114.946 209 222 255
111.729 119.515 108.866 255 244 234
174.847 99.404 114.416 207 221 255
176.207 167.67 114.102 196 214 255
127.382 117.276 114.928 221 230 255
104.55 114.846 112.349 255 230 210
143.376 88.677 102.066 205 220 255
71.0683 79.1369 111.687 217 227 255
