ply
format ascii 1.0
element vertex 1340
property float x
property float y
property float z
property uchar red
property uchar green
property uchar blue
end_header
93.8767 174.115 110.564 200 217 255
96.9236 67.0892 116.546 223 231 255
56.8546 26.9054 109.116 193 213 255
116.01 95.2358 107.459 196 215 255
134.672 11.6412 108.214 187 208 255
69.7977 126.126 112.495 255 222 195
55.6586 73.2537 115.072 193 213 255
67.7295 120.998 109.777 216 227 255
97.9443 182.811 110.517 255 187 130
76.6072 150.59 113.332 192 212 255
93.8943 174.119 110.565 188 209 255
89.7145 142.564 112.567 193 213 255
113.144 148.075 116.312 255 247 238
191.447 28.629 109.786 189 210 255
15.4561 221.086 111.414 202 218 255
50.155 76.7544 97.3757 208 221 255
110.272 124.831 112.428 255 232 214
108.523 136.996 106.044 212 224 255
42.5454 100.845 125.615 205 220 255
156.722 88.9359 122.305 188 209 255
93.8762 174.115 110.564 209 222 255
154.705 127.8 112.912 202 218 255
113.39 123.963 105.761 255 228 207
107.992 102.912 73.1142 204 219 255
79.0418 133.002 111.678 199 216 255
48.6817 67.5788 121.737 200 217 255
57.6122 90.0029 97.9558 189 210 255
166.879 56.5522 111.451 217 227 255
125.552 47.5464 116.729 200 217 255
136.323 123.894 110.264 211 224 255
108.875 101.335 101.346 231 235 255
200.419 86.5757 118.664 204 219 255
112.917 135.711 108.924 255 246 237
99.9444 137.47 113.046 196 215 255
93.9188 174.124 110.569 199 216 255
216.796 38.6755 106.936 211 223 255
100.152 66.3375 115.881 255 252 246
68.1888 113.507 113.165 192 212 255
98.2803 125.634 115.831 255 241 229
92.5057 148.527 111.647 220 229 255
113.058 163.718 121.497 255 234 216
107.744 169.81 117.734 219 228 255
92.3729 183.316 110.578 209 222 255
94.2622 173.976 110.664 255 228 206
189.25 149.893 113.447 197 215 255
176.595 26.1966 110.148 192 212 255
122.393 130.785 91.6086 203 219 255
134.729 161.064 108.047 193 213 255
102.646 31.8905 110.49 214 225 255
124.783 120.131 108.612 234 237 255
72.2265 137.067 107.924 214 225 255
93.8218 174.139 110.545 255 250 243
153.435 81.1261 130.369 215 226 255
161.872 121.1 123.271 192 212 255
85.1605 57.0478 137.979 228 234 255
51.6767 88.0067 108.239 254 248 255
65.5453 111.696 110.977 200 217 255
93.8968 174.119 110.566 255 247 238
117.003 153.067 107.739 255 219 191
93.8984 174.032 110.487 203 219 255
25.9144 203.213 105.013 186 208 255
113.151 165.916 109.758 239 240 255
108.414 113.519 118.246 214 225 255
102.48 145.138 125.108 219 228 255
144.852 141.34 117.323 194 213 255
93.8812 174.116 110.564 212 224 255
64.9433 128.971 123.076 194 213 255
27.268 111.759 106.44 196 214 255
101.853 130.458 130.998 248 245 255
93.8694 174.113 110.563 255 235 218
92.4694 153.244 103.509 200 217 255
109.867 96.9268 129.969 210 223 255
116.961 75.146 75.7821 244 243 255
188.409 34.3783 111.987 194 213 255
53.851 109.664 106.546 205 220 255
100.521 73.3485 118.108 255 239 225
51.875 43.775 108.178 182 206 255
109.697 157.015 71.5256 249 245 255
100.666 19.8684 114.646 201 217 255
107.872 105.883 103.821 255 209 173
10.4439 91.9174 115.016 191 211 255
145.175 109.734 120.709 188 209 255
110.409 102.469 115.159 202 218 255
93.1215 173.864 110.68 255 202 160
66.0788 140.165 75.9923 207 221 255
111.675 110.178 118.443 255 248 240
61.581 44.8605 99.8555 214 225 255
119.261 148.404 102.321 211 223 255
93.9627 173.547 110.613 255 255 252
115.68 132.668 101.171 255 216 185
62.2975 116.796 110.478 255 251 246
154.291 119.276 115.417 188 209 255
48.4052 157.466 114.324 200 217 255
84.1503 211.304 126.135 192 212 255
93.8747 174.114 110.564 204 220 255
113.371 127.469 92.2954 203 219 255
83.1458 172.462 116.618 192 212 255
114.32 120.754 98.3589 255 189 133
97.5062 64.8827 113.502 195 214 255
213.406 113.906 115.037 193 212 255
141.417 122.056 146.954 192 212 255
144.523 110.872 121.028 195 214 255
133.553 29.2833 112.36 196 214 255
87.4181 172.544 94.3879 212 224 255
93.8896 174.117 110.565 255 238 224
152.57 116.718 115.025 202 218 255
129.751 75.6772 124.246 255 236 221
93.8737 174.114 110.564 216 226 255
48.4202 94.6497 108.37 205 220 255
161.815 104.023 128.214 207 221 255
106.675 188.967 110.214 255 249 241
106.197 109.72 130.044 255 248 241
148.869 29.414 106.924 187 209 255
113.252 87.6136 129.068 218 228 255
37.396 70.4568 84.5655 227 233 255
115.667 139.925 102.823 255 221 194
115.306 116.502 114.898 255 166 86
124.919 127.865 114.538 255 248 241
73.8476 196.23 111.355 195 214 255
75.7966 140.151 115.528 221 229 255
160.467 103.271 100.508 198 216 255
125.341 106.181 110.604 255 241 229
193.366 80.1514 110.49 212 224 255
140.945 88.023 118.034 213 225 255
79.1086 47.6714 107.051 222 230 255
106.943 157.74 112.398 222 230 255
140.629 105.536 110.22 255 222 196
111.529 145.252 107.571 217 227 255
98.2986 150.129 113.136 218 228 255
94.0742 174.142 110.587 189 210 255
93.8968 174.119 110.566 192 212 255
94.8432 136.942 121.942 223 230 255
118.636 149.31 103.57 232 236 255
129.641 120.837 109.049 255 252 247
78.8307 130.837 96.5839 250 246 255
69.0372 69.8612 123.346 208 222 255
79.3792 191.492 112.109 191 211 255
54.8599 158.151 115.906 218 228 255
174.616 96.6832 103.71 211 224 255
27.9126 76.5505 112.568 255 248 240
73.6843 29.7955 122.531 224 231 255
158.018 167.111 102.065 212 224 255
77.4662 133.651 112.162 233 236 255
148.347 100.494 112.667 191 211 255
105.859 100.769 95.5249 240 240 255
114.798 85.5558 112.971 215 226 255
161.809 95.1234 113.968 184 207 255
113.809 193.286 137.127 194 213 255
129.882 122.416 115.552 247 244 255
168.401 133.794 111.87 255 210 174
108.224 111.129 112.547 255 187 131
125.323 84.7173 111.921 213 225 255
112.241 93.2345 108.207 234 237 255
120.171 113.435 104.992 255 250 255
1.88817 140.202 116.06 184 207 255
76.7587 162.705 105.406 199 216 255
87.0509 171.957 111.096 204 219 255
93.883 174.116 110.564 196 214 255
170.438 91.7746 110.993 189 210 255
29.9513 131.93 113.513 201 218 255
148.531 146.656 110.21 203 219 255
150.026 102.678 108.291 198 215 255
49.8361 194.767 108.28 182 206 255
132.591 157.613 109.844 235 237 255
133.258 86.7012 104.069 209 222 255
147.524 14.4232 133.371 255 248 240
107.407 112.934 106.669 255 233 215
173.574 36.6102 114.096 195 214 255
126.827 108.538 102.625 255 197 149
93.1067 173.715 110.781 255 238 224
116.346 51.9317 118.647 194 213 255
59.0175 114.243 115.64 231 235 255
104.383 100.958 104.722 255 184 124
108.653 114.188 120.812 202 218 255
140.897 89.372 95.6924 255 253 248
82.4804 150.794 110.152 211 224 255
158.797 129.082 111.363 210 223 255
149.918 56.5277 117.319 220 229 255
131.183 91.309 103.144 241 241 255
107.398 111.887 111.104 255 242 230
93.9984 174.078 110.531 255 249 255
115.466 217.857 138.199 187 209 255
104.789 108.372 123.076 225 232 255
93.8473 174.108 110.563 189 210 255
121.368 30.1814 97.1155 205 220 255
16.3203 172.241 124.015 192 212 255
110.181 17.6049 112.089 207 221 255
105.066 99.9201 122.542 255 239 225
98.8408 140.621 119.404 206 221 255
52.2611 121.492 123.55 199 216 255
113.838 91.8958 128.963 197 215 255
54.4046 69.9672 122.988 218 228 255
150.227 121.095 106.075 189 210 255
59.1455 99.8938 94.1484 255 237 222
85.182 148.006 97.1946 210 223 255
48.0623 77.9463 129.107 194 213 255
93.6176 174.183 110.878 218 228 255
111.277 97.8531 104.778 204 219 255
151.062 101.441 107.363 210 223 255
119.963 126.995 114.597 242 241 255
90.1498 183.939 114.133 255 237 221
134.514 126.767 109.721 236 238 255
160.376 110.974 68.2008 255 249 255
124.518 38.2139 6.48222 191 211 255
100.234 124.369 115.801 216 227 255
191.234 47.4169 110.729 195 214 255
96.3875 149.438 100.292 224 231 255
162.504 135.323 111.761 235 238 255
93.8652 174.112 110.563 255 242 230
112.449 120.602 106.128 226 232 255
146.306 102.061 110.807 198 216 255
203.675 60.3924 115.377 217 227 255
93.7816 174.082 110.571 213 225 255
114.489 161.739 106.207 206 220 255
128.484 119.546 118.218 255 185 126
166.116 138.117 104.692 224 231 255
204.542 135.032 116.88 197 215 255
110.509 101.958 120.147 204 219 255
199.237 165.761 111.224 236 238 255
111.51 92.581 108.503 255 230 209
43.4055 101.122 119.863 195 213 255
97.9079 96.9911 113.973 195 214 255
106.779 102.427 110.208 255 226 204
194.943 1.43099 107.547 185 207 255
93.8627 174.112 110.563 191 211 255
93.8647 174.113 110.563 255 237 222
195.241 59.3652 108.628 209 222 255
93.8167 174.141 110.574 221 229 255
111.783 104.007 114.816 246 244 255
93.8617 174.111 110.563 215 226 255
212.84 160.554 115.995 191 211 255
93.9291 174.127 110.571 216 226 255
91.0303 180.758 108.707 243 242 255
161.057 84.3829 102.869 201 217 255
190.942 75.2668 115.337 193 212 255
52.5004 161.977 112.889 187 209 255
125.551 161.15 106.539 196 214 255
170.11 12.7475 135.508 186 208 255
99.2477 178.218 98.1686 239 240 255
38.9641 185.371 112.022 188 209 255
198.804 7.47994 111.874 198 216 255
153.151 103.699 101.298 190 210 255
114.518 111.791 113.025 214 225 255
57.275 49.7437 120.005 193 212 255
155.591 148.638 109.873 203 219 255
115.045 149.298 114.381 228 233 255
90.824 167.197 105.394 237 239 255
172.505 41.3792 114.71 189 210 255
110.74 106.98 113.711 255 246 237
140.23 169.125 113.126 185 207 255
93.9849 174.279 110.146 223 231 255
97.3128 57.1008 112.302 253 248 255
116.554 90.5901 127.075 255 190 137
174.038 36.9289 111.803 203 218 255
107.586 172.005 106.824 255 224 200
77.7007 17.8782 113.17 193 212 255
151.938 151.129 114.61 193 213 255
50.3573 55.0027 125.008 214 225 255
56.8726 98.5132 125.612 204 219 255
92.0664 173.695 110.512 207 221 255
120.208 126.471 111.247 225 232 255
121.133 144.91 112.026 219 228 255
147.52 120.971 114.435 187 209 255
76.2971 132.904 90.3819 197 215 255
21.1746 65.1487 114.116 179 204 255
105.953 124.601 122.912 241 241 255
119.152 132.135 105.141 255 203 161
66.6841 146.012 118.718 255 211 176
114.822 20.7279 115.195 191 211 255
86.1652 161.592 105.531 210 223 255
188.7 175.585 118.444 189 210 255
76.2829 141.507 97.0267 234 237 255
100.972 147.869 115.419 255 250 255
110.676 105.675 108.536 244 243 255
93.8822 174.116 110.564 188 210 255
59.2339 80.2579 110.987 235 238 255
34.6676 222.264 103.278 198 216 255
104.71 142.761 89.8147 235 238 255
129.907 48.4001 116.578 212 224 255
119.546 102.649 96.0972 211 223 255
167.526 94.2645 130.199 255 250 255
77.9051 196.052 103.059 255 209 172
139.212 19.4784 91.1944 207 221 255
140.411 85.25 100.833 244 243 255
93.8665 174.113 110.563 212 224 255
117.47 107.371 110.447 255 253 248
120.604 85.5011 134.768 212 224 255
105.41 126.858 123.293 238 239 255
148.223 91.046 112.909 197 215 255
134.461 74.8309 131.06 211 223 255
93.8444 174.229 111.102 221 230 255
99.3067 156.401 117.001 248 245 255
133.017 90.3996 131.636 208 222 255
69.4047 30.0092 121.456 196 214 255
93.8654 174.112 110.563 195 213 255
110.176 127.398 113.882 255 155 62
124.051 82.352 105.422 199 217 255
123.48 86.0565 112.704 205 220 255
49.1725 215.163 113.239 192 212 255
124.821 116.03 96.7113 239 240 255
194.384 36.3275 111.328 184 207 255
187.01 89.5758 107.166 208 222 255
95.1751 148.676 115.102 218 228 255
121.632 152.623 115.698 204 219 255
91.761 120.98 126.222 255 248 240
93.9016 174.12 110.566 206 220 255
37.5617 192.964 97.9769 188 209 255
53.4388 83.5511 111.226 190 211 255
114.031 119.154 112.421 255 235 219
140.726 170.543 107.319 212 224 255
154.429 76.0714 99.2704 220 229 255
94.0828 137.249 118.503 199 216 255
108.323 143.728 110.377 215 226 255
70.4701 127.333 108.579 226 232 255
51.016 65.2008 114.244 201 217 255
111.318 101.332 124.376 255 249 241
121.698 54.7045 124.532 193 213 255
100.665 133.823 111.462 206 220 255
150.123 147.427 113.396 191 212 255
128.712 83.1096 73.7208 255 206 167
151.971 103.257 110.399 239 240 255
157.611 89.9741 116.513 186 208 255
125.902 115.654 99.4682 255 184 125
73.5906 172.359 99.5056 255 254 250
106.227 59.2459 113.263 229 234 255
123.273 97.9885 108.407 211 223 255
93.8871 174.117 110.565 205 220 255
54.2286 130.956 116.251 190 210 255
91.4214 142.393 97.8304 255 254 251
101.312 166.765 104.768 228 234 255
58.4567 57.0346 107.936 190 210 255
93.9124 174.123 110.568 255 188 133
209.432 89.2395 111.573 190 211 255
130.642 106.153 120.041 255 237 222
93.8197 174.123 110.555 255 248 241
118.402 109.531 117.98 255 241 229
81.4436 138.418 109.967 255 245 235
72.8994 0.770888 120.057 189 210 255
117.955 108.146 109.207 255 225 200
179.235 159.514 110.564 192 212 255
114.254 145.267 103.263 255 233 215
109.949 125.129 106.763 215 226 255
97.622 71.577 114.4 229 234 255
98.4711 109.413 114.314 246 244 255
112.884 79.7755 120.598 190 211 255
111.189 29.4788 109.9 227 233 255
78.8648 127.9 150.867 221 229 255
164.545 112.494 74.4803 206 220 255
113.939 107.478 117.642 246 244 255
196.433 27.5715 116.036 200 217 255
82.1477 143.468 100.937 200 217 255
124.215 122.948 107.087 255 244 233
23.1686 79.7797 113.229 218 227 255
93.869 174.113 110.563 197 215 255
119.168 112.457 118.438 255 217 187
93.8902 174.118 110.565 197 215 255
221.399 47.5781 115.569 193 213 255
106.144 126.778 114.88 255 215 184
112.046 200.357 121.83 191 211 255
188.085 15.8021 112.643 190 211 255
101.54 116.357 104.054 251 247 255
115.498 107.519 118.467 220 229 255
47.1834 212.469 108.357 201 218 255
118.596 156.857 116.424 197 215 255
82.6477 25.3318 109.532 180 204 255
109.646 90.7258 98.8272 255 196 147
98.3843 120.019 123.534 255 242 230
108.982 120.179 116.689 211 224 255
41.6174 129.855 129.441 255 246 237
74.5543 139.684 112.635 255 169 93
93.8749 174.114 110.564 206 220 255
92.269 96.5666 117.618 255 243 232
65.3545 105.747 115.206 236 238 255
124.121 122.39 110.522 255 204 163
139.435 79.0332 104.776 233 237 255
93.8655 174.112 110.563 255 161 76
93.8702 174.113 110.563 194 213 255
34.8318 119.475 121.388 226 233 255
93.2619 172.97 111.096 199 216 255
99.4418 138.752 113.904 255 194 144
149.767 149.585 123.115 193 213 255
116.635 86.0588 117.105 214 225 255
92.5702 172.721 110.563 219 228 255
150.942 82.9997 123.529 235 238 255
123.386 143.985 119.713 230 234 255
84.8914 173.431 111.183 199 217 255
93.9073 174.119 110.566 187 209 255
98.1662 206.599 115.051 204 219 255
6.82077 129.9 113.261 198 216 255
76.1415 185.052 98.7016 198 216 255
98.389 119.957 105.234 255 251 245
170.824 129.692 89.75 200 217 255
118.488 110.756 100.1 255 245 236
200.689 143.213 112.628 190 210 255
129.048 109.635 108.67 202 218 255
131.294 95.872 110.365 233 236 255
75.4061 128.033 115.739 197 215 255
94.6291 174.059 111.122 202 218 255
71.0932 135.699 107.265 195 214 255
106.57 150.96 116.65 214 225 255
90.224 168.628 116.575 181 205 255
175.474 100.372 115.955 204 220 255
131.752 115.178 107.855 220 229 255
101.813 27.5351 110.934 191 211 255
118.296 57.6408 117.459 201 217 255
95.14 188.934 100.227 242 242 255
93.9509 174.17 110.603 195 214 255
100.748 133.527 107.914 214 225 255
93.905 174.121 110.567 183 206 255
109.136 154.612 108.701 255 215 184
65.3859 155.583 121.731 196 214 255
126.291 99.4472 102.558 232 236 255
72.7654 177.12 114.446 193 213 255
106.792 94.11 134.65 199 216 255
93.8557 174.13 110.56 204 219 255
93.9443 174.122 110.58 255 251 246
184.594 136.935 113.182 188 209 255
93.8113 174.101 110.569 205 220 255
8.74541 122.221 114.239 188 210 255
112.418 22.2531 107.295 198 215 255
82.8612 171.308 111.759 201 217 255
212.932 128.95 112.458 189 210 255
33.4522 89.2596 126.934 188 209 255
72.4767 60.2793 114.41 202 218 255
93.8984 174.119 110.566 208 222 255
53.7166 110.325 92.6621 223 231 255
162.372 106.46 110.556 233 237 255
175.384 25.0064 109.369 213 225 255
114.94 104.27 113.046 255 188 133
111.95 135.992 110.062 255 195 147
99.2619 43.6718 113.007 194 213 255
104.109 187.135 112.571 206 220 255
103.219 154.207 110.515 255 217 187
142.535 41.5765 114.733 199 216 255
107.352 30.642 105.954 191 211 255
148.125 145.401 111.526 200 217 255
134.571 119.858 112.551 198 216 255
81.4672 147.854 111.242 189 210 255
112.38 107.646 114.129 195 214 255
186.837 52.4534 114.401 215 226 255
162.503 163.635 101.25 210 223 255
99.8018 106.428 113.178 211 224 255
93.2207 174.06 109.264 231 235 255
182.132 89.3458 103.353 222 230 255
60.7858 124.952 113.984 255 228 207
93.8689 174.113 110.563 214 226 255
224.529 87.5281 107.934 183 206 255
2.84207 120.3 107.022 185 208 255
93.702 173.993 110.425 196 214 255
126.901 80.6643 107.462 255 244 234
86.3811 41.6764 110.638 200 217 255
119.41 127.427 99.0057 255 224 200
80.461 175.07 119.099 220 229 255
93.9498 174.136 110.588 238 239 255
112.385 106.176 121.245 255 241 228
124.923 91.848 103.792 202 218 255
91.5794 74.1839 93.6473 255 213 180
93.8726 174.114 110.563 179 204 255
125.299 137.634 118.355 244 243 255
147.917 73.6145 112.567 238 239 255
85.6351 156.485 114.868 232 236 255
127.757 107.58 112.403 217 227 255
51.4063 31.0671 121.285 225 232 255
93.9315 174.127 110.572 194 213 255
133.725 139.205 131.986 198 216 255
117.402 118.995 114.866 247 245 255
86.5535 107.629 108.311 205 220 255
107.564 132.406 108.607 231 235 255
101.373 138.957 100.025 204 219 255
105.224 123.31 115.601 255 167 88
93.8639 174.112 110.563 184 207 255
95.3371 176.592 113.739 215 226 255
116.916 84.6372 125.325 202 218 255
93.8722 174.114 110.563 255 213 180
93.6965 174.197 110.469 222 230 255
68.6297 142.441 123.075 225 232 255
102.543 136.106 109.75 229 234 255
93.899 174.12 110.566 222 230 255
122.503 208.286 128.895 232 236 255
70.685 132.807 99.4341 207 221 255
112.334 103.15 112.267 255 249 241
110.891 92.4552 116.778 196 215 255
105.052 107.237 111.111 236 238 255
51.502 132.597 123.12 192 212 255
102.449 131.781 99.8048 198 216 255
123.524 90.1305 98.6604 215 226 255
122.773 92.703 114.245 206 220 255
134.419 90.83 115.117 255 226 202
139.813 60.142 118.732 194 213 255
103.596 120.285 111.264 255 223 198
36.0908 94.6405 120.556 185 208 255
76.3311 27.1732 97.5829 203 219 255
120.775 120.056 124.266 255 252 246
133.299 65.3167 126.9 222 230 255
93.8361 174.142 110.594 193 212 255
115.649 157.965 105.355 255 207 168
24.7234 158.298 111.594 217 227 255
107.113 149.699 118.926 208 221 255
69.8384 119.821 105.292 200 217 255
171.885 131.361 108.021 207 221 255
93.8743 174.114 110.564 219 229 255
35.2106 93.0574 110.076 189 210 255
84.0469 138.965 115.545 255 254 251
117.68 97.1303 107.406 240 240 255
135.347 83.8077 107.144 227 233 255
101.167 121.337 120.536 235 238 255
172.296 139.224 109.787 198 215 255
105.145 118.105 112.536 184 207 255
93.8312 174.105 110.563 207 221 255
108.731 108.849 106.403 255 231 212
224.355 41.4853 109.308 185 208 255
93.9126 174.123 110.568 199 216 255
120.042 70.5651 121.453 198 215 255
99.1653 175.124 103.616 255 246 237
93.8756 174.114 110.564 203 219 255
99.3204 84.3505 115.076 228 233 255
91.8477 151.164 109.681 232 236 255
153.758 175.688 117.227 185 207 255
102.412 203.542 134.18 194 213 255
145.878 96.137 112.644 201 218 255
177.051 8.56656 107.101 184 207 255
115.072 113.911 94.6569 228 234 255
127.169 87.6605 110.903 194 213 255
106.297 103.73 98.8682 188 209 255
95.3442 154.542 115.61 219 229 255
118.763 99.948 121.491 255 249 255
135.226 58.5234 101 255 246 236
100.176 60.8346 113.386 208 221 255
164.306 167.495 80.6693 255 236 221
40.2163 43.129 107.381 215 226 255
110.697 205.941 70.2906 209 222 255
161.491 123.206 112.759 193 213 255
122.082 120.007 128.21 193 212 255
59.8508 101.17 118.798 201 218 255
43.9223 60.9055 132.185 216 226 255
93.8616 174.111 110.563 214 225 255
72.0165 179.204 114.058 187 209 255
93.8026 174.034 109.521 182 206 255
141.933 129.965 115.095 255 247 238
91.1746 186.628 113.281 255 223 197
35.1098 147.319 109.192 203 219 255
109.484 114.308 118.024 228 234 255
102.395 77.2314 113.358 230 235 255
104.816 115.109 107.461 230 235 255
114.215 133.158 108.507 235 238 255
96.2 113.731 116.924 203 219 255
114.95 118.949 111.832 238 239 255
136.617 94.0562 112.107 240 240 255
81.4677 143.954 109.338 199 216 255
93.8138 173.995 110.643 232 236 255
117.925 124.814 105.531 255 251 245
69.9233 166.571 111.288 196 214 255
136.097 110.472 138.193 230 235 255
106.039 102.601 108.271 212 224 255
84.5086 130.425 110.984 255 190 137
93.9081 174.122 110.567 228 233 255
93.8599 174.111 110.563 197 215 255
104.321 127.38 116.014 233 236 255
206.61 135.789 114.12 181 205 255
93.8302 174.106 110.564 226 232 255
123.936 80.9619 107.593 246 244 255
42.6487 111.675 119.478 207 221 255
98.5036 127.728 118.859 255 214 181
95.3245 127.933 109.742 178 203 255
120.745 82.3438 109.799 210 223 255
45.6147 171.852 117.14 229 234 255
134.641 82.4966 111.258 204 219 255
107.35 101.103 103.747 255 240 226
148.231 101 115.369 215 226 255
66.7334 167.985 112.649 207 221 255
121.618 86.5655 120.024 255 184 124
145.64 31.5995 112.518 203 219 255
134.166 111.051 116.214 255 231 211
104.274 97.6381 99.6188 242 241 255
60.8547 65.1427 110.134 203 219 255
60.6353 55.4928 88.8948 223 231 255
125.079 146.466 111.167 198 216 255
153.485 97.9632 92.9796 206 220 255
93.9139 174.123 110.568 255 226 202
21.6655 186.174 111.379 196 214 255
116.431 157.86 109.636 228 233 255
76.2596 221.26 102.631 189 210 255
93.793 174.113 110.576 196 214 255
102.283 108.942 112.661 255 143 32
98.9138 168.536 106.165 195 214 255
171.524 75.5474 111.402 203 218 255
122.912 110.55 95.8914 255 154 58
49.705 123.324 131.337 255 225 201
131.356 52.6983 115.502 211 224 255
99.1859 150.324 116.429 255 219 191
138.745 23.9927 113.392 195 214 255
110.562 85.9146 110.41 202 218 255
119.019 90.6079 111.846 255 234 216
128.159 174.014 120.942 179 203 255
131.742 20.7922 102.167 195 214 255
122.93 130.186 112.989 255 240 227
173.861 80.6474 109.307 203 219 255
90.8842 46.2088 103.415 188 209 255
82.353 162.609 131.718 255 226 203
93.8706 174.113 110.563 211 223 255
103.845 100.546 102.599 199 216 255
80.6886 162.852 118.333 234 237 255
143.573 84.3388 111.256 237 239 255
27.4991 95.2263 113.933 184 207 255
93.9965 174.136 110.583 202 218 255
103.885 174.324 114.357 230 235 255
88.9011 139.993 110.914 233 236 255
175.819 133.621 114.859 255 249 255
93.3414 110.303 117.715 255 215 184
96.8728 165.502 114.657 255 239 224
110.271 100.448 103.941 228 233 255
119.075 86.4409 122.332 215 226 255
93.8547 174.11 110.563 219 228 255
93.177 173.995 110.989 214 225 255
131.319 118.43 115.51 225 232 255
93.8723 174.114 110.564 186 208 255
28.584 213.347 107.837 206 220 255
183.989 136.034 105.27 233 237 255
93.9093 174.112 110.892 187 209 255
30.752 114.974 109.565 199 217 255
43.6778 147.167 111.805 188 209 255
69.3258 144.114 118.224 192 212 255
93.8797 174.115 110.564 255 255 252
44.0804 208.785 114.628 187 208 255
125.437 30.0546 107.328 192 212 255
112.69 98.5414 107.41 255 253 248
8.14785 77.2679 132.846 255 238 224
126.053 75.7436 118.742 255 232 213
112.764 132.596 106.252 255 250 244
98.9375 114.268 113.555 203 219 255
141.948 68.1989 99.0439 250 246 255
64.9025 50.7849 121.057 194 213 255
57.6752 204.43 109.887 197 215 255
152.221 58.5964 117.862 185 208 255
55.8428 185.432 111.866 223 231 255
58.1352 157.756 127.488 211 224 255
80.2071 145.218 115.227 213 224 255
103.854 89.6754 119.862 205 220 255
139.378 86.4095 115.252 255 255 252
92.8252 173.549 110.758 197 215 255
51.499 121.386 132.376 201 217 255
8.12571 112.896 116.576 192 212 255
111.437 119.835 103.97 214 225 255
87.5434 179.073 116.214 255 240 227
101.298 90.0448 122.286 255 231 211
93.8543 174.11 110.563 255 236 220
148.822 84.9912 106.916 255 227 205
93.9295 174.127 110.568 240 241 255
214.155 72.4127 116.195 199 216 255
113.284 79.8337 127.758 196 214 255
100.027 177.542 106.774 201 217 255
153.304 18.9339 118.031 184 207 255
77.4074 134.077 115.349 217 227 255
112.899 121.845 109.978 227 233 255
93.8758 174.114 110.564 213 225 255
73.3345 19.3088 102.602 255 234 216
153.43 155.123 115.184 202 218 255
125.458 102.519 109.396 225 232 255
201.013 8.78861 119.653 192 212 255
171.679 52.3883 111.059 212 224 255
94.5093 111.549 101.346 229 234 255
105.859 110.106 121.936 255 249 242
111.033 98.0585 98.3356 204 219 255
13.7207 195.408 108.521 192 212 255
118.706 89.8805 107.249 255 236 220
94.4507 174.397 111.127 224 231 255
167.706 100.537 121.791 255 214 181
106.591 193.206 104.725 186 208 255
154.162 116.719 118.706 242 241 255
32.2157 118.314 113.402 208 222 255
113.929 85.4515 113.828 193 213 255
131.086 146.184 100.991 199 216 255
93.8821 174.116 110.564 211 224 255
113.803 65.5361 120.817 197 215 255
104.482 111.814 103.809 242 241 255
36.8471 194.488 103.402 194 213 255
59.2849 30.3411 150.947 204 219 255
94.0127 174.119 110.615 207 221 255
103.502 136.614 106.815 228 234 255
194.972 143.413 134.579 195 214 255
22.7584 219.794 125.904 204 219 255
45.2127 70.0523 109.909 218 228 255
79.6076 144.076 127.765 216 227 255
173.911 145.89 115.677 185 208 255
179.685 116.605 102.655 219 228 255
206.594 70.0548 113.71 203 219 255
94.8366 143.229 111.369 192 212 255
128.046 180.842 114.027 191 211 255
131.414 156.15 113.869 190 210 255
97.7922 78.8682 108.039 255 249 243
94.3581 174.262 110.072 222 230 255
53.5052 80.4888 114.62 191 211 255
121.181 83.2894 111.891 198 216 255
110.311 55.9965 116.406 202 218 255
189.283 74.143 112.896 187 209 255
65.1888 42.125 120.557 186 208 255
97.7808 133.289 113.927 255 200 155
162.752 122.959 125.997 207 221 255
134.115 127.901 97.3574 208 222 255
140.439 76.7534 126.804 225 232 255
123.057 74.1966 129.754 197 215 255
116.734 88.4549 115.049 244 242 255
158.049 118.352 112.045 222 230 255
93.8604 174.111 110.563 211 224 255
13.3068 171.12 112.243 199 216 255
110.836 112.595 118 255 227 205
11.322 72.5161 177.363 229 234 255
80.2 120.425 109.429 193 212 255
91.8853 160.097 131.683 198 215 255
101.797 119.832 119.946 255 236 220
120.088 108.082 105.649 222 230 255
114.309 54.8857 117.262 206 220 255
93.8965 22.7592 112.1 209 222 255
98.3092 13.2059 118.367 255 232 213
39.8465 76.9258 124.358 217 227 255
85.4533 106.699 110.422 192 212 255
150.141 99.8467 128.207 255 247 239
132.553 156.536 116.748 192 212 255
103.037 157.151 117.554 214 225 255
127.561 150.362 117.257 190 211 255
93.7385 173.941 110.582 255 243 231
133.017 93.385 111.587 180 204 255
109.513 110.685 110.791 204 219 255
104.63 101.402 117.957 255 190 136
132.388 112.901 108.056 255 243 231
160.163 124.469 112.866 237 239 255
93.8756 174.113 110.564 201 217 255
81.285 156.979 123.341 232 236 255
149.268 77.8586 96.0746 209 222 255
48.2828 139.137 109.425 197 215 255
81.0465 19.4422 128.789 191 211 255
31.5258 204.831 104.923 197 215 255
78.2229 34.7909 104.005 201 217 255
132.868 39.55 67.7902 198 216 255
93.8811 174.116 110.564 200 217 255
89.0279 107.213 116.226 224 231 255
114.743 83.6628 119.323 189 210 255
93.8562 174.11 110.563 218 228 255
52.2103 175.69 115.27 181 205 255
94.1553 174.638 111.094 194 213 255
41.677 55.1915 116.516 191 211 255
93.8544 174.11 110.563 194 213 255
78.0027 119.115 111.838 196 214 255
93.7866 174.1 110.599 239 240 255
93.9021 174.119 110.568 223 230 255
101.397 116.503 116.207 202 218 255
121.312 157.788 112.683 192 212 255
54.5188 112.604 108.971 207 221 255
124.378 131.923 108.784 195 214 255
54.3938 112.999 116.417 199 216 255
53.5176 76.279 112.187 215 226 255
127.783 170.32 104.509 184 207 255
111.637 103.259 108.715 255 234 216
213.418 68.0142 110.579 211 224 255
133.528 136.554 77.7146 203 218 255
93.8625 174.112 110.563 209 222 255
66.1025 95.1011 110.397 235 238 255
170.166 104.928 114.22 242 241 255
85.9357 141.224 126.71 253 248 255
134.601 76.7133 99.7092 222 230 255
93.8684 174.113 110.563 219 228 255
139.976 73.5794 128.589 201 217 255
24.6866 176.345 110.696 186 208 255
106.328 128.592 103.891 255 222 197
91.9672 174.639 111.091 194 213 255
120.381 112.057 115.128 228 234 255
68.0872 21.1215 111.703 206 221 255
161.004 145.194 111.433 255 255 252
106.348 37.8044 118.462 241 241 255
99.0898 163.757 123.725 191 211 255
127.576 112.108 120.429 255 229 208
93.7076 173.964 110.721 223 231 255
137.973 71.5643 120.653 201 217 255
56.55 101.057 105.425 180 205 255
90.9277 170.845 117.5 209 222 255
22.5914 58.262 113.946 193 212 255
33.2692 161.707 111.382 180 204 255
102.499 98.3646 121.375 255 239 225
76.1627 56.342 94.1713 199 216 255
93.8842 174.116 110.564 199 216 255
108.345 113.148 110.301 208 222 255
104.382 99.121 102.321 255 254 250
79.566 90.2577 115.05 223 231 255
105.457 100.815 107.148 255 226 202
77.5191 128.532 88.1172 212 224 255
115.407 127.326 107.605 210 223 255
106.521 98.7107 113.294 215 226 255
109.003 120.828 110.399 255 210 175
105.733 98.1334 113.331 209 222 255
78.4396 109.237 128.982 237 238 255
93.9244 174.126 110.569 213 224 255
105.917 126.984 109.978 255 247 238
93.8741 174.114 110.564 194 213 255
151.747 149.945 112.35 255 254 250
111.652 114.054 109.819 221 230 255
64.1023 51.4935 107.288 206 221 255
75.4185 120.698 96.4737 215 226 255
93.8682 174.113 110.563 194 213 255
64.856 120.028 101.328 188 210 255
111.256 136.962 110.079 255 253 248
60.9134 137.643 98.7914 222 230 255
111.479 82.0991 103.17 255 166 85
66.7915 129.442 125.964 208 221 255
72.637 159.236 127.562 255 219 190
35.4734 113.794 111.277 187 209 255
97.7269 153.802 113.367 229 234 255
93.9793 174.065 109.905 201 217 255
113.435 106.849 118.354 255 172 100
100.488 123.706 120.164 255 229 207
104.133 96.7073 111.692 228 234 255
124.021 87.3174 115.581 227 233 255
97.7117 159.532 103.829 254 248 255
87.1756 132.6 110.489 209 223 255
122.67 130.122 106.756 214 225 255
178.706 150.308 106.072 188 209 255
94.8412 173.445 113.059 196 214 255
222.695 75.3582 112.093 222 230 255
93.8739 174.114 110.564 208 222 255
105.727 103.584 111.903 213 225 255
62.3912 123.807 112.638 189 210 255
50.799 105.265 108.952 218 228 255
178.844 182.861 105.295 198 215 255
99.0085 177.446 111.902 195 214 255
93.9768 174.135 110.56 209 223 255
70.7553 211.484 106.722 254 248 255
138.352 71.2254 116.144 232 236 255
93.8944 174.119 110.565 211 224 255
68.3939 135.817 131.357 255 238 223
116.504 114.613 114.82 201 217 255
93.8691 174.113 110.563 216 226 255
180.526 172.636 111.717 184 207 255
100.235 159.782 117.458 255 251 245
111.775 108.49 113.833 255 222 196
115.56 104.848 82.2916 255 237 221
140.883 73.6806 125.235 207 221 255
42.7784 37.1879 149.286 203 219 255
93.8766 174.115 110.564 255 220 192
57.498 88.5424 102.647 188 209 255
130.269 94.2304 110.964 232 236 255
31.2073 75.0674 139.8 229 234 255
93.8948 174.119 110.565 206 220 255
199.371 169.867 115.745 187 208 255
151.999 185.671 75.3249 241 241 255
125.264 97.6996 104.243 232 236 255
216.124 41.7643 105.688 180 205 255
92.4267 174.215 110.643 255 247 238
130.262 62.6328 113.988 214 225 255
93.8795 174.115 110.564 227 233 255
201.288 43.7649 111.912 198 215 255
112.502 104.98 113.29 255 217 187
94.2077 105.74 106.11 215 226 255
103.174 124.614 116.21 230 235 255
31.3832 66.368 112.04 190 211 255
176.429 110.268 119.478 210 223 255
74.6423 110.45 111.218 255 251 245
93.8659 145.251 112.217 205 220 255
93.8687 174.118 110.565 192 212 255
58.3423 68.4823 110.881 190 211 255
114.306 102.99 108.092 255 161 76
29.5024 56.5417 107.585 198 215 255
157.039 91.5624 107.739 201 217 255
82.0541 154.288 108.841 203 219 255
60.9586 61.9222 117.121 205 220 255
128.082 132.622 115.187 255 250 243
45.8775 224.827 121.664 175 201 255
122.045 125.78 106.302 229 234 255
64.6611 94.2497 110.7 175 201 255
77.3936 40.3925 101.001 194 213 255
133.27 197.704 107.965 255 250 244
106.032 181.281 113.433 200 217 255
137.367 108.669 101.094 235 238 255
93.7559 174.03 110.591 225 232 255
110.185 113.876 130.036 255 245 235
60.1606 72.7139 134.844 255 240 227
134.803 73.2729 119.259 209 222 255
133.124 79.7075 122.562 222 230 255
107.177 106.442 113.429 255 249 255
147.883 25.1766 111.107 227 233 255
56.7377 172.106 114.015 202 218 255
97.1523 26.3757 105.403 211 224 255
160.615 37.2702 110.876 192 212 255
86.2595 141.787 114.733 248 245 255
43.1376 35.1295 121.108 188 209 255
139.115 22.7822 112.554 224 231 255
143.874 105.092 114.238 226 233 255
150.858 134.341 117.581 207 221 255
55.6785 30.6841 90.2252 178 203 255
127.841 95.8838 112.796 212 224 255
154.17 76.5704 101.986 251 247 255
96.4747 124.34 127.99 225 232 255
158.538 160.909 113.072 211 223 255
112.254 43.7734 115.651 185 207 255
129.361 117.057 102.493 255 250 244
114.796 135.745 104.112 255 218 189
60.5388 99.5669 117.253 198 215 255
114.347 124.851 110.272 255 254 250
71.0775 169.81 101.66 221 229 255
98.7311 133.712 107.107 210 223 255
87.3861 111.298 115.151 216 226 255
98.0371 109.306 106.559 238 239 255
51.5246 205.712 115.016 191 212 255
158.749 114.5 109.483 208 222 255
93.8696 174.113 110.563 204 220 255
100.479 124.465 111.943 204 219 255
79.6024 84.4934 113.634 225 232 255
93.87 174.113 110.563 251 246 255
92.8131 142.197 127.975 243 242 255
10.7305 180.144 111.255 202 218 255
196.72 43.9644 108.985 188 209 255
135.601 80.8734 110.351 255 227 204
125.815 127.875 106.508 255 249 243
171.73 74.8668 115.546 193 212 255
96.6534 143.442 111.558 216 226 255
127.153 127.564 119.048 206 221 255
194.103 40.7301 113.98 195 214 255
97.1208 183.341 109.385 228 234 255
107.657 193.361 107.73 194 213 255
113.714 111.786 115.748 255 248 241
116.928 75.1522 115.486 232 236 255
90.2571 132.35 112.081 255 231 212
34.0186 135.713 111.713 195 213 255
63.7345 77.9552 106.912 206 220 255
105.556 28.4085 106.067 211 224 255
144.817 89.9836 103.989 255 249 255
109.754 113.016 131.259 250 246 255
103.567 44.7348 115.145 223 230 255
95.0165 159.363 116.38 206 221 255
104.98 134.493 120.132 224 231 255
93.8694 174.113 110.563 197 215 255
159.165 113.711 79.4731 210 223 255
93.8697 174.113 110.563 251 247 255
79.8527 45.4509 99.1795 202 218 255
93.8559 174.11 110.563 255 252 247
95.3476 179.013 138.012 218 228 255
176.696 123.644 131.826 212 224 255
42.0726 150.714 109.529 208 222 255
105.986 90.2745 153.101 194 213 255
144.148 147.317 108.967 189 210 255
135.592 90.5307 104.741 246 244 255
51.0336 102.091 122.951 189 210 255
145.474 97.6114 112.826 255 250 255
94.6334 37.1393 102.495 197 215 255
139.824 160.155 114.695 215 226 255
126.162 149.393 113.309 188 210 255
132.113 67.4848 111.673 207 221 255
128.653 108.979 115.424 255 208 171
165.014 195.136 102.775 197 215 255
59.2004 87.1397 110.94 216 226 255
93.8644 174.112 110.563 236 238 255
111.298 196.569 115.065 177 202 255
94.1314 174.109 110.775 206 220 255
79.938 177.851 105.257 255 247 238
163.802 105.519 109.809 255 250 243
46.3071 25.8584 111.669 199 216 255
190.714 129.538 121.176 189 210 255
112.781 132.147 106.488 255 245 236
132.751 90.0685 111.485 215 226 255
56.4607 156.491 112.022 205 220 255
119.574 141.243 99.2837 215 226 255
57.3538 120.78 100.771 215 226 255
192.189 98.5133 104.82 255 243 231
121.464 134.975 110.468 255 242 231
119.508 78.1592 109.64 216 227 255
105.513 36.9087 113.37 181 205 255
88.8681 156.497 107.713 208 222 255
180.553 144.318 131.403 191 211 255
151.823 126.668 110.228 237 239 255
71.4431 171.214 109.777 255 234 216
101.401 70.8451 108.663 255 236 220
216.117 110.956 122.163 185 207 255
32.7598 141.679 127.837 213 224 255
139.581 82.3099 112.739 199 216 255
121.448 113.247 114.642 255 221 193
93.8748 174.114 110.564 255 252 248
77.5477 200.347 105.303 189 210 255
142.167 104.116 109.087 228 233 255
52.6491 75.3876 113.84 188 209 255
180.754 154.669 114.481 181 205 255
146.404 99.9928 116.184 227 233 255
212.426 85.4915 112.777 204 219 255
113.002 71.828 117.916 200 217 255
112.034 142.645 105.741 197 215 255
98.945 18.6665 100.609 255 252 248
114.818 74.6535 119.796 231 235 255
48.1306 47.638 116.029 199 216 255
130.698 112.722 115.588 214 225 255
147.923 95.2055 126.083 190 210 255
85.9571 193.461 102.17 235 238 255
63.548 120.292 108 201 218 255
120.617 77.5093 119.928 255 187 131
96.5994 131.054 105.295 255 245 236
93.9924 174.148 110.576 225 232 255
93.1622 173.666 111.268 239 240 255
103.11 127.15 124.41 190 211 255
172.68 142.725 112.522 189 210 255
73.9642 77.1289 88.533 255 250 244
9.40223 163.059 113.835 191 211 255
19.1204 89.6138 107.538 182 206 255
114.712 157.098 109.142 205 220 255
69.5603 75.419 109.119 186 208 255
74.1318 23.6596 93.417 182 205 255
98.6508 97.6985 123.718 255 254 250
93.8712 174.113 110.563 194 213 255
113.776 138.891 109.944 255 223 197
93.9107 174.111 110.577 233 237 255
126.727 139.639 107.359 209 223 255
153.631 37.8368 113.605 217 227 255
103.418 113.806 112.125 208 222 255
153.442 149.751 114.27 190 211 255
85.5603 139.46 120.251 255 215 183
52.1734 134.74 109.557 255 238 223
15.7126 205.981 106.725 175 201 255
160.94 12.3163 101.944 178 203 255
133.595 88.0919 99.0254 213 224 255
71.3452 72.0106 118.427 193 212 255
129.623 117.577 117.436 255 246 236
53.1044 121.774 121.358 232 236 255
104.87 43.2474 113.228 255 206 167
158.754 12.9507 108.397 190 211 255
94.4318 197.794 148.968 199 216 255
74.4285 143.552 117.364 255 229 208
126.408 177.086 105.897 194 213 255
51.9351 102.753 110.22 232 236 255
111.315 119.173 104.536 255 247 238
115.639 100.692 114.127 195 214 255
160.098 160.702 125.6 201 217 255
22.4392 221.597 124.594 191 211 255
157.683 100.85 140.267 199 216 255
103.58 46.1627 114.017 215 226 255
157.873 105.991 128.364 194 213 255
176.256 107.262 92.0879 195 214 255
153.575 101.414 108.587 215 226 255
93.8996 174.12 110.566 208 222 255
117.638 139.477 118.736 255 221 194
125.111 126.235 118.231 255 241 229
102.414 120.511 109.664 219 228 255
86.0979 78.1644 113.256 209 222 255
116.389 108.872 101.954 213 225 255
94.3194 169.776 119.096 255 231 211
101.96 41.1202 93.606 194 213 255
146.043 107.903 110.272 208 222 255
78.0462 101.315 104.111 255 222 196
93.8638 174.112 110.563 223 230 255
89.1735 126.75 115.495 216 227 255
55.0013 89.9324 115.632 187 209 255
151.842 127.659 119.116 193 213 255
92.2724 47.8661 70.6965 186 208 255
93.9471 174.134 110.573 208 222 255
144.892 143.806 110.904 195 214 255
96.1964 141.416 101.505 255 197 149
81.0917 136.391 116.856 236 238 255
113.187 107.137 94.4155 255 225 201
80.057 26.5394 101.424 198 215 255
65.5303 115.005 116.447 195 214 255
113.628 6.72267 99.5129 196 214 255
99.6508 188.751 104.509 196 215 255
155.316 96.8229 118.153 192 212 255
121.587 156.96 117.475 255 248 240
94.2031 173.73 111.475 194 213 255
117.028 67.4931 122.578 220 229 255
142.806 138.178 145.814 195 214 255
126.484 121.093 115.065 215 226 255
102.994 157.19 109.921 255 244 234
109.532 36.7005 112.67 199 216 255
93.8755 174.114 110.564 212 224 255
127.605 100.623 115.351 219 229 255
93.882 174.116 110.564 232 236 255
89.1842 60.9257 114.004 188 209 255
48.6629 103.568 105.746 210 223 255
116.406 116.177 110.012 255 231 211
72.5599 115.906 109.915 211 223 255
78.5358 110.643 95.476 229 234 255
37.6026 186.337 112.739 187 209 255
171.82 14.2521 108.31 183 206 255
54.5627 198.747 114.587 190 211 255
104.914 126.501 111.47 195 214 255
68.8164 152.133 119.335 189 210 255
115.669 130.977 102.272 255 250 243
93.8644 174.112 110.563 197 215 255
51.0755 186.656 111.821 197 215 255
151.549 108.815 111.522 203 219 255
114.257 102.099 114.237 255 235 219
36.6616 116.225 110.865 255 247 239
46.8066 80.0232 145.187 245 243 255
111.036 107.724 117.692 255 224 199
92.1662 168.608 116.106 205 220 255
44.8333 79.1444 100.889 193 213 255
29.7959 209.261 116.608 205 220 255
100.115 124.766 113.636 216 227 255
93.8776 174.115 110.564 199 216 255
99.7463 119.062 115.238 235 238 255
158.133 103.202 110.534 197 215 255
147.098 99.0658 116.854 196 215 255
121.325 48.6393 114.444 255 255 252
73.0992 125.534 110.061 204 219 255
214.032 114.42 116.061 208 222 255
141.564 102.844 122.802 219 228 255
113.488 110.925 95.0123 233 236 255
159.012 119.281 117.576 195 214 255
117.553 105.51 91.374 196 215 255
115.495 126.777 99.5634 255 245 236
114.95 115.078 112.368 255 160 73
93.8721 174.114 110.563 198 216 255
93.8651 174.112 110.563 194 213 255
122.648 141.505 104.572 198 215 255
140.327 155.207 105.702 192 212 255
110.777 103.389 111.662 239 240 255
112.051 89.1247 123.648 193 212 255
152.531 166.887 117.883 198 216 255
119.139 150.105 112.642 188 209 255
144.894 82.1998 110.937 255 249 242
62.0821 107.4 117.5 200 217 255
116.759 126.904 98.1817 196 215 255
208.696 49.8698 111.511 190 211 255
62.6011 113.993 113.67 197 215 255
102.264 109.318 112.035 255 250 255
29.7847 188.703 117.818 193 212 255
112.431 76.4692 120.37 255 222 196
196.523 43.468 112.143 206 220 255
134.355 132.794 109.223 234 237 255
177.094 65.8987 116.067 255 255 252
116.086 118.245 107.662 255 245 235
110.138 101.92 93.0839 255 230 210
98.5282 135.989 105.977 255 238 224
104.445 141.132 118.188 206 220 255
99.1682 126.978 114.627 210 223 255
193.729 114.993 146.574 230 235 255
165.953 5.13944 112.763 195 214 255
75.4991 22.8471 100.72 194 213 255
91.9391 178.075 111.603 205 220 255
93.9005 174.12 110.566 193 212 255
109.639 104.466 99.9721 255 249 241
70.2967 169.248 114.065 192 212 255
117.04 185.235 105.388 181 205 255
93.0129 173.684 110.911 196 214 255
63.6164 71.7811 111.02 211 223 255
170.674 73.7559 144.103 255 223 197
121.833 177.934 114.511 189 210 255
109 106.961 113.154 232 236 255
149.327 91.501 110.275 202 218 255
67.4828 122.193 111.068 255 241 229
130.642 80.8366 117.161 255 232 214
48.4509 121.825 98.7616 255 251 246
189.114 24.0038 108.996 185 207 255
86.4494 162.578 102.895 207 221 255
93.8726 174.114 110.564 188 209 255
8.11273 189.362 110.797 236 238 255
93.9542 174.146 110.542 208 222 255
102.688 101.003 107.598 213 224 255
160.658 123.487 112.768 213 224 255
93.7577 174.134 110.592 245 243 255
102.398 175.008 121.434 203 219 255
25.5624 121.107 111.111 189 210 255
172.358 189.204 114.362 204 220 255
161.778 103.708 126.637 208 222 255
60.2115 58.2259 122.813 200 217 255
36.8733 190.073 112.533 188 210 255
129.238 11.7079 111.978 225 232 255
157.006 107.482 108.578 196 215 255
93.8678 174.113 110.563 210 223 255
176.711 159.149 110.245 189 210 255
119.312 149.18 105.11 255 234 217
97.5394 141.854 99.6244 255 233 215
51.1866 116.941 99.8903 217 227 255
70.8706 169.89 110.219 211 223 255
99.9502 101.651 115.544 202 218 255
210.213 34.7415 109.034 185 207 255
116.525 125.012 113.766 255 246 236
146.888 186.574 128.435 192 212 255
103.341 11.4874 114.993 196 214 255
107.064 94.1936 114.303 195 214 255
93.9395 174.131 110.575 255 247 238
93.9552 174.142 110.574 240 240 255
177.38 25.8688 108.728 200 217 255
154.349 96.5038 120.595 195 214 255
114.163 40.2738 117.661 210 223 255
92.8751 174.309 110.718 215 226 255
109.471 104.624 114.219 211 224 255
174.003 144.087 109.407 192 212 255
181.337 125.215 117.402 197 215 255
65.178 91.8718 112.141 200 217 255
90.3729 49.2883 112.278 224 231 255
112.142 134.488 108.356 217 227 255
118.421 178.557 110.755 200 217 255
216.219 51.4773 111.108 188 209 255
36.1057 100.061 111.438 187 209 255
139.305 68.4717 120.988 191 211 255
87.6173 144.36 99.861 204 219 255
75.0979 159.109 108.968 209 222 255
93.7562 175.478 110.554 255 225 200
5.92101 172.792 107.033 212 224 255
138.643 74.146 106.269 255 198 152
141.639 91.1738 115.682 200 217 255
96.0285 118.804 105.651 204 219 255
125.914 82.1782 115.645 255 226 203
30.5117 90.6122 108.405 186 208 255
119.371 168.801 107.108 188 209 255
56.3579 7.21057 117.533 200 217 255
103.9 134.454 108.748 237 239 255
112.721 45.1421 115.914 218 228 255
101.905 123.152 118.469 234 237 255
117.506 86.6403 127.787 219 228 255
73.4968 162.212 115.017 229 234 255
107.601 113.165 111.088 255 231 212
168.204 152.479 96.1241 197 215 255
69.2986 136.61 107.144 204 219 255
114.204 108.384 116.355 255 228 207
153.123 69.1302 148.734 250 246 255
119.097 102.669 111.512 237 239 255
90.2728 101.775 108.052 213 225 255
107.684 113.827 109.949 195 214 255
115.047 175.304 111.591 204 219 255
116.849 0.23169 97.9085 183 206 255
110.28 121.73 107.638 193 212 255
145.85 113.628 113.607 255 254 251
126.967 126.722 116.01 255 249 243
147.407 96.6247 107.231 204 220 255
150.836 149.757 112.441 208 222 255
104.822 120.383 119.954 255 198 153
93.8548 174.11 110.563 210 223 255
111.743 87.4621 116.704 230 235 255
107.946 105.43 106.335 244 243 255
189.219 108.491 115.117 215 226 255
103.317 123.394 80.8916 255 209 172
93.8809 174.115 110.564 255 244 234
92.557 169.474 112.232 202 218 255
86.818 141.215 114.727 255 254 250
53.2662 131.309 114.44 203 219 255
112.893 83.5131 113.697 232 236 255
81.1344 35.9413 112.147 216 227 255
111.748 132.991 97.6455 255 232 214
105.531 102.738 116.901 242 241 255
107.517 117.625 111.9 223 231 255
53.7024 70.9389 106.141 190 211 255
142.246 114.095 110.656 209 223 255
109.214 94.6526 122.195 205 220 255
113.352 124.789 102.384 187 209 255
86.5799 155.541 114.329 195 214 255
0.375941 103.721 114.868 193 212 255
100.149 190.106 112.986 218 228 255
174.573 22.2535 112.327 195 214 255
44.1164 102.102 126.844 207 221 255
94.2279 144.669 101.609 211 224 255
93.7371 173.81 110.716 239 240 255
93.9062 174.121 110.567 215 226 255
140.882 68.84 110.738 255 202 160
103.207 142.612 102.922 200 217 255
99.5352 119.16 114.086 227 233 255
135.064 169.946 114.426 208 221 255
129.824 92.0995 117.793 191 211 255
93.8743 174.114 110.564 255 254 251
138.16 148.786 115.307 189 210 255
121.937 136.792 102.383 255 185 127
93.8532 174.11 110.563 204 219 255
87.4953 104.907 117.717 207 221 255
93.8865 174.117 110.565 213 225 255
43.7955 106.06 128.846 201 217 255
162.662 6.89221 115.366 191 211 255
118.704 150.081 105.714 239 240 255
122.912 69.1201 119.619 215 226 255
145.886 118.803 90.1931 189 210 255
132.296 48.3702 116.367 200 217 255
126.561 79.1623 111.711 224 231 255
140.864 94.7291 111.528 220 229 255
111.488 65.1129 118.031 201 218 255
70.9747 180.791 96.2743 239 240 255
111.284 121.659 111.593 212 224 255
104.878 123.597 106.761 255 197 149
63.3104 103.989 104.282 212 224 255
93.8644 174.112 110.563 225 232 255
144.459 64.5498 115.265 203 219 255
93.8668 174.113 110.563 192 212 255
106.69 113.154 125.413 255 250 244
109.751 104.171 92.4247 255 245 236
109.121 104.488 110.763 252 247 255
93.9218 174.128 110.572 242 242 255
122.353 145.511 113.104 255 227 205
123.809 95.4484 108.309 255 254 251
79.5061 84.8514 114.213 255 234 217
133.66 129.774 115.801 199 216 255
129.497 161.98 122.716 183 206 255
114.069 131.148 105.534 192 212 255
93.9743 174.132 110.649 240 240 255
17.2016 73.8851 114.406 190 210 255
220.154 95.9333 114.372 203 219 255
64.8821 92.999 113.761 191 211 255
129.77 156.324 114.804 210 223 255
101.898 113.754 101.61 228 233 255
87.191 169.842 111.141 200 217 255
176.523 50.0809 112.476 194 213 255
153.877 96.9213 96.0184 255 240 227
93.9499 174.129 110.588 208 221 255
124.221 136.516 112.974 185 208 255
107.451 111.355 109.517 218 227 255
107.414 123.286 104.586 255 230 210
125.039 160.219 105.682 194 213 255
43.042 73.3494 87.4297 251 247 255
56.8776 36.0481 114.34 223 231 255
151.701 27.927 104.978 190 211 255
93.7139 173.953 110.181 200 217 255
63.9717 190.04 112.812 191 211 255
113.3 131.126 102.876 213 225 255
90.8561 173.798 111.102 255 224 199
132.86 118.079 121.114 255 247 238
80.7946 145.186 112.668 210 223 255
149.384 116.105 110.152 210 223 255
104.698 102.693 106.927 255 224 199
151.753 105.679 130.67 218 228 255
159.555 104.935 90.6354 196 214 255
148.951 104.592 108.16 210 223 255
93.8468 174.047 110.474 255 253 248
64.7779 78.2139 122.994 230 234 255
93.9021 174.12 110.566 195 213 255
90.5773 45.9769 109.579 193 212 255
95.6822 84.4438 107.431 201 218 255
108.342 106.941 106.466 230 235 255
138.533 73.8195 130.456 205 220 255
97.9815 106.495 112.151 201 217 255
82.9785 34.4187 127.339 183 206 255
83.2874 181.19 115.416 255 241 229
107.427 90.0502 118.063 195 214 255
87.261 138.482 116.753 255 207 169
125.808 107.08 118.763 206 220 255
84.8186 138.284 103.697 216 226 255
93.6544 174.32 110.479 236 238 255
81.385 136.955 108.806 200 217 255
93.8644 174.112 110.563 205 220 255
126.559 111.785 100.526 255 167 88
15.5918 110.602 108.266 209 222 255
108.9 111.17 105.884 255 233 214
48.6625 176.6 109.806 196 215 255
103.627 107.863 107.152 255 241 229
89.1088 48.3885 183.498 255 250 255
101.877 107.691 107.567 255 182 121
93.8764 174.114 110.564 190 211 255
164.257 142.796 101.75 207 221 255
189.206 175.684 161.65 207 221 255
107.246 117.145 121.841 255 249 255
68.7499 71.2733 116.601 191 212 255
110.157 155.171 112.235 182 205 255
