ply
format ascii 1.0
element vertex 1340
property float x
property float y
property float z
property uchar red
property uchar green
property uchar blue
end_header
31.3526 78.7769 115.214 193 212 255
123.509 46.0035 114.063 255 233 214
86.6081 136.374 115.255 238 239 255
174.785 68.9653 113.992 192 212 255
47.4554 93.4895 111.71 194 213 255
129.131 115.736 126.077 213 225 255
112.853 125.07 125.31 255 231 212
199.336 61.8231 114.278 184 207 255
83.8537 50.1271 112.882 201 217 255
174.112 199.132 113.277 177 202 255
151.62 159.395 108.677 238 239 255
84.8193 159.853 114.291 220 229 255
70.6493 69.4673 113.924 226 232 255
126.665 70.6662 111.412 214 225 255
103.041 102.518 112.79 255 245 235
93.4799 175.087 110.792 203 219 255
155.712 133.03 110.593 255 180 116
80.4575 100.255 121.441 224 231 255
153.335 145.033 116.462 209 222 255
148.876 103.981 109.156 208 222 255
211.593 123.391 112.241 190 211 255
119.817 115.194 94.3619 248 245 255
78.0121 158.999 118.288 254 248 255
117.24 132.154 108.469 210 223 255
64.7001 149.89 112.668 218 228 255
105.65 78.5443 112.058 255 209 172
75.0819 47.9145 111.597 198 216 255
107.221 112.745 99.324 255 233 216
106.069 136.852 105.375 255 241 229
93.9354 173.874 110.682 194 213 255
159.252 117.548 106.094 255 255 251
48.2695 100.409 111.603 210 223 255
155.698 43.4072 112.052 223 230 255
116.694 219.15 108.365 183 206 255
163.866 160.991 111.195 189 210 255
143.484 159.893 107.582 240 240 255
9.96391 85.1535 114.05 177 202 255
122.877 111.316 118.421 255 225 201
63.402 132.77 111.69 185 208 255
70.4826 110.637 102.493 255 250 255
102.772 90.6551 107.775 255 243 233
152.483 97.9849 104.16 203 218 255
108.349 100.479 102.259 220 229 255
57.484 106.885 119.714 188 209 255
205.023 158.643 113.601 198 216 255
120.277 109.721 124.425 196 214 255
157.579 89.4909 107.537 250 246 255
98.7698 105.629 100.406 255 232 213
70.8206 12.376 111.842 188 209 255
80.8763 90.0459 119.532 225 232 255
86.5561 36.8876 108.725 210 223 255
117.25 109.26 103.484 255 195 145
75.9341 35.1935 112.152 212 224 255
70.7357 115.397 122.436 205 220 255
87.2204 101.931 117.643 206 221 255
197.074 43.4643 112.491 183 206 255
110.707 105.841 131.773 217 227 255
164.277 168.97 113.633 187 209 255
136.294 12.2257 112.345 181 205 255
95.5322 106.34 122.182 201 218 255
79.6534 59.9166 110.1 204 219 255
142.603 170.744 112.88 216 226 255
101.594 127.164 109.18 213 225 255
119.564 151.965 113.111 243 242 255
58.4059 80.7235 109.516 204 219 255
147.555 121.869 110.545 227 233 255
134.007 78.6863 108.419 255 245 235
72.1556 95.5585 103.821 245 243 255
150.539 134.253 108.558 214 225 255
93.0409 174.78 110.039 212 224 255
82.1741 72.223 118.686 205 220 255
58.6228 147.048 107.359 197 215 255
124.373 99.8987 104.105 221 230 255
108.313 102.95 115.758 255 242 230
173.361 197.203 111.242 181 205 255
61.7325 126.494 116.504 255 251 246
166.554 132.565 112.309 231 235 255
169.381 74.2006 107.284 187 209 255
143.373 63.696 109.117 211 224 255
217.363 83.6618 110.343 186 208 255
109.094 88.0713 106.008 210 223 255
144.995 88.7886 108.509 205 220 255
122.716 86.4874 104.869 215 226 255
26.7288 112.735 114.565 198 215 255
66.4878 120.585 106.366 255 252 247
111.183 39.0798 111.404 186 208 255
100.544 16.2727 106.886 185 207 255
136.752 94.5614 105.48 255 170 94
110.184 130.885 103.874 218 228 255
130.834 212.176 114.193 192 212 255
94.0482 83.773 123.828 220 229 255
124.489 69.3552 117.616 209 222 255
95.153 156.296 111.736 192 212 255
118.087 161.744 111.651 186 208 255
54.6557 62.9898 113.9 206 220 255
76.4414 123.301 122.784 243 242 255
149.204 49.1721 109.661 196 214 255
122.203 101.84 127.513 255 252 247
68.2641 41.2971 109.666 181 205 255
101.258 72.7163 112.405 205 220 255
55.0565 127.008 108.957 193 212 255
91.1462 67.4129 115.794 214 225 255
104.281 180.939 111.506 193 212 255
139.827 66.3326 106.488 206 221 255
109.308 98.3288 99.7297 255 252 247
112.026 193.641 110.811 203 219 255
17.456 143.183 112.288 196 214 255
149.122 81.5604 115.79 195 214 255
136.523 153.348 117.485 226 232 255
180.784 151.928 114.863 189 210 255
122.237 129.323 108.83 230 235 255
87.7715 200.799 113.926 196 214 255
111.091 120.355 118.72 248 245 255
182.908 42.0329 114.83 194 213 255
61.5707 160.395 110.084 196 214 255
124.498 51.4916 108.631 191 211 255
77.7756 151.688 113.406 218 227 255
79.873 127.448 113.656 255 253 249
136.804 200.362 112.205 176 202 255
54.4868 26.9581 113.129 184 207 255
162.613 139.165 117.041 207 221 255
178.216 162.523 115.186 185 208 255
208.412 109.303 114.238 179 204 255
46.7243 109.589 110.709 194 213 255
72.9968 43.6022 112.714 197 215 255
44.1257 137.516 114.591 201 217 255
12.643 99.6793 115.784 192 212 255
110.489 100.475 101.507 205 220 255
150.53 114.654 123.181 255 255 252
79.5176 112.391 101.307 199 217 255
82.723 56.7254 115.082 194 213 255
98.2787 123.92 107.482 223 231 255
127.435 95.3425 106.323 214 225 255
139.958 80.7423 113.314 255 213 180
136.757 103.411 103.655 255 248 241
158.837 130.974 109.744 233 236 255
118.723 114.013 126.138 255 195 145
72.3594 114.164 108.617 200 217 255
103.065 81.0103 108.186 202 218 255
176.384 113.36 111.578 255 250 243
115.587 109.239 102.917 255 242 231
97.5328 68.844 109.909 240 241 255
108.39 137.17 116.079 255 239 226
116.072 110.25 132.188 198 216 255
113.226 156.429 116.301 200 217 255
87.6587 73.285 113.972 235 237 255
107.34 104.064 119.976 235 238 255
170.68 90.5318 108.97 245 244 255
91.0358 82.2923 105.724 194 213 255
60.1043 121.681 106.625 255 253 248
16.275 114.105 112.855 189 210 255
217.242 99.548 116.001 194 213 255
119.197 45.5751 112.905 255 248 241
17.1772 111.227 111.535 196 215 255
75.555 83.8986 117.069 255 246 237
107.861 128.955 101.427 222 230 255
185.611 168.468 113.717 191 211 255
115.667 106.461 119.386 255 219 190
102.331 208.318 115.457 190 210 255
139.758 124.872 116.664 219 229 255
139.715 152.533 115.52 211 223 255
2.81379 126.501 111.889 180 204 255
126.632 65.7131 112.061 255 229 207
160.067 124.256 115.244 210 223 255
59.9894 49.3693 110.648 187 209 255
152.998 132.047 103.027 220 229 255
72.9058 176.297 109.692 180 204 255
68.8424 101.124 106.766 247 245 255
88.7437 91.2799 110.239 234 237 255
122.957 118.492 110.491 255 221 195
106.217 115.521 120.208 223 231 255
107.759 170.158 115.371 205 220 255
114.876 58.7221 119.929 255 249 242
94.9318 160.187 111.046 211 223 255
88.4168 81.1662 112.85 255 242 230
92.3373 62.3071 111.707 194 213 255
145.562 155.678 114.351 186 208 255
156.761 83.4216 108.534 207 221 255
197.039 108.187 115.618 222 230 255
168.634 131.853 106.687 210 223 255
82.7795 104.473 123.948 219 228 255
113.336 169.483 108.402 202 218 255
136.88 135.311 116.399 212 224 255
142.002 103.349 121.644 255 207 169
109.524 88.3545 114.464 239 240 255
120.794 13.0002 108.58 184 207 255
128.067 142.133 122.098 255 245 235
64.4756 94.3445 113.322 233 237 255
133.553 120.706 111.178 255 240 227
60.0246 114.163 117.822 192 212 255
52.5196 104.308 115.903 193 213 255
99.2582 137.495 108.244 231 235 255
120.396 134.221 105.047 215 226 255
104.147 9.02789 114.152 191 211 255
106.874 175.068 111.513 182 205 255
77.6891 18.4556 112.918 189 210 255
100.606 59.9834 104.742 200 217 255
84.484 105.317 123.459 207 221 255
99.9342 40.2367 111.117 184 207 255
95.2066 70.4901 109.29 255 246 237
106.524 183.289 110.89 198 216 255
172.092 130.571 114.104 200 217 255
96.189 121.786 110.048 224 231 255
51.3501 63.3105 112.753 254 248 255
131.627 144.719 121.163 201 218 255
103.601 95.5956 99.9278 255 239 226
157.2 164.838 114.866 241 241 255
51.2701 68.1313 119.532 209 222 255
166.44 145.204 106.766 236 238 255
43.7179 154.321 112.34 206 221 255
102.7 108.025 94.891 255 240 226
104.719 153.338 108.665 208 222 255
136.058 135.254 103.365 230 235 255
146.804 177.393 111.978 196 215 255
103.23 135.516 125.456 255 245 235
96.8634 95.2186 112.51 255 220 192
119.252 113.583 120.935 255 240 226
142.033 133.922 117.484 255 226 203
132.45 177.39 110.815 202 218 255
102.065 54.2057 106.07 199 216 255
105.753 162.95 109.501 255 240 226
155.614 114.611 115.282 220 229 255
129.934 154.302 106.362 255 250 255
199.002 83.0622 113.747 207 221 255
128.479 70.6258 111.445 202 218 255
103.647 119.259 96.0836 218 228 255
58.9373 49.1889 113.969 187 209 255
100.243 156.988 114.126 209 222 255
159.472 62.2792 115.26 223 231 255
167.426 62.8941 112.707 194 213 255
191.944 132.131 111.539 255 253 249
19.974 51.8379 112.586 188 210 255
106.965 100.553 95.745 255 219 190
141.844 119.411 115.292 255 239 225
204.568 144.913 112.028 188 209 255
130.342 116.178 100.063 215 226 255
57.3716 130.372 109.603 204 219 255
45.7691 102.588 111.407 194 213 255
86.698 76.2335 121.42 204 219 255
76.4871 186.068 109.713 202 218 255
93.2505 174.928 110.949 199 216 255
106.287 125.18 103.155 214 225 255
160.655 139.75 106.637 255 215 183
80.1079 212.761 111.427 192 212 255
156.197 139.128 110.727 239 240 255
51.0506 101.777 114.353 205 220 255
178.331 115.233 111.014 255 239 226
57.32 160.319 115.044 203 219 255
96.8565 73.8137 119.39 255 236 220
146.14 179.618 110.359 201 217 255
95.1912 42.0721 112.167 211 224 255
139.723 146.226 106.069 228 234 255
84.5985 162.385 111.159 210 223 255
84.8472 25.7834 112.426 200 217 255
217.351 84.1568 110.075 187 209 255
100.011 129.041 103.589 255 251 245
46.6076 57.9672 116.185 181 205 255
120.695 81.1458 117.037 240 240 255
73.3109 142.534 115.5 201 218 255
140.079 116.834 103.878 255 195 146
108.597 195.079 111.297 189 210 255
61.8305 88.8691 118.304 229 234 255
133.284 153.902 109.577 217 227 255
156.684 105.154 115.188 255 226 203
113.027 27.8193 111.313 198 215 255
90.6995 116.757 101.392 255 218 188
149.812 72.6867 111.577 199 216 255
103.428 40.4734 109.885 255 251 246
95.0976 18.6189 112.119 188 209 255
97.2392 160.416 112.16 212 224 255
93.6159 174.844 110.695 231 235 255
46.5045 46.387 116.078 196 214 255
115.87 93.8566 118.262 248 245 255
200.964 134.479 110.647 204 219 255
55.0529 61.5297 109.021 204 220 255
75.3713 180.901 110.541 185 208 255
105.332 161.069 108.587 203 219 255
112.028 110.804 125.248 224 231 255
100.016 114.092 114.412 255 242 230
122.262 109.094 112.141 224 231 255
94.0887 175.159 111.446 187 209 255
64.7965 145.192 114.615 255 230 210
132.24 103.876 124.041 244 243 255
86.1186 90.6563 107.748 245 243 255
117.362 154.551 111.612 255 252 248
28.2065 187.144 113.423 255 254 251
94.1651 39.7702 114.139 193 213 255
121.306 72.2928 113.294 208 222 255
41.5798 139.944 110.209 192 212 255
178.294 88.1022 115.942 212 224 255
85.3855 123.858 109.889 255 246 237
104.863 122.335 104.383 255 224 199
121.849 84.7336 102.325 220 229 255
165.996 188.156 111.167 189 210 255
197.527 52.8461 114.121 199 216 255
142.799 74.2988 109.614 215 226 255
129.285 141.009 103.302 191 211 255
93.1658 174.932 111.581 217 227 255
46.508 161.634 109.271 189 210 255
24.3676 60.3523 112.579 182 205 255
26.7336 84.9089 115.709 193 212 255
58.8852 177.404 111.574 189 210 255
65.6855 63.1287 115.377 255 248 241
130.71 137.46 118.381 255 237 222
110.693 95.4637 105.833 247 244 255
55.9112 200.897 112.205 185 208 255
104.326 81.6566 116.163 226 232 255
195.974 91.4134 116.853 255 247 239
127.657 107.188 102.767 255 246 237
134.548 170.139 106.066 235 238 255
126.62 77.3578 109.767 239 240 255
179.093 166.306 113.127 184 207 255
152.218 119.345 107.653 255 254 251
149.624 101.931 102.585 255 251 245
147.484 126.505 120.954 231 235 255
131.653 132.286 111.763 205 220 255
155.294 130.788 114.389 203 218 255
72.7645 122.909 107.117 212 224 255
195.906 89.3071 110.299 197 215 255
169.176 161.85 112.822 184 207 255
80.5223 142.968 114.601 192 212 255
43.2093 29.9304 111.257 181 205 255
184.286 75.7621 117.008 191 211 255
109.277 207.04 110.096 213 224 255
147.555 112.28 111.023 242 242 255
163.423 122.903 109.491 230 235 255
76.6727 80.5916 115.087 208 222 255
110.48 72.2449 111.351 183 206 255
35.6486 71.6633 114.769 190 210 255
150.942 129.548 118.482 255 243 231
158.049 90.0025 112.234 234 237 255
93.5777 175.165 111.123 207 221 255
145.827 102.458 109.509 189 210 255
153.64 70.9793 106.916 195 214 255
93.2399 98.8534 104.991 255 254 250
63.3583 114.657 115.381 194 213 255
125.762 109.689 117.239 255 249 255
129.768 81.8135 109.31 255 212 177
181.838 55.084 112.049 207 221 255
93.9396 175.149 111.218 206 220 255
46.7565 41.4876 112.41 179 203 255
71.8963 213.985 107.775 182 206 255
112.786 119.854 108.41 255 220 192
44.1869 84.1275 113.207 219 229 255
189.752 155.635 110.671 193 213 255
111.411 148.001 111.747 207 221 255
150.049 161.063 113.547 193 213 255
112.712 150.208 119.846 231 235 255
109.17 208.452 112.438 181 205 255
168.425 109.621 108.427 199 216 255
135.325 144.781 115.067 213 225 255
65.112 110.221 115.104 217 227 255
116.978 93.2151 116.689 255 205 164
94.0399 175.058 111.186 207 221 255
79.4404 146.532 108.973 191 211 255
172.064 93.8746 108.804 198 216 255
129.407 90.9371 120.058 255 246 237
155.963 90.7265 116.977 241 241 255
131.85 66.4639 113.585 236 238 255
72.0264 123.96 110.822 250 246 255
98.2814 66.4402 111.303 240 240 255
197.368 169.858 111.667 182 206 255
138.807 121.351 110.074 197 215 255
126.505 133.516 112.058 255 220 192
120.743 166.848 107.915 255 248 240
123.262 143.282 106.539 217 227 255
89.0834 186.364 111.365 194 213 255
68.677 138.233 112.999 198 216 255
139.942 144.479 104.428 203 219 255
180.213 177.943 114.819 182 205 255
115.105 110.197 92.1002 231 235 255
130.865 151.151 112.867 255 238 224
116.573 101.003 122.682 255 187 131
102.432 108.834 123.385 206 220 255
101.104 135.768 122.009 183 206 255
115.719 34.8345 114.409 218 228 255
93.7501 174.987 111.219 255 196 147
141.896 88.0441 113.228 255 235 218
147.561 202.694 98.9305 207 221 255
118.91 69.8449 119.178 255 253 248
171.695 103.888 109.94 255 241 229
105.192 52.7744 113.427 197 215 255
49.906 64.2452 110.673 194 213 255
86.1368 114.296 104.101 253 248 255
34.7304 98.412 108.993 192 212 255
121.486 48.8017 117.003 228 234 255
186.598 67.5799 114.068 198 215 255
137.703 75.1048 117.896 237 239 255
120.68 106.61 108.394 235 238 255
128.176 110.214 120.397 237 239 255
25.4564 71.5912 114.631 187 209 255
110.407 73.8071 106.602 199 216 255
99.0724 106.782 116.322 255 182 121
9.09503 147.394 113.688 191 211 255
78.0049 217.439 119.1 183 206 255
107.101 117.608 104.05 192 212 255
19.6929 92.9537 113.62 198 216 255
133.353 92.1915 105.208 201 218 255
133.195 184.527 115.22 195 213 255
68.5203 111.352 109.796 229 234 255
119.9 133.21 108.301 255 244 233
93.9067 175.133 111.237 199 216 255
45.263 100.706 112.371 253 247 255
106.829 64.735 107.826 242 241 255
162.315 99.7524 115.309 197 215 255
40.9287 147.22 111.19 192 212 255
123.478 96.8721 117.488 218 228 255
101.074 40.3678 111.339 208 222 255
61.9992 160.74 110.686 189 210 255
67.7607 46.5208 113.606 193 212 255
175.232 120.962 112.316 215 226 255
99.459 100.787 126.288 201 217 255
93.8008 117.206 113.574 232 236 255
99.2769 71.9482 117.91 224 231 255
124.357 134.114 105.293 197 215 255
94.1108 175.685 111.98 212 224 255
101.279 98.7655 99.7225 235 238 255
127.035 25.4309 114.852 191 211 255
132.572 65.6068 114.997 200 217 255
83.9774 123.825 116.457 244 243 255
111.048 91.2448 104.547 201 217 255
136.552 46.7075 109.727 205 220 255
108.216 104.618 120.328 255 223 198
164.335 182.108 112.879 195 214 255
101.042 152.265 117.856 212 224 255
146.745 119.016 105.846 196 214 255
166.811 154.189 113.41 230 235 255
138.419 200.026 110.66 182 206 255
93.8657 175.103 111.137 214 225 255
49.9175 77.5836 111.169 196 214 255
116.918 115.51 93.1325 255 216 186
120.401 108.068 117.409 255 223 198
91.8214 143.335 109.989 207 221 255
59.1094 66.1477 108.37 195 214 255
81.3602 100.446 111.548 219 228 255
72.247 111.787 107.197 242 241 255
170.428 174.618 113.466 189 210 255
27.2351 125.834 111.021 188 210 255
83.3999 40.0681 115.838 201 217 255
142.027 134.59 121.431 201 217 255
55.1145 125.6 113.598 205 220 255
165.582 44.2975 110.82 198 215 255
102.408 73.5254 109.316 198 216 255
70.9676 141.809 112.28 222 230 255
81.4077 78.9104 113.556 213 225 255
122.847 141.993 103.449 255 249 242
116.677 204.621 111.296 189 210 255
111.622 113.541 128.093 255 192 141
171.807 147.765 111.094 204 220 255
49.0295 108.838 111.634 196 214 255
195.493 59.0418 111.772 178 203 255
111.43 125.934 118.213 255 221 194
146.979 99.5912 115.113 211 223 255
174.3 202.486 112.73 185 207 255
128.674 78.4003 108.075 192 212 255
109.371 147.897 118.128 226 232 255
163.698 197.449 111.384 192 212 255
194.677 112.803 114.045 189 210 255
29.4338 151.068 109.315 194 213 255
22.5872 102.393 111.756 205 220 255
50.5415 122.079 107.66 193 213 255
77.0422 118.271 117.345 218 228 255
93.5276 175.568 111.106 219 228 255
180.297 44.1522 111.949 187 209 255
130.15 104.983 99.2057 255 210 175
150.411 151.839 114.175 215 226 255
132.071 158.53 112.688 195 214 255
77.2347 174.94 115.382 211 223 255
119.919 111.834 118.64 221 229 255
79.5505 34.8194 111.392 200 217 255
83.7805 88.6098 110.954 216 226 255
139.011 156.503 116.342 181 205 255
25.7191 117.398 114.325 194 213 255
98.2689 150.921 121.789 238 239 255
87.6859 60.4665 114.199 222 230 255
129.903 143.185 115.28 255 240 227
28.6156 186.943 112.141 193 213 255
113.956 13.9517 111.43 186 208 255
104.637 102.922 98.3501 218 228 255
93.8597 175.175 111.064 192 212 255
49.2747 56.8263 113.422 196 214 255
128.642 183.808 111.751 185 208 255
119.501 27.4651 111.93 184 207 255
77.8053 125.611 123.501 221 229 255
167.818 83.8825 112.292 186 208 255
101.776 101.294 118.862 255 250 255
110.789 120.1 99.2817 255 251 245
174.442 100.048 112.111 208 222 255
73.1777 58.9528 109.067 211 224 255
93.6644 174.849 110.896 198 215 255
137.107 216.793 112.726 177 202 255
59.017 105.102 104.443 200 217 255
187.236 154.388 114.82 184 207 255
100.779 83.6914 104.173 233 237 255
156.108 67.7164 106.613 209 222 255
98.721 139.673 108.354 242 242 255
87.4614 40.5142 111.073 199 216 255
144.106 109.078 103.662 206 221 255
7.21626 106.951 112.927 198 216 255
16.1328 83.0392 112.568 188 209 255
124.643 135.656 113.812 242 242 255
31.5064 113.855 111.955 194 213 255
102.09 165.099 113.043 255 194 144
177.052 120.968 111.6 208 222 255
126.391 159.626 116.923 223 230 255
106.239 72.7011 107.282 221 230 255
14.5376 95.5159 111.942 188 210 255
69.6702 153.861 113.403 244 242 255
54.4525 112.915 109.796 255 253 249
80.1565 84.0903 103.471 229 234 255
120.884 84.6986 104.84 215 226 255
163.679 84.9332 111.256 216 227 255
122.311 114.282 111.876 255 209 173
129.897 122.061 112.572 255 243 231
142.446 126.758 102.683 208 222 255
93.0737 87.5242 122 226 232 255
47.5858 95.8198 113.137 218 228 255
102.883 183.193 111.176 188 210 255
161.323 141.447 113.105 234 237 255
105.746 47.0629 115.546 192 212 255
148.108 76.3943 111.613 188 209 255
10.6558 145.347 112.374 197 215 255
111.042 96.2627 104.061 239 240 255
120.138 146.772 103.3 235 238 255
74.2807 147.468 109.507 252 247 255
46.2424 167.694 114.089 195 213 255
119.45 190.296 114.308 187 208 255
116.025 208.881 112.736 191 211 255
133.535 73.4863 110.498 212 224 255
56.8544 95.8928 107.559 255 251 255
99.0601 210.533 115.49 200 217 255
100.393 119.949 105.571 239 240 255
104.635 107.812 106.132 255 196 149
93.4266 144.078 111.705 255 249 255
151.361 166.702 117.01 194 213 255
115.224 115.839 100.167 255 201 158
99.0733 87.8742 123.248 208 222 255
184.572 65.3944 115.308 202 218 255
85.7837 94.7389 119.563 237 239 255
143.514 144.695 103.039 203 219 255
205.674 112.484 111.996 200 217 255
64.4612 141.659 116.782 221 230 255
88.725 74.4251 117.344 255 250 255
216.957 118.955 111.859 190 211 255
133.244 126.552 121.603 200 217 255
60.8504 151.837 112.535 193 213 255
85.8749 114.39 107.762 245 243 255
74.8936 211.661 105.003 184 207 255
58.042 94.7428 111.8 215 226 255
22.4531 87.145 115.014 210 223 255
124.653 99.6004 108.623 240 240 255
128.582 146.871 104.45 255 248 240
202.16 138.348 112.946 204 219 255
3.28075 122.239 111.669 179 204 255
25.5571 181.282 109.127 177 202 255
104.559 156.806 113.614 255 253 248
148.75 105.307 123.328 216 226 255
127.551 23.2149 110.669 179 204 255
121.615 154.992 104.542 255 230 210
115.92 102.717 119.796 255 239 226
120.635 93.3306 106.397 255 139 21
105.77 84.8229 119.519 255 207 168
69.3452 75.6843 110.517 230 235 255
93.2624 174.81 111.526 217 227 255
137.811 122.846 123.661 255 217 188
93.8362 175.108 111.18 203 219 255
96.4686 63.9269 114.654 207 221 255
206.332 108.793 112.727 183 206 255
184.551 45.4683 112.775 184 207 255
129.605 28.4844 111.338 189 210 255
74.6088 45.9989 110.989 202 218 255
135.153 129.982 101.261 255 230 209
75.5621 127.21 113.501 255 254 250
89.1451 183.337 112.654 241 241 255
52.083 74.8941 113.315 222 230 255
135.25 88.4671 107.23 255 244 234
77.2971 214.662 112.538 181 205 255
160.857 64.6289 114.248 214 225 255
188.644 122.69 112.272 192 212 255
37.9196 148.621 109.49 194 213 255
146.529 84.8662 107.579 196 214 255
9.77345 126.658 113.004 176 202 255
45.0477 64.9083 112.319 198 216 255
186.797 143.629 111.204 197 215 255
102.83 138.823 123.67 208 222 255
95.7301 164.243 112.665 212 224 255
146.633 113.464 108.264 239 240 255
26.015 70.3122 109.807 182 205 255
170.484 131.681 105.472 224 231 255
128.276 130.33 108.53 255 236 220
111.232 124.505 108.931 255 220 193
195.631 128.336 112.583 206 220 255
173.557 121.606 115.378 200 217 255
91.7502 119.112 104.921 236 238 255
30.5881 117.942 111.147 195 214 255
77.9941 81.8499 104.747 208 222 255
112.838 74.805 111.037 237 239 255
84.9027 114.42 120.006 250 246 255
141.384 64.1286 106.136 215 226 255
93.5237 66.8784 106.267 209 222 255
52.4981 138.799 115.143 229 234 255
88.1895 105.708 119.401 202 218 255
123.923 123.674 113.959 255 145 38
97.6911 142.618 121.233 198 216 255
65.3962 61.6461 114.343 199 216 255
133.034 195.798 116.053 184 207 255
145.021 124.062 107.841 255 237 221
84.3593 96.2987 112.013 203 218 255
169.653 162.529 112.257 188 209 255
172.714 168.622 113.075 177 202 255
174.051 121.215 117.223 255 216 185
77.2848 68.5574 119.389 198 215 255
60.6848 35.5724 110.496 194 213 255
70.5902 74.6752 107.276 218 227 255
151.692 181.936 110.995 199 216 255
132.436 80.6822 119.714 210 223 255
101.887 119.716 99.5975 255 206 167
103.805 147.175 115.197 242 241 255
161.006 111.484 110.814 206 221 255
78.1386 93.2049 116.273 255 164 83
88.5451 111.055 107.314 255 203 161
73.1312 57.8467 108.868 230 235 255
93.0357 61.6313 112.642 235 238 255
106.419 10.2377 114.088 191 211 255
19.4279 136.246 111.834 191 211 255
118.536 88.1086 102.98 255 251 246
120.246 173.655 113.102 196 214 255
175.812 185.184 113.678 194 213 255
172.623 153.414 111.313 201 217 255
48.2185 32.9031 109.987 188 209 255
124.519 115.172 103.859 255 221 193
104.841 121.167 113.652 255 174 104
150.08 145.153 105.088 255 226 202
98.0374 98.183 117.32 255 -2147483648 0
82.7496 29.9778 110.365 198 216 255
152.902 111.015 117.092 204 219 255
127.243 130.169 109.595 208 222 255
97.2985 174.944 110.622 187 209 255
211.976 85.8098 115.192 182 205 255
110.469 171.201 109.641 221 229 255
98.6897 119.953 97.6012 217 227 255
86.6259 146.729 113.891 212 224 255
79.7158 76.2662 109.733 198 215 255
76.6132 113.503 107.86 186 208 255
81.0592 158.582 116.66 237 238 255
113.122 86.5272 107.243 219 228 255
89.8383 197.939 111.082 195 214 255
76.0097 48.9016 109.023 255 246 237
122.598 109.99 116.367 245 243 255
100.469 65.748 107.224 255 253 248
37.3092 79.3236 116.233 212 224 255
202.458 55.5428 112.304 193 213 255
122.136 144.389 111.097 195 214 255
93.8789 175.119 111.183 186 208 255
73.3562 147.509 108.366 193 213 255
161.902 103.546 117.046 220 229 255
68.6521 79.2566 109.438 202 218 255
68.1683 115.317 113.461 212 224 255
135.744 131.222 122.683 255 245 236
93.8238 175.095 111.14 237 239 255
74.3506 159.321 107.284 229 234 255
123.541 135.838 100.565 240 241 255
58.7011 25.9774 114.111 185 207 255
83.0165 75.9223 111.523 213 225 255
175.559 56.4455 112.673 188 210 255
113.395 84.4424 108.455 255 231 211
108.624 186.367 111.315 230 234 255
63.121 135.359 111.725 255 240 226
73.9614 138.121 107.402 205 220 255
121.502 85.7674 119.462 230 234 255
210.704 67.2408 112.461 188 209 255
51.0929 114.879 111.922 188 209 255
25.3364 107.768 111.674 199 216 255
96.9321 32.6267 114.121 225 232 255
167.737 45.1238 114.389 193 213 255
184.161 87.4195 113.672 205 220 255
59.2239 184.533 109.638 193 212 255
151.858 168.664 110.506 201 217 255
176.052 115.696 112.403 242 241 255
86.1358 172.186 112.556 226 232 255
82.0326 81.9931 120.441 195 214 255
77.6223 134.41 117.469 255 252 248
88.1841 142.122 113.384 216 227 255
48.5301 156.948 112.459 199 216 255
21.1882 59.5467 114.738 180 204 255
129.722 100.549 122.903 211 224 255
153.708 18.4536 110.711 191 211 255
93.9434 175.057 111.16 184 207 255
116.659 125.04 97.9361 255 232 214
124.182 165.044 116.616 255 227 205
169.29 65.3398 114.579 204 219 255
85.3793 188.17 112.157 193 213 255
127.348 42.8707 115.58 213 225 255
137.742 121.909 114.508 255 209 172
119.259 120.834 128.731 254 248 255
52.4195 61.1048 112.557 198 216 255
111.837 146.103 119.93 255 175 107
161.408 133.888 119.541 255 243 232
206.132 102.315 112.75 195 214 255
202.155 94.1699 110.987 203 218 255
119.926 116.171 98.9411 213 225 255
70.9239 98.4176 104.18 196 215 255
119.066 13.3833 112.649 204 219 255
94.3178 174.982 111.919 191 211 255
98.4352 93.522 119.67 255 238 223
84.4816 128.459 122.693 186 208 255
92.9823 11.3637 116.631 218 228 255
125.386 73.3821 103.807 255 236 219
144.357 117.949 115.759 229 234 255
123.204 149.954 110.425 250 246 255
157.209 90.1812 107.431 231 235 255
140.705 160.219 112.266 212 224 255
159.65 100.891 104.401 199 216 255
116.281 103.542 104.21 246 244 255
98.3667 113.11 122.405 227 233 255
72.0013 150.802 112.915 255 238 224
156.746 117.812 114.462 191 211 255
129.343 139.28 106.086 243 242 255
111.104 155.847 114.982 199 216 255
126.293 141.735 112.049 255 254 250
66.0179 139.456 112.38 200 217 255
94.2406 175.666 110.708 186 208 255
168.844 99.5705 112.301 203 219 255
174.332 131.394 114.928 201 218 255
67.4726 70.1244 115.322 208 222 255
171.77 114.278 111.457 210 223 255
93.9075 175.14 111.242 191 211 255
159.946 132.942 115.079 199 216 255
84.22 84.7891 111.402 255 191 139
80.0936 151.795 113.549 199 216 255
86.4411 212.409 112.561 193 212 255
142.959 49.4566 110.118 201 218 255
168.899 50.8881 116.855 201 217 255
111.271 118.898 107.69 255 241 229
84.3227 76.1771 104.955 201 217 255
171.615 42.6051 110.299 205 220 255
125.328 69.6997 105.257 215 226 255
123.157 112.629 116.671 255 211 176
123.053 121.873 104.885 204 220 255
143.959 77.809 111.397 207 221 255
66.5149 137.74 109.168 215 226 255
77.9131 149.051 114.491 255 244 233
160.283 189.517 112.696 187 209 255
131.321 199.863 110.468 186 208 255
121.313 109.765 120.063 255 142 29
33.8347 58.7867 116.187 193 212 255
127.108 75.6427 114.107 210 223 255
133.198 104.92 107.421 217 227 255
93.9263 175.162 111.272 212 224 255
161.037 123.786 106.459 179 204 255
140.162 72.5138 120.432 255 242 230
134.633 75.5493 114.603 208 222 255
128.126 108.346 98.2173 209 222 255
150.03 84.3841 110.525 255 238 224
146.213 40.1366 115.752 186 208 255
156.363 77.9598 116.483 211 223 255
58.6165 61.2374 113.671 182 205 255
124.093 51.809 112.489 255 243 232
95.7746 131.657 119.394 212 224 255
118.316 181.78 111.57 183 206 255
109.976 91.498 113.685 255 251 255
122.692 112.709 111.372 255 232 214
119.485 77.9133 118.88 255 226 204
107.152 102.403 128.998 212 224 255
142.976 74.6995 118.504 255 234 216
83.6726 101.257 115.864 243 242 255
90.4226 191.268 112.515 183 206 255
111.338 188.763 114.264 219 228 255
95.2582 113.33 99.0827 255 204 163
157.719 88.6241 115.008 208 222 255
127.855 127.672 111.151 255 217 187
133.865 64.9444 116.242 200 217 255
110.157 129.74 114.855 255 225 201
212.231 148.066 111.322 185 207 255
105.439 121.673 119.226 255 199 153
95.469 108.064 116.613 239 240 255
119.352 145.983 122.624 207 221 255
165.033 34.2475 110.739 244 243 255
113.834 113.173 122.092 255 222 197
170.169 111.11 109.893 194 213 255
138.797 145.34 112.32 255 179 114
71.7908 111.379 122.048 255 219 190
55.9097 60.5418 110.362 181 205 255
49.9348 137.56 113.233 198 216 255
131.139 194.101 111.485 206 221 255
143.826 192.762 110.683 199 216 255
75.4331 169.394 114.672 195 214 255
72.4474 143.754 106.336 195 214 255
107.053 100.212 110.752 213 225 255
165.385 130.185 107.064 255 243 233
193.665 142.047 111.988 182 206 255
149.265 86.3691 114.048 225 232 255
212.745 76.4763 111.73 180 204 255
157.47 88.3915 113.594 255 251 246
153.072 10.9206 113.248 192 212 255
129.084 99.4065 101.366 200 217 255
118.565 93.8156 118.213 207 221 255
153.332 72.5815 109.732 214 225 255
47.1821 26.3539 113.214 182 205 255
139.598 144.569 113.733 241 241 255
101.243 111.612 116.278 255 201 157
176.284 46.6403 114.452 199 216 255
150.715 77.2307 109.617 222 230 255
171.44 131.618 110.351 217 227 255
71.5972 168.735 115.495 237 239 255
110.514 209.214 106.903 185 208 255
119.715 113.819 122.108 255 219 190
96.8913 65.0998 118.475 210 223 255
138.533 123.993 102.226 201 217 255
71.7579 130.854 107.486 213 225 255
56.5065 119.975 110.986 204 219 255
117.896 82.8158 121.46 238 239 255
91.7299 110.502 110.622 255 252 246
129.437 185.27 113.09 209 222 255
98.5119 161.555 111.968 202 218 255
197.202 138.506 110.963 191 211 255
210.334 134.703 110.629 191 211 255
144.311 66.5093 120.934 239 240 255
131.65 47.8899 113.311 183 206 255
116.452 121.952 97.0272 213 225 255
58.2154 161.997 116.391 193 212 255
150.805 120.583 116.405 255 250 244
184.613 148.325 110.596 230 235 255
109.649 96.0385 120.83 213 225 255
84.5434 205.441 113.996 186 208 255
120.806 87.9315 106.648 200 217 255
195.748 120.002 110.393 213 225 255
137.786 105.331 116.665 255 208 170
93.9509 175.128 111.27 228 234 255
153.28 129.603 106.681 203 219 255
163.805 91.4085 116.446 191 211 255
176.737 134.225 105.249 194 213 255
182.16 186.123 110.709 189 210 255
60.3001 89.7342 116.018 203 219 255
100.787 90.8984 104.188 255 224 199
105.615 117.654 106.269 255 186 128
89.7376 176.727 112.239 197 215 255
115.374 102.037 122.923 255 250 244
120.498 17.7625 114.181 203 219 255
81.7191 179.339 109.792 191 211 255
35.1685 111.525 112.237 199 216 255
161.373 77.6038 116.292 196 215 255
93.8777 175.106 111.239 202 218 255
143.003 83.2482 108.51 255 218 189
63.9878 28.0507 114.178 199 216 255
53.4276 45.0601 109.858 192 212 255
151.487 206.048 114.978 180 204 255
122.451 160.902 113.391 209 222 255
115.522 151.99 122.152 225 232 255
122.657 190.41 111.756 206 221 255
113.969 74.9629 113.717 255 221 195
95.7099 100.707 117.287 255 244 233
36.3603 54.5332 112.768 185 207 255
142.178 121.933 111.104 218 228 255
163.405 159.701 111.885 255 247 239
118.875 133.697 115.041 255 252 248
51.7838 76.3864 109.691 233 236 255
2.45037 100.995 111.998 179 204 255
149.246 172.511 111.632 194 213 255
123.015 22.1907 110.903 177 202 255
67.1673 141.58 111.269 255 250 255
138.416 137.758 110.008 243 242 255
134.202 86.9717 114.548 214 226 255
121.053 119.265 105.999 255 225 201
129.844 168.365 111.23 202 218 255
215.485 151.481 114.236 204 219 255
90.178 217.208 110.302 191 212 255
171.288 107.056 110.148 236 238 255
29.6572 168.682 112.729 179 204 255
98.5024 60.9543 113.407 191 211 255
185.921 31.4228 110.789 189 210 255
91.2028 59.6934 116.845 223 231 255
117.063 105.355 104.29 255 223 198
43.6447 145.356 110.791 200 217 255
113.065 105.487 103.275 201 218 255
96.2556 151.443 116.989 255 218 189
76.2588 133.552 115.591 202 218 255
173.109 166.449 113.052 192 212 255
176.545 41.7911 111.262 190 211 255
83.3472 137.239 119.888 236 238 255
118.413 30.7852 112.704 194 213 255
61.0827 210.712 111.905 188 209 255
177.244 55.2737 115.031 186 208 255
93.5601 175.482 111.324 214 226 255
83.1779 31.0584 111.949 187 209 255
142.935 152.96 119.531 198 215 255
126.055 122.524 118.058 221 230 255
162.829 206.541 113.533 193 212 255
179.234 164.828 115.208 202 218 255
71.7334 101.992 109.407 224 232 255
143.81 29.0489 110.855 255 255 252
169.425 107.62 116.516 202 218 255
142.46 79.8361 114.236 228 233 255
107.24 105.52 105.587 213 225 255
84.7153 101.977 112.274 209 222 255
92.6862 113.937 125.035 225 232 255
99.2683 113.402 115.813 255 187 130
216.554 86.6465 112.449 185 208 255
142.786 41.1034 109.074 184 207 255
168.828 105.348 107.229 206 220 255
100.713 130.202 114.71 246 244 255
87.9921 75.2613 107.561 219 228 255
136.171 73.771 112.904 255 239 225
79.0976 117.582 110.149 226 232 255
116.894 112.174 97.5426 255 231 212
131.057 118.958 120.457 232 236 255
56.6213 111.31 108.458 255 225 201
131.722 36.4658 111.874 225 232 255
116.572 60.1902 110.749 255 253 248
156.291 167.2 113.067 232 236 255
80.7005 54.2873 109.251 202 218 255
180.656 36.979 109.594 186 208 255
113.523 52.3197 108.444 255 205 164
126.388 177.487 110.151 202 218 255
151.36 41.9762 113.77 206 220 255
119.606 185.022 108.995 255 251 255
69.2204 90.8621 116.669 208 222 255
75.1596 62.6062 110.514 255 250 243
76.4169 59.8007 110.104 216 227 255
129.938 111.236 111.005 255 201 158
93.9217 175.173 111.301 194 213 255
93.808 175.054 111.278 212 224 255
223.129 120.32 110.321 188 209 255
34.9528 98.4453 112.741 194 213 255
152.437 62.5543 116.094 255 229 207
102.975 70.1417 111.554 255 252 247
68.7755 169.684 114.402 219 228 255
208.016 62.6158 109.795 195 214 255
111.434 72.7587 112.619 226 233 255
101.801 110.203 96.3222 210 223 255
171.241 101.652 110.881 195 214 255
107.322 27.1921 115.019 193 213 255
69.8291 65.5237 112.89 193 213 255
215.495 109.73 114.435 200 217 255
46.9302 54.2428 112.034 192 212 255
155.848 128.066 120.016 208 222 255
153.845 19.5897 112.259 191 211 255
168.038 98.3277 112.536 226 233 255
177.033 81.504 115.121 196 214 255
122.204 139.301 116.392 211 224 255
198.204 76.5626 113.352 214 225 255
184.74 194.26 110.913 193 213 255
112.179 102.967 103.399 255 212 179
64.9831 97.5263 115.63 195 214 255
148.122 141.884 104.865 211 223 255
77.3372 189.432 113.306 207 221 255
118.599 111.847 101.769 244 243 255
63.7842 65.4456 111.559 186 208 255
55.9349 27.1498 112.758 196 214 255
141.453 142.697 111.593 207 221 255
91.6895 121.242 99.4991 255 231 211
91.0305 104.957 111.278 234 237 255
113.279 47.2676 116.819 190 211 255
94.6298 168.523 113.486 215 226 255
155.439 113.808 119.37 255 166 87
94.5628 117.862 122.881 238 239 255
111.694 119.561 128.136 253 248 255
90.8923 105.914 110.657 233 237 255
117.152 127.617 123.289 215 226 255
157.228 139.436 117.906 217 227 255
102.942 101.047 125.6 255 243 232
83.6448 62.3644 108.67 202 218 255
200.87 98.9505 112.521 202 218 255
150.914 100.304 114.263 255 193 142
94.644 50.4746 108.334 223 231 255
126.441 135.43 108.447 255 237 221
186.875 145.645 113.453 190 211 255
98.92 84.2633 110.945 255 242 231
22.4622 134.499 112.7 189 210 255
147.416 110.493 110.266 255 254 249
118.486 136.079 119.883 255 231 212
145.691 83.0431 110.386 255 226 203
67.3612 159.647 113.533 207 221 255
91.8816 155.566 113.862 218 228 255
144.716 84.5372 107.262 205 220 255
173.019 135.349 112.682 198 216 255
80.2431 114.672 110.811 203 218 255
32.6743 37.7182 113.448 187 208 255
134.212 73.229 118.669 204 220 255
94.3252 106.1 118.212 255 229 208
129.692 72.7668 112.299 208 222 255
156.038 160.171 108.955 200 217 255
172.112 81.4252 109.794 226 232 255
107.912 172.696 114.685 242 242 255
132.696 178.87 108.979 197 215 255
39.8255 106.502 113.072 228 233 255
221.634 109.182 113.005 199 216 255
131.712 126.361 104.458 255 176 108
85.5752 76.4004 118.705 212 224 255
131.786 215.961 111.607 187 209 255
110.205 77.1707 110.829 193 212 255
158.704 152.226 117.581 191 211 255
109.518 110.065 97.97 255 250 243
175.685 79.8657 112.308 191 211 255
106.857 169.129 113.004 207 221 255
144.301 152.956 109.859 221 229 255
125.22 205.231 106.434 204 219 255
97.7113 145.888 117.282 237 239 255
57.6407 100.16 105.844 193 213 255
70.0397 101.27 114.468 199 216 255
69.3976 106.321 113.061 199 216 255
152.463 89.8865 105.116 219 228 255
133.693 173.952 113.359 212 224 255
43.3653 89.0188 111.911 190 211 255
165.242 13.6024 113.342 189 210 255
136.513 132.4 123.163 207 221 255
132.227 141.288 111.557 226 233 255
93.9985 175.138 111.268 236 238 255
174.447 129.228 113.928 211 223 255
109.11 125.194 113.679 255 177 110
211.165 70.9998 112.246 193 213 255
89.5508 99.3923 101.907 255 239 226
89.0127 97.9765 102.893 205 220 255
121.923 120.462 125.746 255 246 237
171.763 48.2558 111.781 200 217 255
131.814 208.091 111.415 185 207 255
176.892 119.313 112.846 190 211 255
84.157 87.0856 106.604 255 252 248
50.0044 120.48 113.013 255 252 248
55.7525 116.459 112.235 202 218 255
165.006 154.989 115.516 214 225 255
84.265 198.098 113.298 189 210 255
115.099 70.1011 120.505 255 250 243
37.0685 70.7989 111.282 216 227 255
46.1511 148.995 108.307 212 224 255
80.2164 146.895 120.885 242 242 255
113.749 71.1522 112.687 208 222 255
152.213 116.266 105.844 255 225 200
122.276 161.755 114.35 255 251 245
125.571 198.16 119.302 209 222 255
62.1087 83.0179 107.175 241 241 255
117.871 123.308 120.447 210 223 255
128.996 84.2089 105.37 247 245 255
118.776 130.53 100.507 236 238 255
50.9397 120.568 112.108 216 226 255
155.214 85.6475 107.836 255 192 141
157.369 167.086 114.842 189 210 255
119.786 115.763 103.1 255 234 216
44.5589 159.555 112.738 184 207 255
128.658 213.079 115.028 180 204 255
177.556 191.857 112.001 181 205 255
150.7 91.4218 114.461 195 214 255
80.3372 24.2627 111.107 175 201 255
131.368 82.9682 122.186 199 216 255
95.6805 69.9963 120.049 197 215 255
101.242 165.522 114.787 224 231 255
121.591 164.807 109.447 205 220 255
164.97 124.942 119.855 250 246 255
97.8708 9.17632 111.913 213 225 255
136.643 198.429 110.066 188 209 255
64.5033 86.636 116.192 227 233 255
113.677 31.9114 114.856 213 225 255
165.932 85.2292 111.652 195 214 255
168.735 138.546 108.904 197 215 255
115.508 172.469 108.031 200 217 255
39.2854 161.915 112.844 240 240 255
178.529 73.1464 110.046 198 216 255
186.276 147.198 113.202 185 208 255
61.5749 132.607 114.645 200 217 255
129.971 183.889 111.153 202 218 255
94.7423 140.058 115.137 215 226 255
174.537 122.701 111.688 181 205 255
88.2816 122.544 109.557 255 253 249
1.69031 119.367 111.626 178 203 255
118.875 108.114 125.699 230 235 255
87.3846 26.2758 110.032 215 226 255
109.922 117.725 102.817 255 186 128
138.882 148.64 106.441 191 211 255
138.347 75.5238 119.139 255 231 211
106.526 45.3413 108.632 227 233 255
147.175 93.1523 117.474 255 242 231
217.929 96.7957 112.049 203 219 255
120.354 70.7822 116.911 227 233 255
173.193 101.247 109.537 200 217 255
95.6417 159.49 112.696 220 229 255
97.4086 164.309 116.042 255 223 198
152.991 55.4891 116.646 216 226 255
80.9865 179.018 112.234 194 213 255
187.283 68.0169 112.141 197 215 255
148.277 72.0593 110.247 217 227 255
134.864 99.0184 117.661 255 217 188
54.1992 93.5989 116.386 198 215 255
41.6487 151.956 112.763 255 254 250
155.741 21.5027 112.096 187 209 255
175.688 83.7324 109.42 196 214 255
170.566 153.378 112.238 183 206 255
86.7579 110.123 118.506 255 251 255
100.589 111.015 105.061 255 227 204
76.5313 74.6126 117.208 222 230 255
196.335 116.92 114.193 186 208 255
141.856 98.6562 123.942 255 175 106
85.0088 162.87 112.394 200 217 255
122.299 68.1739 108.017 186 208 255
51.3698 172.451 112.207 207 221 255
75.17 134.691 108.211 196 214 255
118.736 57.8288 116.672 213 225 255
166.002 117.462 113.243 217 227 255
75.0473 120.675 106.545 213 225 255
90.4654 94.2249 112.24 255 232 214
107.648 159.3 105.989 255 235 218
171.947 86.479 111.959 184 207 255
100.558 95.5997 108.717 255 206 167
136.568 191.464 113.097 232 236 255
118.294 90.101 116.391 206 220 255
30.9702 96.472 110.221 187 209 255
52.4366 166.976 115.979 200 217 255
47.4429 65.7502 115.619 199 216 255
120.931 155.269 112.174 244 243 255
5.59114 140.513 115.41 192 212 255
132.08 139.618 107.269 255 221 193
112.463 182.006 111.91 207 221 255
57.6518 170.886 111.462 188 209 255
26.3187 171.364 113.973 194 213 255
158.742 136.181 108.712 255 244 233
59.6689 165.324 111.75 199 216 255
142.439 153.97 109.451 226 233 255
99.218 59.1383 117.045 201 217 255
121.476 112.277 116.02 209 222 255
114.066 61.3509 111.529 196 214 255
143.662 112.559 104.393 223 231 255
116.919 121.844 101.262 220 229 255
113.429 105.803 101.664 208 222 255
58.5943 63.3413 117.834 195 214 255
184.547 85.8776 117.183 206 221 255
205.656 74.4449 110.884 184 207 255
153.253 112.031 110.563 208 222 255
82.165 105.515 115.108 207 221 255
125.079 112.726 108.199 220 229 255
115.597 121.404 96.3968 255 208 171
32.0324 82.1738 116.683 186 208 255
131.507 116.312 118.75 255 191 138
172.873 94.0537 117.265 209 222 255
158.422 80.0703 109.212 210 223 255
118.881 126.184 109.805 213 225 255
144.918 76.774 114.086 222 230 255
101.362 82.6747 102.939 202 218 255
162.77 140.622 111.331 229 234 255
147.237 128.236 104.482 200 217 255
100.624 143.893 122.751 255 245 235
79.0774 166.079 115.482 233 237 255
91.6762 114.208 123.908 255 250 244
103.456 127.423 108.866 194 213 255
66.8891 127.17 107.506 255 218 189
99.9353 120.673 126.891 234 237 255
192.117 81.6375 113.891 204 219 255
78.9816 146.409 118.674 204 219 255
111.942 134.369 124.883 222 230 255
112.324 118.417 123.871 255 247 239
102.449 109.044 118.026 226 233 255
125.442 103.708 118.458 215 226 255
177.121 130.404 111.772 184 207 255
70.3149 140.14 111.317 254 248 255
101.087 106.375 115.838 229 234 255
110.864 168.723 115.163 203 218 255
151.67 71.872 109.51 255 255 252
120.015 64.828 109.504 223 230 255
147.45 92.335 110.719 221 229 255
196.042 55.1757 114.807 195 214 255
94.0872 175.104 111.174 206 220 255
153.024 159.954 111.583 223 231 255
139.121 143.828 102.911 203 219 255
152.179 161.674 117.317 195 214 255
163.262 91.6176 113.883 209 222 255
44.2894 102.626 110.091 200 217 255
113.938 20.8726 114.538 205 220 255
126.149 75.2244 109.227 193 213 255
136.565 67.7542 115.782 206 220 255
63.7262 46.3126 111.419 197 215 255
49.5711 80.7667 113.16 206 221 255
152.839 91.1253 104.691 255 227 204
158.783 182.708 112.454 193 213 255
57.2305 21.4345 112.444 196 214 255
155.871 105.857 114.336 181 205 255
80.6481 84.8051 118.81 204 219 255
19.737 124.82 113.531 202 218 255
74.7249 206.824 114.391 174 201 255
99.5502 95.9902 107.66 255 220 192
209.952 122.826 113.103 209 223 255
96.9191 150.992 112.575 208 222 255
68.5839 123.271 120.805 251 247 255
138.862 139.644 104.336 212 224 255
39.4173 117.708 108.01 202 218 255
58.3658 129.284 112.823 199 216 255
120.465 64.3601 109.931 222 230 255
94.7566 105.601 120.128 204 219 255
139.841 113.505 109.259 255 243 232
51.5653 139.705 117.954 211 224 255
218.523 91.2401 113.924 186 208 255
152.377 147.626 105.483 202 218 255
93.7178 174.989 111.409 192 212 255
88.5275 28.5533 108.147 186 208 255
95.0095 106.459 115.495 215 226 255
93.8074 175.245 111.356 199 216 255
27.3129 111.517 108.946 193 213 255
108.999 89.9609 119.488 255 105 0
65.6284 82.7469 120.245 217 227 255
175.248 154.789 121.04 197 215 255
114.92 163.973 114.568 255 219 191
178.553 69.9683 110.793 177 203 255
117.568 108.117 94.119 213 225 255
93.9071 175.54 111.091 221 229 255
135.811 102.671 126.342 255 254 250
180.691 150.454 114.955 219 228 255
103.917 157.052 111.986 255 227 205
92.9796 164.026 113.974 194 213 255
111.59 137.09 118.778 208 222 255
116.192 51.2826 107.147 202 218 255
72.9598 168.303 109.736 189 210 255
212.709 152.226 112.203 183 206 255
144.109 121.287 123.348 255 244 234
96.7781 89.4432 114.339 226 232 255
148.378 135.502 115.074 203 218 255
101.711 112.904 109.366 255 220 192
34.6609 143.257 113.209 202 218 255
112.858 103.1 106.992 255 153 57
124.258 69.5237 106.965 201 217 255
104.212 160.017 107.643 214 225 255
172.44 101.045 111.882 205 220 255
141.842 87.2814 121.112 207 221 255
87.9585 24.7566 109.733 255 250 244
94.1464 175.83 112.067 228 233 255
191.35 189.041 111.504 192 212 255
175.726 134.814 112.174 222 230 255
101.759 113.082 107.385 215 226 255
124.91 155.802 117.215 255 246 236
129.683 112.376 103.952 255 246 237
77.2036 75.0847 119.083 255 248 240
133.386 53.8959 108.718 191 211 255
84.7653 207.568 112.896 194 213 255
94.0903 22.6567 111.501 198 216 255
84.4116 123.623 101.486 255 230 210
84.4779 144.607 108.651 207 221 255
161.503 93.2659 107.067 210 223 255
112.523 137.726 121.996 255 254 251
97.7824 52.0948 112.226 209 222 255
140.065 127.921 116.005 255 125 0
181.854 76.1402 115.471 203 219 255
66.6872 19.7138 113.169 191 211 255
140.364 122.348 106.651 255 223 198
160.514 128.836 116.253 255 233 214
48.9309 76.5116 110.05 194 213 255
129.416 119.767 108.707 255 247 239
15.7017 101.782 111.937 190 210 255
143.729 92.3255 110.64 239 240 255
78.9917 106.525 103.748 255 223 197
76.0784 154.034 117.796 211 223 255
96.9039 97.0819 99.6615 210 223 255
104.393 91.6662 112.76 209 222 255
49.6019 74.4021 111.893 197 215 255
152.433 160.856 117.297 223 231 255
31.1685 96.208 110.765 198 216 255
93.4353 140.17 120.131 232 236 255
58.6277 86.5481 109.505 202 218 255
67.6257 157.031 114.611 191 211 255
102.529 83.1019 104.783 246 244 255
175.63 127.848 110.366 203 219 255
90.8279 34.3753 109.307 208 221 255
56.1294 88.5918 117.293 225 232 255
44.7262 96.024 112.393 202 218 255
69.0895 137.816 109.492 221 230 255
152.513 110.976 107.42 228 234 255
191.013 136.955 111.156 188 209 255
143.123 99.7378 120.071 255 232 214
140.031 73.9113 113.602 240 240 255
156.479 133.073 112.455 216 226 255
197.315 165.544 112.228 203 219 255
80.087 110.774 105.808 201 217 255
86.1294 163.058 110.269 223 231 255
116.586 151.233 113.141 219 228 255
94.0061 175.247 111.276 224 231 255
136.666 10.3362 112.482 188 209 255
133.43 200.68 114.496 184 207 255
142.161 140.43 120.897 217 227 255
92.3742 120.301 122.556 210 223 255
138.509 99.7999 109.688 255 252 247
82.6573 113.113 100.098 255 56 0
117.359 198.375 109.798 186 208 255
146.322 95.8843 109.731 201 217 255
123.11 109.323 119.118 255 194 145
115.529 145.057 118.709 255 242 229
119.952 126.264 110.068 255 242 230
107.773 34.9895 111.053 200 217 255
25.3338 96.9814 111.358 194 213 255
81.7917 103.785 112.974 255 241 229
97.9655 155.126 111.731 186 208 255
77.8502 178.118 109.553 216 227 255
193.811 64.6585 113.702 220 229 255
101.677 128.335 103.117 255 249 255
119.102 104.204 126.552 238 239 255
95.9404 166.363 115.595 200 217 255
91.0925 101.482 114.831 255 214 182
165.016 96.1621 112.109 205 220 255
23.9047 96.9339 112.671 177 202 255
104.827 210.436 109.772 188 209 255
130.661 91.2906 119.436 255 252 246
52.7612 75.0924 113.544 205 220 255
178.711 71.4666 107.704 188 209 255
94.1442 206.956 112.295 212 224 255
66.3834 134.3 111.469 194 213 255
107.932 154.243 111.789 255 192 140
94.7003 127.953 108.013 255 247 239
113.972 136.193 104.757 255 254 250
113.294 206.528 111.77 207 221 255
30.5061 139.977 112.131 186 208 255
105.995 124.611 112.543 255 245 236
56.568 79.5551 113.859 195 214 255
213.699 113.227 109.056 207 221 255
63.7789 106.085 107.041 255 238 223
170.637 27.048 111.721 183 206 255
38.298 102.736 112.751 190 211 255
110.393 137.392 122.346 207 221 255
143.504 89.0416 114.625 213 224 255
206.431 100.332 114.38 194 213 255
201.241 60.906 114.15 188 209 255
52.9819 152.316 115.645 220 229 255
111.809 107.534 94.9016 255 255 251
117.137 69.7446 119.019 202 218 255
85.7567 43.9726 113.051 191 211 255
96.8983 120.42 121.531 208 222 255
103.573 156.676 105.863 255 229 208
78.6289 123.971 123.55 255 254 250
157.536 131.102 120.199 193 212 255
83.5898 80.4644 120.043 235 238 255
105.795 76.6773 109.221 255 246 237
13.853 91.1718 111.75 190 211 255
114.072 66.6434 105.807 255 254 250
165.216 164.196 109.949 199 216 255
182.235 39.8714 112.466 192 212 255
116.312 111.263 120.858 211 224 255
100.642 110.291 102.664 194 213 255
112.806 208.335 109.736 199 216 255
80.3559 216.096 110.259 191 211 255
164.014 94.7986 115.792 255 234 216
76.9967 147.887 112.874 204 219 255
94.4466 174.988 111.368 215 226 255
160.757 112.99 120.638 200 217 255
165.392 57.4195 107.49 214 225 255
126.627 118.213 116.734 255 243 233
18.2095 60.6926 109.83 182 206 255
126.003 73.721 112.549 255 236 221
