ply
format ascii 1.0
element vertex 1341
property float x
property float y
property float z
property uchar red
property uchar green
property uchar blue
end_header
93.4691 173.355 111.298 231 235 255
93.4828 173.338 111.318 199 216 255
178.171 106.53 83.1097 217 227 255
128.258 151.201 117.018 182 205 255
58.5602 46.7164 120.598 207 221 255
99.2725 113.633 139.762 255 247 239
114.533 190.774 109.21 211 224 255
82.2064 151.788 112.479 208 222 255
34.4139 89.4807 104.644 207 221 255
93.7987 173.078 111.575 228 234 255
148.731 151.993 112.093 211 224 255
5.97002 128.901 115.629 238 239 255
82.4856 59.564 11.6759 254 248 255
57.6046 141.163 123.7 208 221 255
93.4319 173.393 111.264 255 253 248
113.157 108.091 113.819 237 239 255
108.658 133.248 102.076 255 232 213
186.333 33.1342 114.497 199 216 255
96.7398 128.164 119.079 193 213 255
31.0517 113.839 106.931 194 213 255
144.225 95.7985 113.372 190 211 255
121.666 135.795 116.328 199 216 255
140.932 158.555 108.515 184 207 255
127.919 99.6633 121.908 255 254 250
100.061 139.126 116.909 206 221 255
130.479 92.4879 107.895 252 247 255
172.746 165.55 111.937 200 217 255
93.4789 173.343 111.313 231 235 255
166.454 116.125 100.453 209 222 255
93.5317 173.251 111.364 255 245 236
114.618 115.129 112.537 213 224 255
110.51 118.639 123.658 192 212 255
97.2165 150.037 107.543 255 227 204
191.615 41.2899 113.822 208 222 255
109.985 84.5712 111.308 222 230 255
41.166 126.07 102.305 225 232 255
116.528 166.787 128.906 203 219 255
147.499 208.504 143.541 187 209 255
95.6749 196.529 114.811 211 223 255
36.3509 46.5785 108.36 186 208 255
59.8053 124.249 117.596 212 224 255
116.727 120.218 99.421 235 238 255
93.473 173.348 111.303 255 250 244
25.4779 217.166 122.293 185 207 255
57.3957 98.655 124.301 204 219 255
125.062 135.663 105.792 255 241 229
93.2868 172.958 111.558 255 250 243
124.516 133.284 123.43 245 243 255
116.984 110.568 119.26 224 231 255
157.795 43.5057 111.752 198 215 255
101.644 142.311 137.414 215 226 255
107.057 118.054 110.894 204 219 255
87.223 2.00675 123.658 196 214 255
181.466 101.369 117.328 208 222 255
93.5616 173.274 111.387 255 253 248
125.695 133.103 118.614 255 251 255
93.4733 173.35 111.304 255 251 245
133.872 25.1111 114.328 180 204 255
108.333 172.692 109.545 255 215 183
204.305 71.8873 119.529 255 230 210
148.709 156.442 77.5198 252 247 255
127.935 94.1112 112.919 255 242 231
22.3498 205.623 107.242 182 205 255
68.473 69.5749 108.972 189 210 255
56.4761 141.616 104.731 232 236 255
85.3623 116.355 109.997 206 220 255
131.185 96.3144 110.752 223 231 255
53.6435 169.353 111.293 195 214 255
87.3424 137.476 106.764 255 240 227
115.047 63.5683 121.508 206 221 255
147.333 76.6502 114.271 234 237 255
142.415 130.967 140.118 196 214 255
93.4976 149.007 120.141 242 241 255
112.877 127.918 116.637 196 215 255
93.4385 173.385 111.259 229 234 255
194.73 112.049 111.643 185 207 255
103.969 90.3086 121.188 199 216 255
123.695 118.86 115.446 255 128 0
116.573 133.805 115.342 234 237 255
93.4732 173.35 111.304 255 246 238
93.4435 173.371 111.276 194 213 255
144.779 126.508 135.506 203 219 255
93.4692 173.355 111.298 193 213 255
119.889 128.576 113.47 255 236 220
93.4762 173.304 111.365 206 221 255
152.912 131.893 84.4312 187 208 255
115.677 43.5024 116.805 230 235 255
150.046 27.0503 112.252 192 212 255
101.356 93.2693 120.42 248 245 255
131.3 146.979 108.642 203 219 255
49.1276 128.423 126.522 211 224 255
35.9955 188.372 117.495 188 210 255
124.684 74.9863 117.607 255 211 177
91.5039 179.474 111.94 198 216 255
84.2518 173.19 122.256 226 232 255
6.72105 99.9362 104.912 186 208 255
78.0411 6.2714 106.177 235 238 255
126.549 75.8538 123.353 199 216 255
120.213 140.911 115.597 254 248 255
97.3823 128.615 107.741 255 183 122
112.441 147.157 120.277 188 209 255
87.5818 123.884 189.761 195 214 255
8.55453 132.132 112.678 214 226 255
163.562 20.3234 111.957 218 228 255
56.6294 92.2896 133.289 215 226 255
13.8279 97.3918 118.849 189 210 255
123.023 101.326 106.507 226 232 255
47.3244 96.3091 90.5261 195 214 255
62.2806 188.554 113.381 179 203 255
115.598 107.425 101.827 255 237 221
93.4347 173.36 111.261 191 211 255
116.305 102.185 108.141 255 210 173
129.914 125.803 120.01 208 222 255
155.178 124.88 113.383 213 225 255
79.7528 130.998 114.249 191 211 255
63.7559 21.4799 113.974 231 235 255
93.4685 173.356 111.297 252 247 255
93.5154 173.328 111.356 255 227 204
102.875 191.544 96.3629 230 235 255
141.151 88.7371 111.733 188 209 255
57.514 100.862 71.2923 195 214 255
83.2587 12.3153 98.6349 195 214 255
122.633 119.526 102.906 255 241 229
93.4006 173.373 111.193 207 221 255
114.687 117.127 95.0372 242 242 255
90.599 185.648 112.299 255 214 181
93.4503 173.376 111.276 215 226 255
125.802 126.149 112.939 255 240 226
93.491 173.326 111.332 248 245 255
81.5096 185.892 106.114 201 217 255
153.073 90.9367 115.544 194 213 255
145.805 88.0941 127.28 201 217 255
146.478 158.529 125.103 206 220 255
111.906 181.829 108.283 215 226 255
108.164 148.146 99.0496 227 233 255
121.87 130.304 105.691 255 243 232
149.624 139.846 110.847 213 225 255
121.317 120.449 111.703 255 187 130
104.112 125.855 121.931 255 164 82
72.6694 156.342 101.456 219 228 255
79.4116 41.6747 107.341 186 208 255
124.511 98.7179 120.73 255 233 215
137.008 84.4054 97.6154 197 215 255
125.14 112.203 124.741 235 238 255
135.981 192.895 101.575 203 219 255
166.477 124.547 124.148 237 239 255
118.869 118.054 107.955 255 240 227
98.9801 219.065 95.8252 195 214 255
142.441 65.634 111.795 188 209 255
150.733 94.2567 112.954 255 213 180
105.458 89.9068 112.63 203 218 255
123.634 172.631 110.084 185 208 255
100.23 85.6638 113.8 255 255 252
94.6613 97.6371 112.13 245 243 255
199.774 127.61 113.932 195 214 255
145.835 100.342 116.529 220 229 255
126.18 117.903 109.647 235 237 255
146.715 108.05 106.708 217 227 255
64.8185 109.365 157.701 192 212 255
105.318 113.392 112.123 255 242 229
117.589 79.8086 118.116 210 223 255
116.741 131.595 99.7158 210 223 255
60.4321 118.092 110.738 182 205 255
48.6035 79.1228 113.402 206 220 255
166.693 48.6729 112.619 214 225 255
192.829 143.559 114.814 185 208 255
183.193 73.4414 112.219 244 243 255
122.122 124.811 103.993 205 220 255
69.7355 142.796 117.155 255 251 246
93.4695 173.354 111.299 215 226 255
146.667 103.241 113.78 205 220 255
5.25635 171.099 111.709 206 221 255
102.632 179.634 108.405 255 239 225
203.406 151.389 88.7449 213 225 255
120.265 125.278 100.759 215 226 255
116.653 99.1016 107.75 222 230 255
98.5824 126.645 105.241 255 237 222
108.326 114.172 117.679 255 246 237
93.4616 173.358 111.292 217 227 255
113.786 117.536 110.269 230 235 255
110.956 109.874 111.342 219 228 255
101.692 161.183 108.987 255 238 224
93.3576 173.319 111.277 218 227 255
35.7193 219.497 54.8136 193 212 255
205.882 102.098 112.566 192 212 255
116.313 132.83 114.759 238 239 255
28.4996 185.299 111.563 192 212 255
63.4891 129.886 101.083 217 227 255
109.908 118.748 101.512 235 238 255
97.8079 123.532 113.272 219 229 255
121.508 136.164 113.225 255 245 235
157.243 107.678 119.638 196 214 255
79.4357 59.2427 195.256 200 217 255
107.106 88.2145 124.117 196 215 255
120.547 198.389 98.3959 212 224 255
74.8938 104.915 109.343 209 222 255
99.6638 52.3411 149.677 185 208 255
57.7482 96.7309 113.937 255 242 231
93.476 173.346 111.308 218 228 255
76.0768 90.7305 111.843 208 222 255
128.726 140.771 110.328 255 188 132
101.62 5.6325 95.2693 192 212 255
93.4697 173.354 111.299 187 209 255
65.0843 55.7485 103.947 190 211 255
109.646 179.074 87.3028 255 241 229
76.2455 130.191 111.139 203 219 255
211.82 62.9332 112.147 217 227 255
78.0155 158.571 108.869 197 215 255
15.896 70.5198 81.1407 230 235 255
112.896 118.953 103.495 255 245 235
75.0223 123.246 115.256 237 239 255
56.9504 121.109 110.021 210 223 255
108.689 116.699 124.543 255 250 243
118.139 65.6668 120.687 188 209 255
114.192 114.77 113.505 227 233 255
131.84 119.441 119.042 207 221 255
51.2265 63.1366 134.303 255 251 246
73.5958 170.444 96.941 216 226 255
105.646 173.464 113.362 202 218 255
143.828 137.707 108.857 177 202 255
70.1746 188.059 112.254 187 209 255
55.5054 33.2803 128.71 190 211 255
113.341 45.9333 119.797 199 216 255
136.211 158.04 107.635 213 225 255
73.1522 132.862 121.853 193 213 255
87.7701 145.508 126.821 208 222 255
88.869 133.722 116.924 204 219 255
107.681 116.563 116.667 255 237 222
55.6351 193.17 112.298 200 217 255
77.268 37.3019 95.9873 184 207 255
76.5239 141.787 129.241 195 214 255
188.053 135.374 119.116 207 221 255
105.807 127.736 111.082 255 171 98
135.256 73.2467 107.591 255 249 242
85.988 155.085 116.14 239 240 255
165.085 127.92 113.106 206 220 255
119.429 108.16 114.795 239 240 255
94.6885 171.94 112.584 255 215 183
93.4606 173.369 111.258 244 243 255
93.3944 173.395 111.263 192 212 255
116.886 101.04 120.284 206 220 255
109.502 131.935 106.463 221 229 255
142.487 137.881 109.487 188 209 255
97.2083 116.145 114.149 244 243 255
81.1946 97.7658 119.842 255 249 242
142.986 87.1102 106.42 255 250 244
93.5173 173.289 111.372 208 222 255
93.4954 173.32 111.339 202 218 255
106.566 121.049 126.3 204 219 255
93.4323 173.388 111.252 189 210 255
74.8491 170.537 124.015 204 219 255
141.504 84.423 111.261 187 209 255
21.4746 166.943 108.791 196 214 255
92.4939 174.541 111.221 255 254 251
113.755 61.2824 108.001 255 222 196
94.5401 172.105 110.433 240 240 255
66.0123 181.812 101.246 214 225 255
90.0972 124.809 105.494 212 224 255
137.997 129.062 220.898 204 219 255
125.152 120.518 117.327 255 212 178
59.0258 71.0207 135.958 216 226 255
114.24 94.9167 121.328 255 240 228
93.4547 173.368 111.281 209 222 255
154.418 99.8885 138.818 226 232 255
47.2688 85.3318 83.9117 190 211 255
143.482 95.2241 111.78 188 210 255
109.888 130.805 105.319 255 245 236
130.65 21.1874 108.498 203 219 255
144.29 96.2551 116.672 220 229 255
105.748 133.884 131.118 255 207 168
106.695 92.1469 114.153 206 221 255
115.073 135.499 121.298 193 212 255
102.101 119.406 110.078 208 222 255
102.893 124.329 120.42 255 252 247
89.6066 140.587 116.198 205 220 255
113.972 124.528 112.434 255 202 160
106.101 150.582 109.527 200 217 255
113.094 128.354 105.862 216 226 255
52.9133 47.7338 108.969 200 217 255
93.5069 173.391 111.337 199 216 255
111.316 109.966 118.638 234 237 255
151.811 102.03 105.923 210 223 255
98.3175 123.444 112.918 255 249 241
96.5995 111.917 149.523 215 226 255
121.904 103.948 121.775 209 222 255
93.4692 173.391 111.329 255 236 220
155.497 28.737 111.209 200 217 255
104.324 115.371 106.798 255 231 211
79.4995 27.0744 99.5292 188 210 255
62.1654 92.7516 107.123 189 210 255
45.2211 29.0758 94.3879 206 220 255
71.4955 144.228 114.682 215 226 255
166.043 90.9692 107.039 224 231 255
83.1032 185.56 112.095 255 238 223
114.628 126.717 101.592 197 215 255
106.202 158.966 113.168 195 214 255
92.8742 190.349 111.336 184 207 255
58.0913 131.031 127 255 188 132
145.298 163.125 101.627 255 252 246
142.724 94.0567 117.122 195 214 255
160.08 143.772 112.618 205 220 255
115.493 75.9856 130.889 211 223 255
3.67833 207.993 108.877 199 216 255
149.772 181.549 168.572 199 216 255
133.002 75.8872 113.468 208 222 255
172.663 137.141 114.181 187 209 255
54.4441 217.737 125.925 180 204 255
117.385 95.2744 112.321 255 240 228
92.9617 174.283 110.405 199 216 255
68.7094 149.38 99.087 202 218 255
96.583 155.089 101.228 221 229 255
93.4407 173.381 111.262 210 223 255
144.589 87.4554 116.792 192 212 255
77.8584 139.319 113.797 255 225 202
26.6707 102.975 109.063 185 207 255
129.747 138.603 115.781 233 236 255
116.799 113.099 114.011 202 218 255
93.5274 173.375 111.382 195 214 255
61.5065 67.092 129.156 210 223 255
93.4676 173.357 111.295 201 217 255
69.4931 134.356 94.7379 205 220 255
94.6299 170.347 112.258 242 242 255
134.847 81.3077 115.475 225 232 255
117.604 105.352 124.328 221 229 255
151.94 25.2293 110.723 193 212 255
114.734 129.831 103.309 234 237 255
92.0374 174.304 111.243 225 232 255
71.86 158.895 112.433 196 214 255
117.17 148.38 100.748 205 220 255
97.2366 110.363 115.205 255 227 204
113.459 82.1453 131.215 219 228 255
115.31 92.213 116.369 193 213 255
129.73 81.7216 115.024 238 239 255
158.777 85.8844 109.676 207 221 255
107.464 85.4176 110.309 193 212 255
213.153 50.856 121.475 184 207 255
109.752 122.739 105.178 255 221 194
84.2078 33.2642 116.078 189 210 255
100.145 149.36 119.598 190 211 255
105.394 63.1248 116.792 200 217 255
116.477 141.171 111.663 193 213 255
175.102 128.123 112.726 193 212 255
137.063 79.4237 140.259 214 225 255
114.454 111.499 87.9456 208 222 255
93.485 173.334 111.323 191 211 255
29.5578 101.788 106.383 187 209 255
176.498 132.999 117.466 176 202 255
94.2851 172.739 111.883 185 207 255
93.4208 173.575 111.236 211 224 255
200.558 122.033 114.328 189 210 255
60.6009 109.024 105.125 205 220 255
38.4312 108.913 111.576 187 209 255
125.561 85.9067 98.2249 222 230 255
132.144 104.718 120.809 208 222 255
111.283 100.124 100.809 223 231 255
118.307 126.757 122.221 202 218 255
179.025 98.7686 117.744 234 237 255
93.4908 173.326 111.332 212 224 255
115.841 116.136 102.841 254 249 255
123.319 170.499 113.003 181 205 255
93.497 173.318 111.342 235 238 255
122.472 141.449 109.728 238 239 255
136.426 193.38 126.851 196 214 255
59.4291 66.431 125.033 203 218 255
93.4924 173.324 111.335 206 220 255
89.2353 180.651 112.809 255 242 231
48.4427 127.406 92.861 194 213 255
93.4677 173.357 111.296 200 217 255
120.627 148.171 103.477 202 218 255
114.55 119.51 111.95 231 235 255
93.2912 172.974 111.658 255 248 240
141.965 119.812 111.074 255 251 246
174.66 142.464 120.048 186 208 255
141.075 86.0937 113.153 191 212 255
102.77 143.226 111.553 242 241 255
127.277 110.878 117.453 255 244 233
147.929 20.6801 100.017 227 233 255
95.3729 65.5617 116.237 205 220 255
120.165 38.3434 115.41 187 209 255
130.289 152.28 110.972 191 212 255
130.617 126.669 104.808 223 231 255
108.433 105.747 105.199 255 239 225
93.4481 173.376 111.271 189 210 255
106.878 96.8579 119.016 255 244 234
75.3399 147.962 119.867 235 237 255
61.2473 142.432 113.804 204 220 255
122.892 105.32 117.537 206 220 255
93.4716 173.352 111.302 193 213 255
121.117 147.955 101.255 234 237 255
50.326 102.166 116.866 243 242 255
83.5078 135.797 113.769 213 225 255
112.166 200.158 111.144 187 209 255
169.74 94.8866 134.164 204 219 255
93.4891 173.354 111.344 213 225 255
114.133 102.416 104.341 218 228 255
120.501 140.229 97.2215 216 227 255
117.557 129.199 104.954 255 249 242
134.281 110.223 102.379 194 213 255
93.4778 173.344 111.311 224 231 255
105.07 108.656 108.835 237 239 255
151.175 106.824 111.064 255 242 231
93.1962 173.737 111.074 238 239 255
111.697 86.4506 114.333 217 227 255
114.591 224.54 104.509 186 208 255
125.646 120.887 106.974 248 245 255
127.974 116.625 110.314 213 225 255
93.4713 173.352 111.301 247 244 255
151.582 158.749 101.26 214 225 255
97.7057 185.743 111.847 208 222 255
99.0882 182.048 110.757 250 246 255
123.183 145.356 100.521 191 211 255
210.391 41.8319 97.1705 179 204 255
161.787 117.252 159.103 197 215 255
83.057 96.024 112.857 229 234 255
93.0771 173.781 110.628 255 252 247
111.062 168.131 108.595 193 213 255
151.63 114.546 114.779 218 228 255
116.146 106.83 102.515 255 227 204
59.9045 82.5585 103.566 196 215 255
93.5896 173.031 111.822 199 216 255
93.4796 173.342 111.314 255 236 220
62.1092 131.762 110.167 255 244 233
105.379 86.5645 111.981 208 221 255
93.4528 173.372 111.276 219 228 255
86.7916 137.156 108.262 224 231 255
26.5852 95.3295 97.9517 246 244 255
156.58 103.959 86.2388 210 223 255
134.275 122.878 119.204 255 210 175
216.088 8.0644 102.675 185 207 255
56.4133 190.844 123.595 222 230 255
59.922 175.991 114.795 189 210 255
162.091 95.7737 115.146 255 231 211
121.955 100.857 105.162 248 245 255
119.517 93.3705 108.507 255 244 234
93.4786 173.343 111.312 193 213 255
93.2426 173.677 111.023 209 222 255
163.148 23.1536 106.541 194 213 255
119.735 46.1541 116.31 255 246 237
87.7327 151.475 104.354 246 244 255
93.1936 176.821 111.812 185 208 255
15.7045 107.28 108.32 226 232 255
195.742 33.1368 109.367 211 223 255
110.569 120.323 103.533 255 241 229
156.282 99.5949 112.888 223 231 255
111.132 51.6142 119.065 202 218 255
93.4269 173.38 111.229 205 220 255
159.444 117.498 116.954 188 209 255
81.2485 147.945 115.708 206 220 255
106.006 135.5 126.523 241 241 255
124.477 96.6688 111.579 203 219 255
136.347 91.1765 110.75 199 216 255
63.274 99.4653 124.083 198 215 255
66.1904 128.162 111.623 206 220 255
114.34 154.384 101.485 190 210 255
112.004 146.099 104.441 255 206 166
118.849 179.153 111.173 255 249 243
82.6999 47.5823 133.641 255 215 184
93.4761 173.346 111.308 199 216 255
105.771 44.5101 113.719 192 212 255
160.796 167.704 144.69 214 225 255
98.5738 183.002 95.9631 193 213 255
133.416 196.173 103.593 189 210 255
144.575 176.641 111.493 188 209 255
136.277 77.211 116.218 201 217 255
110.005 144.12 112.305 196 214 255
93.5242 173.035 111.276 205 220 255
92.1875 173.132 110.047 208 221 255
93.4678 173.357 111.296 200 217 255
93.4917 173.326 111.333 255 251 245
37.5021 47.0842 134.574 192 212 255
99.7895 184.341 104.351 255 251 245
91.6784 186.991 108.325 255 220 192
93.5793 173.177 111.433 255 254 250
130.673 61.7317 130.292 199 216 255
108.994 140.728 103.498 255 215 183
163.32 105.154 108.099 216 226 255
132.308 120.827 115.331 255 226 202
86.7875 73.4287 116.189 245 243 255
101.382 79.1934 90.4437 232 236 255
130.847 109.574 112.622 212 224 255
106.768 104.34 122.183 224 231 255
106.631 35.4953 110.551 193 213 255
103.672 138.105 117.267 213 224 255
182.367 125.044 127.032 255 244 234
93.4814 173.339 111.317 207 221 255
93.4713 173.352 111.301 211 224 255
88.6995 37.1267 105.556 203 218 255
76.5599 148.972 113.629 196 214 255
91.0525 187.176 111.507 214 225 255
120.137 104.15 117.576 203 219 255
121.212 192.807 112.082 181 205 255
108.113 124.151 115.729 255 242 230
105.455 97.1939 118.214 255 243 232
103.12 108.169 109.067 250 246 255
112.788 115.798 118.801 255 217 188
135.149 160.077 124.427 194 213 255
62.8156 58.9523 119.831 189 210 255
164.887 138.782 107.517 228 234 255
122.201 128.111 112.846 222 230 255
87.2243 137.331 106.839 226 232 255
127.843 80.0905 107.782 255 243 233
123.809 155.221 107.321 196 215 255
68.0293 106.44 106.346 208 222 255
210.899 81.5275 117.705 184 207 255
109.444 108.324 115.432 237 239 255
106.23 123.025 108.364 255 218 189
133.509 83.912 144.002 255 216 185
157.083 128.055 110.109 243 242 255
85.3082 105.697 111.753 219 228 255
93.4759 173.347 111.308 213 225 255
155.824 79.0948 116.116 188 209 255
100.618 84.8265 107.668 212 224 255
144.226 115.248 114.803 200 217 255
133.416 66.0337 120.208 255 214 181
167.309 137.319 92.6435 213 225 255
149.788 62.164 132.824 197 215 255
98.268 14.7387 99.566 191 211 255
145.976 156.9 111.25 193 212 255
125.902 118.686 113.149 255 174 104
93.468 173.356 111.296 195 214 255
100.779 74.2921 117.642 239 240 255
106.406 123.224 101.945 255 237 222
71.2005 42.5493 121.487 204 220 255
108.985 91.3538 126.2 215 226 255
93.1116 143.887 113.605 232 236 255
119.799 17.3325 107.258 208 221 255
142.972 36.9877 116.687 184 207 255
57.7558 72.9941 119.839 200 217 255
118.332 105.5 111.712 219 228 255
115.977 147.938 118.119 255 250 243
131.215 169.067 117.267 206 221 255
77.9021 152.522 113.168 255 244 233
59.3273 114.923 89.1094 201 217 255
57.6605 130.508 127.071 255 244 234
94.9576 191.609 96.9201 213 225 255
133.742 107.863 121.407 217 227 255
67.186 74.0669 116.327 188 209 255
194.609 120.228 119.024 196 214 255
90.5898 97.017 105.822 217 227 255
93.4752 173.347 111.307 247 244 255
93.465 173.36 111.292 222 230 255
116.584 111.548 110.351 221 229 255
130.232 195.862 115.71 200 217 255
98.4555 160.159 108.517 204 219 255
93.4725 173.351 111.303 192 212 255
156.047 160.474 115.277 211 224 255
91.8999 107.346 26.4605 205 220 255
61.947 206.094 108.325 206 220 255
113.615 94.961 116.47 255 234 216
93.368 173.389 111.198 248 245 255
125.422 107.419 102.393 239 240 255
208.538 93.7649 119.943 191 211 255
67.232 94.6349 111.659 209 222 255
46.6969 173.289 112.677 186 208 255
133.68 7.37408 108.304 196 215 255
93.4757 173.347 111.308 202 218 255
118.447 112.965 109.789 223 231 255
118.403 83.2853 113.087 218 228 255
91.8096 173.644 116.893 201 218 255
159.942 13.6708 101.885 192 212 255
13.8206 208.152 103.579 181 205 255
73.5462 138.628 101.72 187 208 255
133.758 25.3504 106.452 183 206 255
108.067 116.37 107.426 255 229 208
209.498 8.57929 108.635 186 208 255
105.634 25.3107 91.2737 243 242 255
113.02 121.61 108.232 255 235 218
13.6813 177.559 110.429 205 220 255
66.769 111.97 122.893 190 211 255
92.8148 172.42 110.89 240 241 255
63.8503 112.318 89.6524 193 212 255
129.258 151.673 115.244 190 211 255
122.05 86.6218 104.423 225 232 255
191.743 114.301 113.804 190 211 255
195.319 68.0788 116.856 188 210 255
149.776 206.511 169.186 188 209 255
103.213 93.7854 112.887 255 94 0
108.033 100.262 119.387 255 249 255
57.607 63.5258 119.115 255 251 255
104.586 83.3988 110.772 204 219 255
145.682 87.5813 110.806 211 223 255
105.812 176.251 97.0932 222 230 255
74.9419 153.887 106.476 206 221 255
70.5464 137.255 131.03 203 219 255
125.197 147.111 123.057 221 230 255
155.263 135.036 115.606 210 223 255
187.207 62.3372 109.18 205 220 255
112.147 122.168 103.749 230 235 255
111.236 108.373 105.923 233 237 255
113.004 99.4704 115.839 228 234 255
151.853 86.8919 113.124 208 221 255
166.071 145.467 80.741 197 215 255
91.6095 151.986 117.491 209 223 255
82.1689 61.1338 110.857 208 222 255
121.728 79.9392 104.359 202 218 255
164.668 129.931 113.76 229 234 255
73.4745 176.076 112.842 207 221 255
39.0565 129.417 113.287 201 217 255
93.4716 173.352 111.302 243 242 255
106.423 116.731 111.138 185 207 255
137.361 164.741 106.164 201 218 255
174.387 46.7373 114.66 189 210 255
51.8573 94.926 101.035 187 208 255
124.716 136.759 101.017 220 229 255
93.4736 173.349 111.304 241 241 255
115.659 179.905 111.373 200 217 255
170.379 163.419 93.9377 211 224 255
100.609 164.61 113.572 229 234 255
133.045 171.459 111.935 189 210 255
112.711 95.7663 98.0435 239 240 255
67.088 152.435 97.6281 207 221 255
93.3977 173.351 111.301 239 240 255
207.976 6.97191 106.505 185 207 255
39.4676 170.856 108.955 188 210 255
121.33 102.79 106.3 255 148 43
173.451 161.352 137.905 191 212 255
146.704 74.2102 124.885 218 228 255
41.4338 99.6322 90.0449 200 217 255
93.463 173.366 111.275 204 219 255
92.9711 157.532 108.833 255 220 192
12.7262 69.1744 110.344 183 206 255
92.5604 156.35 110.163 242 242 255
93.4739 173.349 111.305 205 220 255
101.437 33.4556 110.718 186 208 255
99.3407 155.246 139.881 208 222 255
85.3898 63.4122 113.139 255 254 250
161.609 99.5502 111.063 202 218 255
106.226 108.992 120.764 237 239 255
126.758 148.863 118.056 210 223 255
123.911 125.877 112.602 255 243 232
65.9138 98.2371 114.425 212 224 255
72.3969 126.32 111.883 186 208 255
119.62 83.7897 114.47 216 227 255
111.637 135.3 104.605 203 219 255
117.083 107.259 98.5042 255 255 252
105.438 118.18 109.091 201 217 255
135.615 126.301 116.414 255 239 225
105.398 175.335 97.4102 255 241 229
76.0921 116.521 117.994 213 225 255
100.455 153.127 110.708 212 224 255
93.4715 173.352 111.301 219 228 255
93.4688 173.355 111.297 204 220 255
130.525 29.1251 110.869 187 209 255
70.306 120.693 122.553 255 233 215
36.6011 208.686 103.793 184 207 255
11.7052 100.814 114.342 186 208 255
93.4402 173.381 111.164 195 214 255
95.9929 174.655 113.449 208 222 255
99.0536 139.819 115.021 255 243 232
93.4709 173.353 111.301 227 233 255
105.192 92.9059 120.109 255 234 217
78.338 136.382 120.139 220 229 255
93.2462 121.766 116.566 219 228 255
81.2417 93.6219 110.465 227 233 255
54.2159 136.74 110.522 185 207 255
201.146 102.456 105.099 210 223 255
111.821 182.146 137.932 191 211 255
93.4465 173.378 111.269 215 226 255
15.4471 79.3716 113 203 219 255
122.802 124.662 104.714 205 220 255
69.512 75.5249 112.329 198 216 255
93.5161 173.292 111.37 201 218 255
93.4657 173.359 111.293 255 216 185
132.171 178.885 105.455 196 214 255
92.4145 126.233 111.155 255 233 215
93.4542 173.371 111.279 224 231 255
116.907 119.382 116.715 202 218 255
119.575 82.9629 110.786 184 207 255
95.2537 115.501 114.844 255 198 153
158.458 113.137 115.687 190 211 255
93.4442 173.381 111.266 213 225 255
137.47 165.554 96.4765 198 216 255
117.471 84.8154 107.272 204 219 255
120.734 79.8282 123.014 255 243 232
69.8284 159.382 118.559 182 206 255
131.889 180.928 122.039 179 204 255
223.2 13.6665 127.531 187 209 255
53.761 39.549 91.3741 255 250 243
130.753 129.419 122.105 188 209 255
93.4771 173.342 111.33 255 233 216
111.149 105.948 110.835 255 233 215
104.804 136.924 110.633 255 246 236
93.4343 173.543 111.098 253 248 255
106.837 77.3701 113.064 209 222 255
120.755 134.381 108.289 219 228 255
114.196 103.443 125.468 197 215 255
98.2564 29.2919 111.657 188 209 255
114.948 114.789 129.291 213 225 255
58.6373 33.2918 111.364 185 207 255
93.4696 173.355 111.298 239 240 255
116.905 117.865 86.0631 222 230 255
127.492 186.207 109.675 194 213 255
74.7109 152 104.362 226 233 255
98.3958 140.143 106.755 255 243 232
58.9222 41.087 101.397 188 210 255
97.0304 172.78 114.668 250 246 255
118.626 104.77 111.808 255 187 130
76.504 194.113 145.726 255 245 234
138.295 50.7793 113.679 180 205 255
98.8942 133.049 127.941 255 219 191
185.604 21.496 124.161 182 205 255
116.789 120.703 109.072 210 223 255
20.6989 49.465 101.095 202 218 255
95.8963 112.855 129.513 255 245 234
219.726 21.9923 129.811 189 210 255
103.228 111.137 109.394 186 208 255
137.604 115.1 115.722 214 225 255
70.9375 86.8536 113.294 204 219 255
116.556 73.4444 129.473 197 215 255
105.953 44.4846 113.4 187 209 255
96.7606 193.726 108.585 187 209 255
145.635 50.0713 111.968 212 224 255
12.3492 84.3606 80.2441 192 212 255
94.1971 173.976 112.614 255 230 210
142.211 78.1976 127.334 215 226 255
182.74 24.9509 105.5 174 201 255
120.453 112.905 118.096 255 242 231
74.3834 51.4438 112.02 211 224 255
93.4714 173.352 111.301 255 252 246
133.316 182.903 118.118 188 209 255
115.051 129.85 101.574 255 220 193
87.5621 123.803 113.413 187 209 255
77.1066 14.7125 89.6105 185 207 255
107.783 139.436 108.224 255 209 172
102.654 152.137 113.045 202 218 255
93.5937 131.105 107.077 218 228 255
102.969 191.938 104.515 205 220 255
76.4056 50.0512 118.076 198 216 255
118.269 129.759 99.2074 232 236 255
44.7764 89.0236 99.8557 194 213 255
139.281 23.2846 102.834 182 206 255
93.4757 173.347 111.307 197 215 255
93.4707 173.353 111.3 191 211 255
102.803 100.576 108.644 219 228 255
132.657 83.8515 119.295 223 231 255
87.3958 101.021 108.142 209 222 255
159.16 168.677 112.701 214 225 255
115.008 103.766 111.029 255 239 225
110.125 126.971 104.293 255 245 234
116.06 127.5 114.496 203 219 255
93.468 173.356 111.296 202 218 255
93.4962 173.316 111.359 255 250 243
77.3588 57.9377 113.456 221 229 255
91.152 34.3802 126.112 208 222 255
93.4789 173.343 111.312 222 230 255
93.8238 40.5456 117.929 201 218 255
110.812 124.831 101.38 255 159 71
96.2971 116.232 110.641 216 226 255
142.859 107.177 117.098 255 250 244
93.4798 173.341 111.314 184 207 255
132.67 60.1464 109.992 240 240 255
117.666 118.897 108.112 210 223 255
5.32008 197.345 119.997 191 211 255
120.311 91.7574 111.04 204 219 255
119.349 122.538 120.44 255 254 249
196.535 153.7 121.375 201 218 255
150.385 71.7394 109.827 186 208 255
93.4438 173.383 111.263 203 219 255
6.50608 37.0393 100.878 255 235 218
103.997 142.535 115.823 222 230 255
93.4633 173.362 111.289 215 226 255
25.3366 200.171 116.578 200 217 255
152.215 42.9916 117.679 212 224 255
127.305 99.7201 113.626 245 243 255
106.685 65.6495 105.064 255 219 190
97.359 218.497 107.551 183 206 255
119.999 157.942 115.133 228 234 255
108.747 94.7197 123.703 220 229 255
66.5485 93.0772 115.713 208 222 255
92.1002 174.081 110.557 209 222 255
117.603 118.077 118.59 255 231 212
127.932 108.641 108.374 255 244 234
155.089 127.958 115.209 232 236 255
149.211 25.8377 121.794 208 222 255
70.5051 136.354 105.31 208 222 255
100.04 40.9063 114.454 255 251 245
130.222 90.3925 103.054 200 217 255
168.348 95.7557 127.793 239 240 255
61.5461 86.4801 99.0943 206 221 255
145.781 136.829 111.533 201 217 255
124.588 99.8974 121.827 226 232 255
93.4706 173.353 111.3 222 230 255
79.7927 27.3236 86.514 207 221 255
100.544 108.935 121.52 233 237 255
107.009 105.399 120.033 206 220 255
102.359 116.564 114.968 243 242 255
57.738 28.2033 139.278 206 220 255
201.789 142.647 119.597 191 211 255
93.4643 173.36 111.291 216 226 255
106.437 93.4697 106.379 255 242 230
159.582 101.354 104.761 214 225 255
132.241 137.159 110.671 212 224 255
93.4657 173.359 111.293 255 250 243
57.8691 72.1719 108.644 195 214 255
121.652 8.40749 100.423 195 214 255
148.111 131.355 74.0603 194 213 255
182.529 30.0155 114.657 255 254 250
93.4646 173.36 111.292 185 207 255
75.1352 43.0946 126.816 184 207 255
93.4692 173.355 111.298 218 227 255
112.561 181.898 135.283 191 211 255
174.801 159.26 152.934 197 215 255
25.4214 66.1596 119.124 182 206 255
93.4476 173.506 111.242 217 227 255
121.251 105.29 119.97 225 232 255
46.3494 90.6033 154.964 242 242 255
136.593 156.687 102.766 189 210 255
81.2271 52.3219 110.266 211 223 255
51.2975 123.194 143.217 241 241 255
125.398 138.155 97.9709 255 232 214
31.7591 52.5478 89.4668 192 212 255
176.414 89.3278 112.947 183 206 255
106.194 137.396 96.1768 230 235 255
121.033 116.971 103.708 238 239 255
122.65 79.4839 107.409 255 240 227
157.342 101.703 103.786 215 226 255
156.051 109.469 112.602 255 236 220
88.5202 137.934 119.869 205 220 255
89.5976 182.55 129.946 196 214 255
93.5152 173.291 111.37 211 224 255
118.793 133.588 109.799 255 245 235
118.146 86.153 110.938 255 189 134
154.314 121.915 109.559 208 222 255
72.6808 128.771 113.754 226 232 255
25.9947 191.412 118.444 199 217 255
149.209 140.929 111.621 199 216 255
93.4635 173.361 111.29 255 250 244
75.1613 70.7833 118.131 200 217 255
89.8893 187.206 111.189 255 249 242
64.3782 59.9379 145.335 194 213 255
93.4406 173.371 111.287 221 229 255
138.592 91.8649 102.534 210 223 255
92.7366 173.076 111.633 255 230 211
118.023 164.936 116.224 255 242 230
165.263 96.9329 89.2913 202 218 255
93.5141 173.293 111.368 214 225 255
81.1972 179.504 104.789 217 227 255
118.985 108.806 106.945 211 224 255
93.4796 173.342 111.314 255 250 255
114.773 127.355 109.299 223 231 255
196.339 115.562 124.315 206 220 255
93.4714 173.352 111.301 200 217 255
113.959 115.153 105.278 255 207 169
195.141 124.463 104.217 198 215 255
109.425 140.431 100.193 229 234 255
127.686 116.694 110.911 255 220 192
92.9423 172.982 111.388 255 210 174
109.997 66.0307 120.738 189 210 255
49.174 5.03393 85.0708 204 219 255
124.962 109.875 120.431 203 219 255
118.71 176.525 112.734 239 240 255
103.363 99.6248 115.393 225 232 255
86.1503 9.88464 109.684 197 215 255
109.472 100.099 106.615 255 228 207
93.4724 173.351 111.302 188 210 255
120.866 153.385 114.105 255 226 202
93.4715 173.351 111.302 232 236 255
119.955 83.8758 113.957 228 234 255
127.301 142.383 122.647 255 230 209
100.21 212.769 119.399 179 204 255
87.1367 39.3039 99.5948 215 226 255
93.4671 173.376 111.286 211 224 255
65.0504 89.6906 111.44 202 218 255
93.4709 173.353 111.301 220 229 255
86.5683 55.4103 109.742 195 214 255
125.166 150.287 109.132 255 211 176
172.503 146.515 101.234 214 226 255
108.854 114.882 119.463 255 229 208
113.897 116.821 117.535 249 245 255
122.144 113.994 124.711 255 159 71
44.6611 68.6489 126.46 189 210 255
111.646 117.234 103.124 207 221 255
97.3733 164.727 110.138 217 227 255
131.161 117.606 123.187 255 221 194
216.645 172.632 177.356 195 214 255
71.1452 120.5 108.004 255 252 247
69.0169 104.529 111.096 193 212 255
48.5225 66.4574 126.76 236 238 255
123.163 211.87 113.449 176 202 255
106.615 48.0401 116.206 209 222 255
105.043 166.888 96.4764 243 242 255
81.1563 206.611 90.782 242 241 255
114.126 177.303 110.935 229 234 255
207.701 124.523 114.971 184 207 255
107.325 106.525 110.492 241 241 255
95.6519 121.49 125.816 255 226 202
104.226 130.251 107.261 238 239 255
113.918 168.979 104.592 255 233 215
175.068 1.53416 99.5774 195 214 255
144.436 59.2055 115.881 219 228 255
146.655 113.033 105.317 230 235 255
77.2562 33.9409 111.018 255 249 242
135.153 125.979 103.421 199 216 255
126.549 76.3098 117.869 205 220 255
116.713 109.892 105.661 212 224 255
93.4475 173.378 111.269 208 222 255
145.434 103.089 90.6884 199 216 255
78.1481 70.2677 112.911 211 223 255
112.487 120.596 120.939 218 228 255
100.209 113.93 110.068 186 208 255
144.073 95.7653 107.973 213 225 255
91.3308 173.848 109.543 202 218 255
50.2951 139.613 110.013 208 222 255
125.374 90.9137 137.86 212 224 255
36.6063 59.3752 114.784 189 210 255
107.636 104.215 105.442 212 224 255
110.057 119.651 112.438 199 216 255
93.4714 173.352 111.301 255 250 243
70.8545 177.881 109.044 182 206 255
116.212 123.233 111.579 237 239 255
184.418 1.7384 102.414 188 209 255
95.4073 164.044 113.735 199 216 255
142.29 116.218 112.743 255 209 172
116.994 122.351 96.6433 215 226 255
131.844 85.6111 86.1518 244 243 255
62.1507 136.649 86.8217 225 232 255
130.118 88.9352 123.287 255 249 241
185.235 77.8612 111.525 194 213 255
124.699 124.915 106.385 255 241 229
97.6749 155.284 109.643 227 233 255
73.8703 53.7417 114.352 199 216 255
105.636 84.2333 117.99 208 222 255
106.947 110.818 95.2472 242 241 255
128.366 123.3 81.9516 255 244 234
78.3704 159.488 104.979 204 219 255
147.788 37.2207 114.26 255 241 228
153.699 101.823 106.897 198 216 255
144.982 90.3289 88.4305 187 208 255
94.2486 148.4 102.641 240 240 255
111.462 174.308 109.982 220 229 255
122.24 206.713 99.725 181 205 255
107.189 69.0744 118.548 190 211 255
129.96 147.298 108.877 196 214 255
114.419 121.641 115.883 255 242 229
111.815 139.083 115.383 255 219 190
68.7482 127.768 161.588 191 211 255
147.797 96.4749 109.841 202 218 255
111.609 111.644 119.945 211 223 255
93.4784 173.343 111.312 255 248 240
133.623 88.4859 98.3429 208 221 255
109.679 117.737 113.34 232 236 255
106.709 35.5809 107.196 203 219 255
93.5089 173.301 111.36 215 226 255
177.02 53.578 115.048 196 214 255
106.774 104.086 107.331 221 229 255
93.4692 173.355 111.297 196 215 255
175.956 102.816 87.2454 229 234 255
90.3787 167.183 110.702 207 221 255
128.093 136.961 104.399 255 251 245
94.3754 137.737 111.584 255 250 255
117.191 115.932 114.631 240 240 255
93.4689 173.355 111.297 245 243 255
46.3429 187.597 106.778 189 210 255
107.631 117.12 107.415 255 203 161
123.769 161.004 106.038 181 205 255
113.498 120.66 102.885 198 216 255
84.2863 123.547 101.733 255 238 224
93.5191 173.055 111.472 255 247 238
93.47 173.354 111.299 255 254 250
96.0031 92.4713 115.183 226 232 255
120.556 85.3137 107.389 209 222 255
142.855 91.1878 107.529 198 216 255
93.5353 173.244 111.386 209 222 255
104.898 120.43 106.287 199 216 255
114.566 44.9831 120.418 204 219 255
114.963 123.102 98.3317 204 219 255
115.174 81.2528 117.406 248 245 255
138.304 144.014 104.183 187 209 255
93.4053 173.396 111.364 189 210 255
93.8635 172.814 112.471 201 218 255
93.4704 173.353 111.3 206 220 255
69.2013 70.6743 97.4228 214 225 255
108.773 83.0248 124.497 255 252 247
73.5672 215.706 113.585 200 217 255
63.0717 65.7929 100.354 228 233 255
93.4685 173.356 111.297 211 223 255
0.0115357 88.7822 120.165 213 225 255
93.526 173.277 111.382 196 214 255
99.9998 157.696 122.072 200 217 255
123.337 102.453 125.222 255 224 200
93.8027 186.183 112.877 255 249 255
93.4822 173.338 111.317 221 229 255
124.783 120.013 118.095 255 255 252
128.931 117.133 101.148 235 238 255
110.074 146.085 104.664 255 202 159
220.78 13.2854 100.233 188 209 255
125.888 71.8266 94.9911 211 224 255
150.545 148.414 108.112 251 247 255
96.0096 143.201 109.945 219 228 255
67.7015 160.55 113.874 193 213 255
93.4707 173.353 111.3 215 226 255
147.526 150.378 112.689 196 215 255
143.604 85.9044 145.312 201 218 255
83.4464 220.205 118.031 201 217 255
107.962 84.5054 108.889 217 227 255
71.9398 127.618 120.626 239 240 255
98.0889 135.097 125.243 255 230 210
93.4594 173.366 111.285 202 218 255
103.673 163.729 115.9 197 215 255
134.34 40.4056 114.704 185 207 255
92.602 142.66 99.9465 221 229 255
46.7913 132.076 125.61 236 238 255
112.818 97.7896 121.512 255 196 149
140.593 110.958 116.071 255 211 177
93.3295 173.241 111.755 255 185 125
93.7496 173.447 111.444 215 226 255
87.3895 27.9902 115.595 182 206 255
152.362 113.343 120.935 207 221 255
49.536 74.1471 122.868 198 215 255
71.0751 201.107 111.564 237 238 255
126.203 116.562 105.423 255 171 97
75.7537 126.921 112.808 210 223 255
147.097 171.705 112.541 183 206 255
144.376 176.993 110.931 184 207 255
111.236 128.085 97.5418 255 218 188
159.682 138.118 108.918 213 224 255
93.5162 173.292 111.371 210 223 255
112.011 130.202 128.463 222 230 255
96.4009 188.096 87.2576 222 230 255
100.943 168.025 100.692 205 220 255
76.0352 165.412 112.31 234 237 255
121.3 82.1267 108.608 215 226 255
93.4734 173.35 111.304 203 219 255
167.564 142.12 122.793 242 242 255
93.4896 173.328 111.33 184 207 255
162.554 139.543 99.9704 199 216 255
177.081 183.589 98.5346 193 212 255
93.4766 173.347 111.309 202 218 255
89.9893 156.812 116.244 199 216 255
148.231 97.4283 118.123 209 223 255
123.712 109.175 115.763 208 222 255
93.4801 173.341 111.315 223 230 255
109.831 116.665 100.77 210 223 255
168.573 75.8489 126.124 231 235 255
94.1274 117.617 116.692 193 212 255
61.42 60.4014 88.6215 193 213 255
77.2219 182.368 88.9899 188 209 255
59.5981 151.602 110.546 190 210 255
95.2872 130.982 124.232 255 234 216
94.4819 38.0078 111.359 213 225 255
104.199 47.3131 116.27 198 216 255
83.1985 146.466 113.744 209 223 255
157.7 29.9112 110.229 192 212 255
145.042 186.208 104.971 200 217 255
120.214 134.908 97.7521 207 221 255
93.4602 173.364 111.286 204 219 255
99.1057 155.276 111.59 201 218 255
127.46 124.669 109.49 255 249 242
167.808 51.1014 112.264 222 230 255
166.555 135.699 120.501 255 255 251
107.721 77.3681 113.137 219 228 255
116.213 85.5761 111.709 218 228 255
202.092 56.0534 111.438 232 236 255
73.7895 130.72 102.202 240 241 255
131.617 84.1679 114.833 195 214 255
93.485 173.335 111.322 255 235 218
109.385 135.306 110.184 198 216 255
107.092 160.111 105.052 255 229 208
128.955 122.58 103.612 206 221 255
93.4542 173.372 111.276 194 213 255
66.9235 135.052 106.977 238 239 255
217.24 152.622 105.098 188 209 255
212.266 94.9052 114.835 191 212 255
129.46 115.928 115.753 255 204 162
105.905 100.092 116.553 255 251 246
116.402 109.299 114.254 255 219 191
84.9769 127.941 110.78 210 223 255
103.374 122.159 113.701 255 241 228
121.318 99.8351 102.183 255 253 249
147.106 69.3211 124.166 215 226 255
123.699 122.445 104.374 231 235 255
138.958 49.2387 117.109 199 216 255
112.547 147.095 102.071 232 236 255
108.849 75.4038 123.312 199 216 255
118.308 136.798 104.128 204 219 255
142.503 40.442 113.767 235 238 255
158.755 89.865 133.404 202 218 255
139.927 104.546 112.14 215 226 255
71.1162 98.4996 110.755 255 244 234
145.272 99.8155 110.349 181 205 255
70.9343 129.607 150.632 218 228 255
99.1063 120.45 124.728 255 244 234
183.232 23.2504 113.956 187 209 255
157.902 105.085 97.2931 211 223 255
127.102 88.4158 140.043 220 229 255
107.091 96.8946 120.516 255 239 225
95.3366 184.863 145.729 217 227 255
84.6396 116.115 115.276 195 214 255
119.231 140.27 103.456 246 244 255
98.0588 150.926 107.94 202 218 255
94.3906 173.353 111.18 191 211 255
135.156 59.7354 121.152 193 213 255
95.7957 136.99 108.125 224 231 255
71.1805 103.603 117.191 244 242 255
126.177 125.892 103.861 252 247 255
98.4931 174.179 136 189 210 255
131.761 114.848 109.277 255 226 202
93.4668 173.36 111.286 242 241 255
60.0535 172.013 103.643 207 221 255
128.709 125.387 77.3787 255 227 204
140.946 172.87 115.322 216 226 255
114.912 18.5353 91.9608 200 217 255
93.5626 173.298 111.376 245 243 255
117.408 164.18 121.982 220 229 255
54.0471 166.456 101.017 203 219 255
132.335 97.5824 86.4094 255 250 255
142.3 127.676 111.641 255 247 239
92.1887 118.117 119.336 221 229 255
60.6921 174.849 114.717 204 219 255
106.035 154.295 106.616 216 227 255
156.903 164.969 139.163 231 235 255
135.454 133.018 121.675 208 222 255
199.056 17.2158 107.699 199 216 255
111.039 137.901 92.316 255 252 248
117.49 115.931 106.136 255 210 175
75.3237 39.0412 130.224 203 219 255
93.4532 173.33 111.34 199 216 255
149.204 102.636 110.922 184 207 255
94.0907 172.747 111.922 216 227 255
118.695 116.312 124.836 221 229 255
21.0543 71.7505 112.052 180 205 255
122.716 145.232 97.5093 248 245 255
93.4871 173.332 111.326 199 216 255
71.2361 1.98323 109.879 199 216 255
208.286 23.5942 104.34 199 216 255
93.47 173.354 111.299 255 239 224
7.02775 57.2887 99.2655 186 208 255
126.072 131.882 121.349 204 219 255
129.147 206.332 109.931 187 209 255
93.4556 173.37 111.279 206 221 255
206.363 191.957 92.4885 184 207 255
73.4036 185.227 116.812 208 222 255
109.437 116.957 101.577 225 232 255
80.7808 177.477 111.812 196 214 255
50.1761 45.0583 119.124 227 233 255
93.4814 173.099 111.58 210 223 255
96.5221 130.802 120.438 214 225 255
95.6436 179.17 115.391 255 223 197
115.9 85.4193 110.816 233 237 255
62.7814 128.171 88.2093 220 229 255
193.183 117.45 114.246 198 215 255
108.172 104.474 113.963 255 202 160
116.345 68.945 119.772 227 233 255
93.5152 173.293 111.37 255 254 250
130.081 109.147 104.451 255 241 228
101.482 83.8124 113.06 255 251 245
162.867 5.63961 118.733 255 232 213
119.185 46.3065 116.75 210 223 255
83.4543 152.671 111.067 255 237 222
113.61 148.934 111.661 210 223 255
93.4697 173.354 111.299 196 214 255
121.511 133.768 104.515 182 206 255
123.701 149.673 121.629 223 231 255
82.7256 166.848 119.593 255 238 223
104.66 97.8568 121.369 206 221 255
104.783 96.0651 102.935 200 217 255
129.02 173.154 112.847 188 210 255
83.555 208.097 105.825 183 206 255
52.1851 122.462 118.986 208 222 255
112.542 120.758 105.39 213 225 255
122.394 145.667 118.573 224 231 255
34.25 129.704 112.768 200 217 255
93.461 173.333 111.251 194 213 255
120.1 116.361 109.635 255 235 219
93.4651 173.36 111.292 215 226 255
117.527 97.7382 116.094 204 220 255
98.0411 95.2481 106.372 255 245 235
117.613 123.817 109.541 255 248 240
83.6005 112.581 36.8205 207 221 255
163.598 138.427 115.094 186 208 255
108.745 142.18 106.974 255 252 247
2.10473 196.517 113.631 186 208 255
167.348 95.9411 113.688 200 217 255
95.8495 3.44304 92.0527 189 210 255
130.064 103.43 116.337 214 225 255
93.4725 173.351 111.303 255 215 184
46.0301 79.5538 129.467 184 207 255
93.4703 173.354 111.299 196 214 255
93.4648 173.36 111.291 199 216 255
75.148 26.0952 98.95 191 211 255
175.392 74.4956 109.33 198 216 255
93.4049 173.4 111.258 197 215 255
76.8081 117.513 108.245 255 248 240
93.4685 173.356 111.297 191 211 255
120.695 18.9846 126.128 193 213 255
124.819 139.328 137.559 221 229 255
89.8496 187.955 110.953 188 210 255
63.3651 76.2438 109.865 246 244 255
93.4943 173.401 111.105 204 219 255
71.498 81.6129 112.803 196 215 255
93.4241 173.104 111.494 198 215 255
112.865 109.973 115.128 255 228 206
135.552 90.5555 110.806 199 216 255
93.4702 173.353 111.3 213 225 255
122.287 138.34 121.1 198 216 255
93.4712 173.352 111.301 230 235 255
82.7402 105.024 107.921 197 215 255
168.776 152.953 117.69 197 215 255
51.9653 103.44 110.761 199 216 255
188.605 146.071 112.802 191 211 255
95.8405 99.6604 107.569 255 247 239
117.633 127.674 112.756 255 241 228
108.076 107.451 111.102 228 234 255
116.45 139.552 101.263 226 232 255
75.4283 73.5823 113.988 206 221 255
156.042 154.797 106.371 203 219 255
140.668 127.076 112.215 255 176 108
113.095 79.417 110.844 203 219 255
132.463 154.818 114.91 212 224 255
64.3612 124.547 94.4536 191 211 255
35.3866 171.639 111.892 194 213 255
73.8374 158.486 114.425 227 233 255
79.0408 138.035 103.071 207 221 255
122.243 120.321 111.817 253 248 255
93.0186 179.017 110.815 184 207 255
95.3693 176.552 109.967 255 222 196
186.58 95.9651 122.554 183 206 255
118.602 50.8015 117.767 210 223 255
60.1109 103.557 112.436 209 222 255
93.4829 173.337 111.319 200 217 255
111.931 120.433 104.095 197 215 255
135.215 87.2492 116.454 202 218 255
89.3709 217.602 96.2878 199 216 255
116.527 132.597 100.937 223 231 255
48.2974 99.6517 80.7453 216 227 255
95.006 221.799 112.395 170 198 255
56.5296 135.023 130.764 215 226 255
93.4489 173.375 111.269 196 215 255
171.719 41.1316 108.811 204 219 255
112.314 128.646 112.489 202 218 255
89.1703 175.539 110.728 210 223 255
119.796 82.0183 115.859 192 212 255
136.499 91.5671 112.719 205 220 255
117.506 134.341 102.836 206 220 255
119.124 110.981 115.462 255 196 147
112.978 118.78 103.088 217 227 255
120.861 157.741 111.538 255 187 131
24.8867 36.3387 133.208 184 207 255
200.898 59.6954 113.409 189 210 255
93.4655 173.359 111.292 219 228 255
93.3584 177.199 82.5925 197 215 255
26.8143 73.9511 146.773 255 250 244
91.5381 144.204 124.406 231 235 255
93.4718 173.352 111.301 198 216 255
76.3114 17.5657 104.999 180 205 255
75.3822 168.899 119.606 244 243 255
96.9832 91.3727 110.198 192 212 255
100.488 132.796 117.874 255 241 228
59.097 79.3071 102.104 215 226 255
112.047 138.827 110.45 203 219 255
131.748 112.8 107.655 255 222 196
140.395 161.322 112.885 181 205 255
93.5117 173.297 111.364 212 224 255
86.2352 176.237 95.3333 199 216 255
113.47 154.637 102.551 222 230 255
114.026 138.672 122.521 255 218 189
93.4558 173.396 111.267 205 220 255
68.2357 115.907 109.785 229 234 255
127.194 101.566 108.315 216 226 255
96.781 118.116 111.411 255 246 237
98.7604 125.9 101.486 255 236 220
55.9494 136.488 114.651 195 214 255
97.5972 188.878 110.124 240 240 255
146.654 72.2058 113.297 231 235 255
107.933 82.7805 122.032 255 247 238
105.968 118.799 112.652 223 231 255
105.191 122.489 113.785 255 243 232
82.5595 124.44 111.307 187 209 255
115.723 115.218 110.545 255 233 215
119.584 127.081 110.832 245 243 255
93.4419 173.281 111.271 206 220 255
137.541 68.8161 122.661 194 213 255
127.86 122.396 112.767 255 214 182
93.5164 98.8664 111.56 202 218 255
185.53 6.40639 114.787 235 238 255
64.9912 215.04 124.438 191 211 255
155.096 95.8903 110.158 190 211 255
91.6075 125.747 105.351 195 214 255
42.8329 174.385 111.832 199 216 255
163.724 108.258 121.09 184 207 255
93.4668 173.318 111.335 238 240 255
104.122 132.122 115.569 194 213 255
209.863 13.5047 119.013 178 203 255
60.7778 70.6694 112.27 255 234 217
34.7953 134.692 131.701 187 209 255
109.881 94.5922 97.479 255 243 232
117.775 141.451 100.923 210 223 255
112.247 89.2996 125.465 224 231 255
126.414 79.8485 140.376 224 231 255
45.8501 145.387 110.207 197 215 255
89.7048 151.436 107.897 255 249 242
130.289 123.071 112.125 255 244 233
91.1464 91.0732 108.88 192 212 255
103.05 147.355 116.809 255 249 255
75.9005 5.05783 110.247 212 224 255
50.2118 219.673 103.196 220 229 255
80.9969 185.828 111.288 207 221 255
89.0272 193.496 113.595 207 221 255
116.8 134.675 97.8772 255 230 210
112.587 203.194 99.8437 190 211 255
93.4829 173.333 111.323 208 222 255
93.4781 173.304 111.297 255 239 226
57.4585 179.075 80.0136 208 222 255
192.943 96.9206 112.795 191 212 255
59.3322 74.7869 145.457 255 248 241
59.2605 25.5037 146.609 203 219 255
181.308 83.3322 118.073 193 213 255
136.247 106.624 107.851 189 210 255
149.7 68.3767 108.369 222 230 255
118.271 121.082 93.7274 255 232 213
143.447 151.013 120.444 255 93 0
113.609 102.07 95.8176 197 215 255
90.5304 102.767 122.737 215 226 255
102.245 67.2595 114.2 200 217 255
95.1191 109.155 115.305 200 217 255
93.4817 173.338 111.318 243 242 255
93.385 173.34 111.331 191 211 255
45.881 135.115 152.056 213 225 255
86.4161 50.1452 116.912 255 248 240
27.6423 211.448 126.604 185 208 255
114.722 209.894 88.2439 217 227 255
93.4661 173.358 111.293 217 227 255
60.6427 112.103 115.382 255 239 225
89.625 161.641 120.506 205 220 255
131.847 1.06382 102.969 185 207 255
105.865 104.654 112.689 200 217 255
80.6119 87.4518 114.631 223 231 255
111.556 127.582 104.77 255 251 245
73.7162 28.427 95.415 222 230 255
119.71 135.47 97.0357 206 220 255
118.043 120.17 113.74 255 254 251
26.6463 214.005 126.078 182 205 255
109.821 91.9429 116.879 255 208 171
92.9198 172.585 109.674 222 230 255
70.5642 63.5821 100.273 212 224 255
110.982 121.854 136.655 200 217 255
93.4638 173.361 111.29 211 224 255
133.34 85.4994 110.386 220 229 255
159.415 143.314 112.262 212 224 255
102.594 130.263 108.775 255 203 161
95.0319 177.969 115.446 213 225 255
