ply
format ascii 1.0
element vertex 1341
property float x
property float y
property float z
property uchar red
property uchar green
property uchar blue
end_header
109.871 112.218 113.407 199 217 255
36.4212 149.599 108.685 199 216 255
77.9963 31.9782 117.618 177 202 255
93.2663 173.356 110.465 234 237 255
93.3754 173.452 110.901 204 219 255
88.1683 92.8111 109.378 242 242 255
100.039 200.208 112.16 198 215 255
105.552 111.182 115.578 195 214 255
110.37 111.313 111.876 249 246 255
110.68 113.556 116.297 211 223 255
112.495 125.034 111.769 255 251 244
62.0444 155.522 113.1 207 221 255
200.917 63.8939 117.382 189 210 255
112.934 75.6677 111.01 209 223 255
109.416 120.752 115.795 255 225 201
68.5806 93.5529 125.292 209 222 255
115.14 123.607 111.252 219 229 255
93.4802 173.641 111.056 215 226 255
115.571 78.8563 115.86 255 190 137
57.8194 117.85 110.114 191 211 255
70.2106 39.078 110.735 197 215 255
51.4457 112.367 111.595 212 224 255
92.3111 150.991 111.63 255 205 165
115.178 129.812 112.873 241 241 255
110.196 112.023 115.923 185 207 255
93.3972 173.529 110.953 183 206 255
7.84757 130.891 111.878 189 210 255
143.963 202.756 112.154 189 210 255
93.2176 173.314 110.564 197 215 255
200.341 73.8399 108.099 183 206 255
115.855 112.755 112.476 255 252 247
126.973 59.4669 114.307 233 236 255
137.702 93.898 112.05 213 225 255
77.8437 117.683 111.766 209 222 255
124.653 84.1317 113.611 255 235 218
120.039 81.4985 115.115 231 235 255
183.465 181.495 110.814 181 205 255
93.4348 173.486 110.927 213 225 255
48.1499 169.186 116.544 187 209 255
112.876 198.07 105.86 197 215 255
93.4173 173.469 110.918 193 212 255
183.493 9.15694 115.385 181 205 255
86.2957 15.8264 97.2808 195 214 255
125.043 91.6705 114.652 206 220 255
216.227 47.2122 113.51 181 205 255
113.612 114.853 109.959 255 228 207
124.196 73.4776 113.663 230 235 255
112.203 151.045 114.643 240 240 255
150.05 113.026 113.882 255 249 242
163.485 174.616 123.593 195 214 255
146.521 173.744 124.348 204 220 255
106.135 152.949 122.474 218 228 255
148.755 81.9555 110.128 187 209 255
120.416 139.034 109.701 255 246 238
18.1552 176.851 112.021 189 210 255
22.093 54.389 113.236 180 204 255
112.128 114.549 113.737 204 219 255
85.6692 129.27 117.985 204 219 255
106.627 147.797 112.642 230 235 255
98.7101 207.675 116.446 195 214 255
114.506 49.5099 111.126 214 225 255
111.358 122.706 109.859 255 246 237
93.4293 173.481 110.924 216 226 255
162.638 66.936 114.603 255 223 198
113.289 139.916 110.819 255 239 226
77.2393 147.354 117.221 208 222 255
37.6389 83.1753 120.346 199 216 255
64.6766 117.213 110.731 191 212 255
114.669 114.535 110.998 237 239 255
107.581 170.538 109.354 255 199 154
83.3471 110.191 105.585 211 223 255
155.861 100.332 110.957 255 239 225
138.423 175.735 112.927 189 210 255
182.684 183.753 111.024 191 211 255
86.2548 65.9414 118.146 243 242 255
164.868 138.237 112.6 255 254 250
169.841 147.46 105.661 245 244 255
193.937 109.704 115.267 216 226 255
115.019 123.559 111.514 255 178 113
200.01 134.981 113.492 201 217 255
93.4237 173.476 110.921 228 234 255
115.945 96.9325 115.55 199 216 255
132.015 160.617 112.697 188 209 255
177.447 97.6804 113.715 207 221 255
76.8837 196.891 157.949 190 211 255
118.383 143.352 107.075 255 250 243
36.4255 140.53 110.949 203 219 255
48.1237 85.3177 104.496 255 233 215
204.812 22.3327 114.218 187 209 255
84.7769 81.0062 111.085 230 235 255
110.398 112.067 112.504 255 215 184
156.706 48.3525 114.647 221 230 255
178.905 87.5715 115.367 212 224 255
175.728 108.325 113.899 215 226 255
114.148 1.89739 112.343 205 220 255
153.002 84.9558 118.673 231 235 255
128.51 65.6726 113.23 255 244 234
89.3137 53.1582 112.303 205 220 255
103.588 83.816 113.151 255 248 240
64.9634 58.1094 113.405 206 221 255
111.961 114.935 118.364 255 206 167
92.9503 173.651 110.825 206 221 255
134.901 144.601 115.998 255 224 199
44.5168 80.2591 114.334 181 205 255
110.588 108.798 112.712 255 51 0
102.048 119.864 115.677 255 215 183
141.237 178.378 111.773 193 212 255
107.091 79.5068 110.208 228 233 255
98.4544 122.203 118.179 207 221 255
149.397 157.83 99.8883 191 211 255
131.257 126.893 113.049 210 223 255
170.648 190.733 99.491 255 252 246
113.424 115.774 107.397 255 219 191
56.8526 122.388 110.185 198 215 255
109.57 127.825 110.224 255 229 209
111.792 120.502 107.637 237 238 255
95.6467 88.5218 113.898 237 239 255
111.156 111.465 113.883 213 225 255
113.696 116.067 106.825 230 235 255
112.061 114.469 113.609 255 218 188
152.818 84.9732 111.574 204 219 255
114.112 101.322 112.691 228 234 255
93.4258 173.471 110.917 211 224 255
110.285 102.974 71.8926 255 216 186
111.321 115.864 110.14 221 229 255
112.282 111.14 109.589 219 229 255
100.418 143.893 127.279 192 212 255
113.583 57.6186 109.384 218 228 255
111.333 88.6546 111.526 244 242 255
136.316 111.056 114.419 205 220 255
139.467 48.4285 115.122 193 213 255
194.242 97.1392 108.103 185 208 255
93.4052 173.457 110.914 220 229 255
105.425 92.7105 111.837 232 236 255
109.369 21.9625 116.383 191 211 255
105.395 111.403 110.559 255 237 222
113.037 110.373 112.811 255 240 227
123.954 69.0428 115.967 208 222 255
105.341 109.414 112.764 215 226 255
116.882 100.397 112.454 215 226 255
65.7309 28.4281 126.473 200 217 255
110.634 112.188 113.017 212 224 255
115.518 32.6678 114.883 196 215 255
110.644 110.906 112.154 255 248 239
82.6746 54.2307 113.787 189 210 255
103.784 128.721 113.106 255 170 96
167.833 133.676 95.3957 218 228 255
183.176 36.9586 114.916 188 209 255
93.4123 173.465 110.915 255 239 226
139.942 80.6587 115.704 212 224 255
93.4316 173.483 110.925 214 225 255
38.9242 194.433 108.135 212 224 255
93.3919 173.417 110.893 225 232 255
62.2888 121.494 111.825 255 247 238
147.724 99.3059 106.569 255 253 249
31.3431 181.607 109.82 191 211 255
96.3004 173.25 114.357 255 248 240
140.754 87.8514 115.04 204 219 255
113.915 120.756 106.831 255 245 235
210.384 108.665 112.323 188 209 255
132.933 171.566 112.447 187 209 255
53.8034 121.09 107.22 192 212 255
176.991 132.933 115.611 255 233 215
108.38 98.2961 112.22 255 254 250
93.3895 173.696 109.598 255 223 198
93.389 173.438 110.911 244 243 255
93.4348 173.529 110.952 229 234 255
108.348 109.488 108.812 255 237 223
137.323 123.598 108.023 218 228 255
127.903 107.422 111.052 255 244 234
100.024 178.061 114.641 214 225 255
120.769 148.679 110.622 239 240 255
92.2519 199.81 74.4721 185 208 255
109.922 113.407 111.367 233 236 255
162.558 145.774 112.907 194 213 255
134.149 78.1258 112.484 191 211 255
134.336 69.7966 108.93 207 221 255
167.078 95.4269 103.719 255 236 220
168.357 133.289 112.813 211 224 255
80.9058 122.234 122.733 202 218 255
95.1905 126.513 114.216 255 231 211
116.109 148.928 117.56 206 220 255
111.852 113.128 112.531 255 181 119
196.432 84.2513 115.584 194 213 255
162.434 101.152 106.727 182 206 255
120.428 117.61 114.593 248 245 255
48.1754 48.2102 122.146 204 220 255
102.027 82.9132 112.51 255 128 0
166.178 142.842 113.652 236 238 255
53.8778 118.463 114.064 214 225 255
60.9749 211.825 112.058 185 208 255
141.927 106.297 114.963 237 239 255
94.0151 115.829 108.831 203 219 255
150.118 68.009 117.223 194 213 255
120.612 86.6026 112.472 255 228 207
55.5436 90.9934 111.831 212 224 255
136.15 76.2366 114.43 245 244 255
213.09 141.064 112.752 197 215 255
122.406 132.046 114.635 255 218 189
115.657 122.466 109.727 210 223 255
151.128 145.634 116.284 255 223 197
128.761 57.0565 112.787 255 220 191
211.111 116.529 110.954 201 217 255
157.354 161.225 109.452 230 235 255
66.5519 181.509 113.889 199 216 255
97.1763 173.964 110.713 193 213 255
107.32 118.91 115.691 255 212 178
84.7701 171.061 113.703 215 226 255
177.367 125.32 114.482 191 211 255
105.511 76.6093 109.116 255 248 240
130.03 145.104 112.648 187 208 255
113.018 77.7886 103.655 223 231 255
113.488 108.341 107.828 255 249 255
111.281 105.589 111.567 203 219 255
86.7876 143.64 111.344 226 233 255
108.425 111.557 116.686 189 210 255
92.16 102.589 115.505 255 179 113
123.273 131.148 107.368 228 234 255
69.5012 117.831 116.093 255 196 147
93.7504 173.464 111.395 195 214 255
98.5161 176.003 110.454 190 211 255
88.635 154.837 120.724 209 222 255
111.11 113.807 116.18 255 243 232
158.556 161.629 112.299 200 217 255
129.481 115.791 113.562 255 245 235
123.114 122.798 110.898 234 237 255
170.67 124.589 111.968 201 217 255
183.932 142.826 113.397 195 214 255
171.833 146.397 114.984 195 214 255
120.805 79.2672 111.057 255 220 193
122.208 93.326 113.108 255 255 252
12.8823 151.974 110.472 187 209 255
120.196 147.383 109.751 255 251 245
168.623 137.819 111.691 255 246 237
156.5 98.2286 111.402 187 208 255
93.4647 173.498 110.964 255 243 233
134.031 161.356 113.204 203 219 255
78.4284 94.0179 105.385 213 224 255
144.474 82.6649 112.843 219 228 255
86.9461 59.6493 116.211 198 215 255
119.803 168.014 116.448 183 206 255
183.803 102.652 109.945 210 223 255
120.186 120.777 113.759 223 230 255
142.224 115.331 111.304 212 224 255
92.2964 94.2938 113.064 243 242 255
142.251 81.0972 120.456 230 235 255
140.643 153.957 116.672 208 222 255
103.552 100.779 112.148 255 255 251
130.312 87.3113 103.592 255 245 236
155.969 40.6253 111.764 185 208 255
120.318 77.0866 116.625 206 221 255
93.2414 173.235 110.923 206 220 255
129.922 123.771 115.497 255 241 229
97.7563 174.461 114.367 199 216 255
112.88 114.467 117.785 255 231 212
135.514 131.506 112.515 207 221 255
103.971 115.394 112.886 211 223 255
118.717 151.581 111.003 193 212 255
130.924 83.554 114.313 255 237 222
113.766 116.093 113.997 255 205 165
109.886 112.303 114.151 248 245 255
189.538 28.2843 111.347 185 207 255
213.311 78.5301 110.834 189 210 255
97.8418 162.944 106.016 222 230 255
150.654 180.861 109.678 238 239 255
43.3245 145.5 112.578 213 224 255
93.4812 173.913 111.203 246 244 255
112.876 32.9361 114.772 211 223 255
201.354 153.31 110.883 198 215 255
93.7683 32.1164 113.307 188 209 255
93.7523 173.109 110.742 255 254 250
44.8002 90.3231 111.111 221 229 255
148.996 93.9621 110.577 244 243 255
127.572 141.753 110.666 255 254 251
77.6926 143.804 105.629 255 230 209
77.5202 195.699 113.242 206 220 255
132.672 107.835 118.559 200 217 255
113.523 113.264 113.801 211 224 255
93.3653 173.403 110.876 230 235 255
150.574 90.7172 111.995 255 242 231
150.989 84.9582 114.568 194 213 255
135.42 86.5257 116.742 244 243 255
93.4585 151.019 114.99 255 188 133
137.936 115.512 106.503 255 238 223
154.584 85.2621 113.865 185 208 255
93.4384 173.488 110.929 202 218 255
112.155 114.943 116.583 213 225 255
132.075 81.4027 125.779 212 224 255
135.496 141.38 109.154 255 242 230
12.2196 76.4803 113.716 188 209 255
70.12 157.838 123.542 231 235 255
139.538 27.3189 114.06 201 218 255
171.06 147.339 108.936 244 243 255
100.139 142.304 112.631 203 219 255
152.126 126.616 111.197 197 215 255
103.738 195.469 112.24 193 213 255
96.0966 56.1062 114.802 184 207 255
75.1649 147.354 109.88 205 220 255
80.8474 28.444 113.472 206 220 255
112.871 115.306 112.763 244 243 255
114.927 220.598 119.893 185 207 255
81.4779 101.851 110.245 255 251 245
111.099 111.748 114.252 209 222 255
67.4351 108.372 117.17 255 250 255
54.815 81.0215 110.967 208 221 255
26.9289 143.204 110.279 192 212 255
88.1183 119.882 117.896 213 225 255
104.181 195.514 110.654 188 209 255
86.0829 17.0357 106.819 184 207 255
101.135 63.4066 108.602 193 213 255
130.096 90.4312 116.337 255 245 235
135.618 100.051 108.392 217 227 255
154.897 92.8194 111.811 197 215 255
93.4282 173.479 110.923 213 225 255
68.3527 80.8763 113.354 255 251 246
75.3587 136.308 108.605 255 214 181
93.4219 173.474 110.92 222 230 255
61.6984 98.857 115.667 191 211 255
115.547 141.226 112.942 243 242 255
93.385 173.436 110.917 204 219 255
161.411 112.944 113.403 230 235 255
68.982 110.728 110.418 255 219 191
116.466 122.79 115.054 216 227 255
73.356 217.354 116.215 185 208 255
166.649 63.0262 109.096 191 211 255
113.189 115.389 115.132 232 236 255
106.518 108.376 112.499 255 240 226
117.989 75.2752 112.753 199 217 255
143.968 78.7647 110.387 203 219 255
111.868 111.119 113.449 228 233 255
114.914 113.871 111.12 255 190 137
130.021 122.411 112.009 255 220 193
88.1593 174.603 112.476 242 242 255
55.1823 80.0112 105.689 206 221 255
110.667 110.219 113.277 255 232 213
13.3142 120.205 110.316 226 232 255
108.683 112.514 111.05 255 246 236
111.85 112.767 113.85 255 250 244
110.935 114.382 110.768 233 236 255
62.2392 123.259 111.76 223 231 255
79.0866 135.269 109.17 210 223 255
161.864 142.187 111.611 189 210 255
193.244 63.7665 109.778 204 219 255
167.607 18.6601 111.96 205 220 255
161.725 129.147 114.868 235 238 255
121.621 155.233 112.795 211 223 255
115.266 137.525 110.689 255 242 230
85.2708 135.509 114.105 255 244 234
72.5962 85.434 116.081 218 228 255
132.122 72.5031 119.79 191 211 255
113.397 187.95 111.124 182 206 255
40.9736 46.2851 115.57 180 204 255
93.2636 173.751 110.706 205 220 255
142.721 133.098 115.7 255 238 223
54.0759 107.8 111.462 199 216 255
127.639 170.608 112.054 188 209 255
54.6763 171.98 113.544 185 207 255
52.7535 107.498 113.481 205 220 255
63.4761 139.292 112.08 210 223 255
111.531 103.595 113.108 255 239 226
147.089 124.515 108.302 207 221 255
136.973 32.2249 112.016 217 227 255
144.216 14.5494 112.804 182 206 255
90.7617 96.9812 106.979 206 221 255
147.876 19.4574 109.34 195 214 255
196.364 142.677 115.656 182 206 255
71.7217 87.0087 113.563 226 233 255
120.218 119.472 110.753 255 249 242
93.4319 173.457 110.906 255 244 233
30.6675 123.101 114.227 223 231 255
54.8359 114.638 114.618 242 242 255
163.668 167.269 114.431 184 207 255
163.749 26.7012 115.068 196 215 255
42.9643 142.398 116.483 189 210 255
128.151 51.0699 116.864 196 214 255
110.932 110.912 108.684 220 229 255
107 119.98 111.535 255 252 248
114.846 125.69 110.288 255 205 165
8.02811 69.6292 115.085 190 211 255
203.199 129.137 113.213 181 205 255
3.54446 111.242 116.472 189 210 255
112.076 122.319 110.213 216 227 255
158.642 91.8438 110.069 255 255 252
218.729 129.896 111.241 195 214 255
64.499 132.089 110.65 197 215 255
158.803 70.5414 113.836 197 215 255
127.681 185.487 111.017 193 213 255
86.972 144.714 111.93 246 244 255
108.152 115.152 112.417 253 248 255
93.402 173.453 110.913 255 248 240
112.634 111.365 113.826 255 250 243
169.477 117.215 118.967 226 232 255
110.003 113.391 113.714 255 121 0
62.5437 120.551 112.002 195 214 255
211.408 60.5572 112.062 192 212 255
27.8371 107.003 112.621 188 209 255
91.2646 113.859 118.629 255 254 250
126.152 166.476 111.387 184 207 255
39.5606 110.506 112.23 192 212 255
81.1455 100.894 111.268 255 251 245
60.3662 132.595 108.968 255 217 188
110.08 109.894 111.235 255 243 232
127.301 109.785 111.922 255 221 194
211.1 110.332 112.609 211 224 255
160.909 98.1607 113.88 240 240 255
208.905 118.205 115.416 181 205 255
109.229 150.687 110.207 255 166 87
156.907 107.762 114.153 209 222 255
103.154 126.699 110.353 202 218 255
67.4112 132.765 112.612 191 211 255
93.644 136.775 114.002 210 223 255
76.3846 44.3189 111.721 204 220 255
148.705 96.7636 112.62 255 243 232
135.575 101.394 107.647 255 246 236
108.729 161.591 109.287 255 140 24
68.5197 77.7144 110.246 196 214 255
99.3985 174.295 113.556 255 253 249
131.891 63.3834 114.867 212 224 255
113.233 115.165 106.724 219 228 255
120.589 139.007 110.636 206 220 255
154.377 11.8453 112.261 185 208 255
101.586 106.837 111.546 206 220 255
93.2667 173.093 111.133 189 210 255
46.8299 73.5789 120.287 203 219 255
144.973 91.8223 110.085 226 232 255
214.846 101.34 116.634 207 221 255
116.52 81.2044 114.425 255 246 236
126.947 73.5516 118.191 255 231 212
70.0087 151.149 113.383 214 226 255
93.426 173.477 110.922 195 214 255
51.8384 119.118 118.166 197 215 255
78.0715 157.588 117.885 203 219 255
111.956 131.393 112.846 255 221 195
195.739 62.8858 111.562 196 214 255
101.798 79.964 109.941 211 223 255
164.529 126.461 113.143 203 219 255
166.718 141.383 112.078 193 212 255
9.85345 124.289 112.024 190 211 255
93.4167 173.468 110.918 203 219 255
80.8683 61.4294 113.929 186 208 255
111.766 115.788 113.019 255 252 246
166.739 112.752 115.065 199 216 255
92.8685 173.457 110.817 240 240 255
112.145 114.884 116.328 255 181 118
172.751 119.9 104.777 198 216 255
109.191 122.646 108.673 255 196 149
93.5022 173.521 110.946 192 212 255
136.676 68.2677 118.748 210 223 255
12.6703 136.149 112.024 201 217 255
141.398 135.384 99.5613 198 216 255
161.401 109.775 111.051 255 248 241
156.883 92.0185 117.306 252 247 255
92.4326 74.9382 109.582 192 212 255
82.3804 182.756 113.095 206 221 255
52.8615 119.065 114.204 255 253 249
101.948 106.858 112.144 244 243 255
54.8661 96.5941 108.948 196 214 255
93.534 173.704 111.081 200 217 255
121.893 195.411 113.259 202 218 255
108.042 93.6251 107.502 210 223 255
102.65 110.226 111.707 255 211 175
168.201 106.2 104.608 207 221 255
135.65 137.815 114.91 199 216 255
209.827 155.603 111.358 185 207 255
162.103 56.7835 110.747 190 211 255
130.821 150.967 111.279 255 254 250
136.662 180.449 111.67 213 225 255
99.6858 78.4318 115.453 199 216 255
93.4216 173.473 110.92 206 221 255
169.268 146.526 105.13 182 206 255
93.4136 173.465 110.917 180 204 255
107.118 118.438 113.642 255 42 0
113.523 82.1101 111.815 255 241 228
141.861 108.514 112.619 255 250 255
186.548 15.7429 110.598 193 213 255
144.057 78.2187 121.15 195 214 255
82.838 126.525 108.879 253 248 255
110.497 114.055 117.761 255 237 222
108.542 101.251 118.039 227 233 255
163.888 159.544 140.537 197 215 255
93.3747 173.417 110.906 196 214 255
121.871 56.7275 111.067 185 207 255
93.3761 173.416 110.919 206 221 255
107.485 165.086 109.172 186 208 255
98.0713 101.586 109.784 218 228 255
136.635 16.4472 112.259 198 216 255
120.725 95.5885 115.561 255 253 249
93.0221 35.8874 112.428 193 212 255
103.881 24.8349 113.148 194 213 255
146.229 156.957 112.592 205 220 255
140.503 180.458 116.162 190 211 255
65.11 132.47 114.413 214 225 255
11.3159 86.181 115.694 201 217 255
94.8509 136.806 108.311 206 221 255
97.4493 123.871 116.636 211 224 255
110.009 109.474 113.104 202 218 255
105.694 82.4392 115.992 208 222 255
109.737 86.237 115.511 217 227 255
87.3372 70.0551 112.991 226 232 255
94.451 115.384 112.038 226 232 255
191.852 162.589 109.574 192 212 255
112.763 117.393 108.721 206 220 255
46.2973 60.6548 118.75 231 236 255
84.1894 137.876 110.547 215 226 255
112.958 102.478 113.081 255 252 247
221.313 97.8104 115.892 189 210 255
93.2398 182.156 109.889 202 218 255
86.5159 180.252 111.403 185 207 255
105.578 80.1477 113.513 203 219 255
93.4176 173.47 110.918 208 222 255
44.5241 72.7201 110.905 196 215 255
92.7326 174.074 110.943 212 224 255
134.737 63.693 113.96 189 210 255
130.547 129.813 112.821 255 236 220
65.3435 132.287 105.159 253 247 255
120.157 137.923 101.974 228 234 255
104.746 136.18 111.199 244 243 255
67.3201 38.8448 87.4787 223 231 255
46.3323 39.7615 114 179 203 255
117.245 110.204 108.092 255 146 40
82.5061 77.5211 110.72 255 252 247
102.679 141.122 116.959 206 221 255
98.9795 171.066 114.732 238 239 255
175.048 133.737 106.127 200 217 255
125.924 163.967 74.1351 195 214 255
113.877 119.987 108.99 255 145 36
120.064 80.8181 111.338 252 247 255
50.7831 128.57 114.064 255 244 234
42.1423 78.7219 112.025 186 208 255
106.515 107.885 111.651 255 229 208
82.9372 169.595 114.582 201 218 255
169.447 116.212 114.137 201 217 255
156.145 143.524 111.382 195 214 255
94.4919 129.012 114.758 223 231 255
89.0879 93.6261 126.229 217 227 255
69.2782 103.462 106.712 209 222 255
116.029 125.413 109.794 211 224 255
52.779 69.7531 104.712 189 210 255
137.982 78.8918 112.566 255 211 177
90.3147 134.021 119.065 240 241 255
93.2944 173.379 110.951 255 248 241
184.371 111.525 112.26 255 241 229
166.037 155.803 114.306 191 211 255
114.943 113.363 108.55 218 228 255
93.4276 173.479 110.923 200 217 255
208.284 99.8138 110.018 187 208 255
114.806 145.605 106.621 255 230 210
0.149686 111.468 110.732 186 208 255
92.8636 203.579 110.877 194 213 255
50.463 123.359 190.123 205 220 255
99.4261 94.1206 110.764 255 220 193
72.0341 10.7608 101.134 195 214 255
5.49325 125.055 116.173 196 214 255
84.8551 141.458 111.948 246 244 255
115.005 96.1752 113.631 255 228 206
74.5413 63.9394 113.817 204 219 255
69.6179 174.014 113.87 191 211 255
55.0132 56.9585 119.208 209 223 255
81.5766 166.091 111.314 214 225 255
108.054 110.935 111.504 255 222 196
173.265 54.9363 111.833 201 217 255
111.234 151.866 111.19 218 227 255
99.9566 114.086 112.853 234 237 255
121.351 142.184 114.807 255 250 244
66.5067 117.121 112.301 197 215 255
149.538 78.402 129.093 198 215 255
102.26 111.533 111.646 255 141 26
88.242 160.501 111.968 197 215 255
103.384 113.342 110.775 249 245 255
93.4263 173.478 110.922 214 225 255
93.3704 173.412 110.912 184 207 255
177.339 94.6502 113.298 200 217 255
105.129 89.2107 112.543 255 229 207
111.078 104.76 112.873 200 217 255
171.255 119.034 110.864 218 228 255
94.2005 161.219 112.654 255 251 246
65.0354 98.9033 117.464 214 226 255
102.067 137.828 108.691 255 252 246
179.4 132.348 118.692 204 219 255
115.552 113.494 112.682 220 229 255
153.868 30.7967 114.265 205 220 255
115.441 120.682 109.664 238 239 255
104.575 167.128 107.951 255 247 238
163.107 184.789 115.642 226 232 255
118.231 77.8017 111.124 255 220 193
109.906 160.358 114.728 208 222 255
78.7413 88.6538 109.895 192 212 255
44.7132 218.952 109.73 180 204 255
73.3968 159.917 111.135 254 248 255
120.686 118.57 112.482 255 203 161
89.8069 124.751 107.752 217 227 255
93.5663 173.454 110.978 255 252 247
87.4482 119.893 112.874 255 218 188
93.4165 173.468 110.918 210 223 255
93.4416 173.491 110.933 206 220 255
110.967 122.841 114.922 223 231 255
138.411 114.825 112.934 246 244 255
70.4622 129.924 113.15 222 230 255
104.989 116.837 112.923 223 231 255
147.411 178.968 95.2818 190 211 255
93.5035 173.561 111.003 255 253 249
109.077 110.272 115.414 255 242 230
96.6336 69.9142 114.844 205 220 255
63.7446 78.9502 110.131 255 232 214
160.583 167.256 106.492 196 214 255
147.692 57.8671 118.097 186 208 255
39.4051 82.017 109.113 197 215 255
93.4972 173.352 110.88 254 249 255
96.1237 75.1204 113.133 189 210 255
34.3619 137.833 111.402 192 212 255
131.694 207.064 106.591 196 214 255
9.1069 106.964 110.483 203 219 255
76.7227 68.6366 112.335 202 218 255
63.1076 124.263 115.917 208 222 255
157.757 85.5898 115.073 208 222 255
101.753 153.334 112.555 255 232 213
14.3331 71.9716 115.191 196 214 255
149.283 123.393 107.608 255 255 252
81.1083 177.508 113.541 220 229 255
202.209 62.5767 110.752 224 231 255
114.97 117.617 113.061 208 222 255
163.738 107.923 112.961 204 219 255
81.946 105.321 110.715 212 224 255
42.2861 138.41 108.679 209 222 255
42.7594 126.613 112.971 183 206 255
117.422 111.901 110.745 255 238 224
159.039 111.737 111.337 220 229 255
133.388 57.8965 114.936 210 223 255
51.7857 130.741 104.036 230 235 255
100.93 98.8828 111.326 255 226 202
102.119 124.629 107.618 255 237 221
117.141 99.3793 109.83 255 248 240
125.069 1.47447 106.335 198 215 255
93.4079 173.419 110.888 225 232 255
182.186 90.0286 107.81 197 215 255
126.747 185.087 111.988 181 205 255
81.8413 129.611 109.816 255 253 249
129.977 190.61 110.868 193 213 255
109.486 122.695 109.639 255 218 189
165.734 109.34 118.994 204 219 255
189.132 17.1506 103.952 190 210 255
174.494 94.0387 116.024 244 242 255
75.9316 75.8166 111.68 194 213 255
110.294 111.59 112.156 208 221 255
134.605 73.7941 123.263 201 218 255
138.477 53.187 114.384 255 246 237
122.155 178.834 110.361 191 211 255
144.883 149.911 113.592 192 212 255
126.168 85.6308 106.369 219 228 255
110.565 109.027 112.631 255 250 243
12.5405 177.429 112.918 199 216 255
54.5899 72.3741 106.214 199 216 255
93.4692 173.57 110.981 223 231 255
191.384 163.158 113.735 183 206 255
50.1147 83.8793 110.682 204 219 255
62.5489 87.5563 108.795 255 250 255
114.373 78.1535 111.313 255 248 240
91.1667 155.195 123.724 243 242 255
122.572 88.4677 118.027 194 213 255
156.131 95.5301 119.453 201 218 255
93.5538 76.4044 108.669 210 223 255
219.302 144.85 115.742 188 209 255
220.216 140.462 113.183 195 214 255
102.039 125.973 116.011 215 226 255
25.3985 167.173 114.184 184 207 255
207.701 148.444 115.208 193 212 255
163.558 167.607 115.149 209 222 255
155.374 10.7543 111.601 192 212 255
69.1057 52.1724 104.887 199 216 255
107.501 161.706 106.694 255 227 204
13.0986 139.545 117.027 177 202 255
151.945 182.907 115.485 180 205 255
126.597 201.961 106.632 188 209 255
125.004 114.203 111.267 255 232 213
105.678 140.334 115.85 255 236 219
104.79 85.3352 116.842 235 237 255
97.8001 170.236 119.209 218 228 255
16.4232 106.032 108.782 207 221 255
125.107 56.8241 111.02 218 228 255
149.91 68.1713 111.393 214 225 255
98.0801 91.3213 107.328 214 225 255
124.306 148.046 112.017 239 240 255
77.1144 145.536 106.848 255 204 164
78.2255 107.118 113.078 255 250 243
148.468 136.864 112.413 207 221 255
113.054 110.486 119.796 191 211 255
131.284 70.3018 120.181 215 226 255
114.321 114.446 111.359 255 217 186
131.814 81.8592 111.196 255 249 255
107.809 113.366 115.005 255 181 118
121.792 187.962 108.968 187 209 255
112.305 117.828 108.952 255 228 206
149.033 37.0342 112.243 191 211 255
20.407 127.449 111.609 193 212 255
61.804 56.0292 105.864 208 222 255
42.2759 135.27 111.66 204 219 255
101.12 124.042 112.826 206 221 255
112.051 82.546 113.755 228 233 255
83.5396 196.783 113.144 179 204 255
161.451 157.589 112.409 201 217 255
44.495 53.5561 105.663 237 239 255
139.917 129.269 115.214 192 212 255
54.9023 100.548 111.326 201 217 255
113.531 150.027 119.127 229 234 255
61.816 110.737 112.166 231 236 255
109.45 111.465 111.927 208 222 255
120.503 201.529 114.052 203 219 255
55.434 88.3872 112.31 198 216 255
9.66549 138.756 109.482 196 214 255
91.7886 101.356 112.401 199 216 255
121.202 126.886 114.27 255 180 116
35.3365 111.9 110.198 191 211 255
66.4974 56.8294 111.253 195 214 255
115.909 118.071 110.83 237 239 255
57.038 103.265 110.461 192 212 255
96.9843 96.6388 112.177 212 224 255
103.224 102.715 112.546 255 252 246
21.0027 72.9209 110.759 203 218 255
139.664 193.28 102.638 200 217 255
115.659 162.379 111.111 213 225 255
119.507 75.2386 117.068 209 222 255
117.097 84.3074 112.912 230 235 255
170.193 125.86 112.204 205 220 255
93.454 173.447 110.896 255 236 220
59.1062 63.4344 110.555 193 212 255
93.2132 173.503 110.742 229 234 255
79.5684 176.735 113.754 197 215 255
137.676 73.1363 115.94 200 217 255
149.308 82.1645 102.174 255 250 255
55.0984 131.167 113.546 213 224 255
142.391 97.1272 108.733 203 219 255
93.4254 173.477 110.922 194 213 255
115.455 126.059 113.756 200 217 255
58.3919 115.644 111.975 209 222 255
199.034 143.379 114.655 195 214 255
115.341 76.2284 114.558 216 227 255
154.453 94.6767 112.704 255 218 189
112.313 107.721 108.857 246 244 255
108.91 156.066 117.642 207 221 255
134.696 74.668 122.663 197 215 255
99.9484 109.394 114.095 255 214 182
93.7921 173.958 111.167 255 236 220
55.1787 74.2517 110.119 255 255 252
162.685 75.622 110.588 202 218 255
127.681 130.866 110.641 255 246 236
141.501 181.304 142.504 218 228 255
93.3854 173.435 110.908 203 219 255
66.5804 44.1681 110.452 208 222 255
98.3545 110.141 112.634 208 222 255
144.165 71.3623 114.096 228 234 255
97.5847 70.3862 115.982 197 215 255
27.8615 64.5887 112.586 201 218 255
115.189 113.783 108.922 230 235 255
57.812 177.071 110.767 191 211 255
12.9682 108.9 114.658 186 208 255
78.3684 35.2791 109.614 202 218 255
108.987 178.772 110.271 224 231 255
132.19 87.2097 112.297 255 253 248
109.038 117.524 109.913 255 213 179
95.9083 169.899 109.361 196 214 255
173.425 122.188 104.214 223 231 255
111.132 130.838 111.55 255 197 151
107.588 197.085 111.648 198 215 255
32.6907 110.192 110.232 210 223 255
53.8009 28.0413 104.614 197 215 255
143.444 174.078 111.689 215 226 255
99.8365 144.158 109.819 238 239 255
108.418 120.485 108.439 221 230 255
203.135 175.767 108.673 183 206 255
109.153 62.753 117.717 255 248 240
150.935 105.056 110.583 235 238 255
46.0192 148.506 111.536 223 231 255
111.427 194.819 109.627 194 213 255
82.8739 24.4158 104.834 193 212 255
40.2353 80.1678 110.607 188 209 255
117.516 204.845 121.951 203 218 255
37.3005 92.5506 114.622 195 214 255
110.45 109.286 111.009 255 221 194
87.645 168.885 110.285 200 217 255
110.287 113.079 113.598 233 237 255
217.745 107.478 114.073 181 205 255
38.086 106.052 127.727 206 220 255
117.464 114.471 106.827 255 220 192
138.4 15.0666 117.862 182 206 255
57.4727 105.427 112.036 230 235 255
110.142 113.658 113.122 255 227 205
121.955 77.8286 112.533 223 231 255
118.668 197.963 120.47 194 213 255
163.24 90.5171 105.27 216 226 255
115.718 114.03 110.391 255 246 237
66.3289 137.503 109.491 198 216 255
45.9634 93.6939 118.347 228 233 255
84.2437 122.118 112.482 214 225 255
117.066 13.162 110.899 191 212 255
92.0756 135.975 113.161 255 218 189
93.3321 173.321 110.931 222 230 255
165.479 157.882 113.324 186 208 255
64.3451 107.493 110.842 214 225 255
165.541 106.761 106.453 200 217 255
131.267 24.6864 110.387 198 215 255
110.699 113.579 112.614 255 223 198
147.562 82.3229 117.678 192 212 255
126.526 50.6351 113.325 221 229 255
84.6478 19.8247 102.757 205 220 255
97.6191 173.845 111.324 186 208 255
162.097 181.686 110.316 186 208 255
77.21 29.5602 108.101 190 211 255
111.006 108.84 110.052 201 218 255
141.119 80.6473 119.409 222 230 255
98.6217 200.306 111.93 209 222 255
134.307 166.136 111.342 203 219 255
109.121 110.925 115.27 211 223 255
110.962 113.214 113.544 255 128 0
82.0433 117 105.923 219 228 255
132.854 88.9356 118.16 239 240 255
211.2 56.4316 108.347 185 208 255
180.366 99.1477 111.371 200 217 255
86.7495 22.0854 102.455 192 212 255
169.709 151.319 101.016 190 211 255
62.6324 217.249 112.278 184 207 255
115.971 121.545 109.743 255 243 232
142.955 86.7525 114.721 255 235 219
172.21 127.787 131.526 210 223 255
35.3434 148.752 108.993 183 206 255
21.6276 118.816 115.355 186 208 255
160.444 103.811 111.986 255 231 212
167.778 143.58 119.054 198 216 255
152.698 58.5211 111.036 255 252 247
108.136 117.164 115.699 255 220 192
73.2637 207.558 104.489 183 206 255
110.665 111.566 112.722 255 231 211
93.428 173.479 110.923 197 215 255
93.3812 173.429 110.91 187 208 255
93.6771 173.445 111.13 199 216 255
109.192 109.977 112.429 255 111 0
114.62 90.2633 108.929 255 253 249
120.468 114.175 112.277 255 250 244
117.229 200.154 116.099 207 221 255
89.6108 65.3063 107.57 226 232 255
74.1068 119.07 109.918 255 243 231
53.4808 79.848 109.072 245 243 255
111.354 111.608 113.34 240 240 255
86.8304 68.9652 110.472 200 217 255
111.283 114.234 114.477 255 228 206
113.394 99.2946 113.117 255 242 231
71.3746 41.141 113.668 245 244 255
94.292 173.604 111.138 250 246 255
27.7974 182.524 110.922 180 204 255
111.825 22.9407 110.96 185 208 255
108.738 111.342 113.526 255 245 236
209.972 156.126 109.245 211 224 255
118.494 157.945 112.71 226 232 255
93.7301 173.254 110.538 255 240 227
126.069 114.027 117.213 192 212 255
184.498 98.2635 114.464 205 220 255
65.689 33.6582 100.908 197 215 255
29.857 91.6206 114.771 180 204 255
144.134 58.3131 115.8 219 228 255
91.5547 207.52 108.434 182 206 255
79.5348 57.5265 110.678 225 232 255
202.061 34.5401 112.013 225 232 255
110.497 112.155 116.5 255 252 247
200.114 175.932 110.284 204 219 255
121.898 112.914 112.19 255 246 237
116.353 132.559 111.309 228 234 255
45.9001 71.4344 112.59 200 217 255
171.827 129.496 101.746 203 219 255
155.887 141.123 110.058 211 224 255
103.231 114.578 111.374 246 244 255
93.4173 173.469 110.918 191 212 255
93.2663 172.953 110.943 212 224 255
204.357 88.706 112.567 191 211 255
62.3755 38.8764 92.285 191 211 255
118.413 134.97 113.868 255 218 189
128.202 75.6963 114.028 223 231 255
104.34 81.4431 111.307 188 209 255
107.885 151.025 102.516 232 236 255
81.6165 102.699 107.759 226 232 255
153.954 96.2358 115.33 219 228 255
51.0782 70.5576 116.197 198 216 255
93.4338 173.484 110.926 204 219 255
136.556 150.74 106.94 215 226 255
169.942 171.444 129.728 200 217 255
51.1941 124.835 111.881 205 220 255
114.496 105.832 112.375 255 176 109
101.302 119.68 110.986 213 225 255
124.297 116.027 116.004 255 255 252
115.409 110.946 114.031 255 184 124
99.0387 104.497 112.749 255 227 204
52.1663 67.5304 107.154 217 227 255
41.8122 110.468 113.112 193 212 255
184.758 96.4239 112.634 195 214 255
51.7718 91.3953 97.4346 192 212 255
124.349 94.7856 118.905 255 239 225
122.491 92.0105 100.451 255 250 244
18.6944 81.5691 114.887 191 211 255
87.8856 72.4986 108.397 255 247 239
133.002 136.73 111.339 229 234 255
142.47 111.596 107.491 232 236 255
80.566 144.474 113.464 227 233 255
154.158 164.948 112.802 203 219 255
93.4085 173.46 110.915 206 220 255
140.744 59.877 116.064 226 233 255
158.303 30.4923 107.403 184 207 255
176.313 121.044 148.293 187 209 255
52.5376 80.7615 123.812 189 210 255
56.3461 128.264 108.793 192 212 255
106.281 110.503 111.332 255 238 224
103.642 85.7584 119.764 255 163 80
72.8176 139.932 112.664 220 229 255
117.689 86.9323 114.742 214 225 255
197.022 175.996 112.041 194 213 255
133.346 144.928 109.546 227 233 255
136.066 76.5305 123.294 214 225 255
166.491 59.9378 109.328 185 208 255
80.5047 209.908 112.245 180 204 255
58.4336 79.4152 111.479 230 235 255
68.6807 125.02 114.865 255 255 252
56.3423 133.268 111.632 198 216 255
48.4039 98.2594 112.527 196 214 255
108.929 109.432 111.486 255 164 82
113.094 107.003 112.935 236 238 255
76.4487 56.6261 112.288 229 234 255
40.7884 136.531 114.03 187 209 255
93.2484 100.137 108.618 201 217 255
73.5274 65.3969 115.51 204 220 255
113.331 125.175 110.208 233 237 255
60.7941 131.599 109.826 193 213 255
124.279 113.136 114.745 225 232 255
106.157 105.414 112.618 255 232 213
88.7433 148.014 107.281 214 226 255
202.982 142.05 113.705 187 209 255
31.3474 127.02 105.826 255 225 202
123.66 151.708 111.139 213 225 255
138.75 72.4981 112.299 255 151 52
34.2631 182.093 109.512 186 208 255
113.225 115.48 116.07 255 238 223
148.326 93.9596 113.71 238 239 255
37.3876 72.6067 112.954 194 213 255
111.829 128.755 110.753 204 219 255
173.344 137.699 114.226 189 210 255
93.4169 173.469 110.918 225 232 255
111.735 112.958 114.52 243 242 255
185.543 100.414 109.051 205 220 255
96.7821 132.602 111.783 209 223 255
164.167 101.928 105.264 224 231 255
171.875 85.9297 111.733 221 229 255
163.472 146.617 112.196 192 212 255
159.12 153.716 114.172 184 207 255
110.14 93.4742 114.48 237 239 255
93.4093 173.456 110.891 194 213 255
114.935 168.535 110.959 214 226 255
113.953 115.873 114.883 252 247 255
162.683 121.178 114.56 222 230 255
108.475 142.318 113.52 255 219 190
54.5298 75.0967 117.296 192 212 255
158.812 119.018 110.082 250 246 255
159.157 136.198 111.801 198 215 255
51.0403 72.9176 114.624 233 236 255
69.2635 133.468 112.655 253 248 255
166.25 169.938 125.861 219 228 255
96.4734 211.799 111.753 196 215 255
7.6088 107.475 115.001 203 219 255
3.31822 96.0749 106.552 183 206 255
110.226 111.632 112.518 255 179 115
129.673 90.6258 110.475 207 221 255
118.133 78.6644 113.244 255 200 155
106.437 173.446 112.859 255 249 255
79.3148 141.475 112.251 201 218 255
95.7788 68.7895 116.263 226 233 255
182.855 82.9588 108.251 199 216 255
109.271 101.625 115.825 255 201 157
121.818 108.072 111.661 255 248 241
113.22 103.02 113.77 255 216 185
82.0438 81.1098 112.87 201 218 255
112.958 110.202 111.482 238 239 255
115.654 82.4381 106.166 255 240 226
146.527 83.7169 113.693 234 237 255
51.2654 61.3158 104.431 195 214 255
110.859 112.127 114.157 244 242 255
128.872 105.318 116.408 255 228 206
101.438 180.409 116.801 211 224 255
87.9877 121.042 110.549 255 237 222
86.7425 31.1762 107.174 195 214 255
67.6607 49.7739 111.318 202 218 255
172.487 135.756 109.802 198 216 255
110.416 111.132 113.533 210 223 255
114.793 110.629 108.65 255 -2147483648 0
81.3922 118.53 117.155 255 250 255
110.931 18.6428 80.7402 187 209 255
95.1483 132.569 110.941 255 200 155
93.9732 172.588 110.95 255 218 189
188.733 125.633 114.049 207 221 255
96.2635 142.488 121.809 255 250 244
57.9899 102.649 117.06 206 220 255
8.05848 121.417 112.977 185 208 255
61.5292 41.9424 102.475 186 208 255
52.3477 52.5148 93.6016 255 245 235
182.833 111.789 112.689 242 242 255
96.6962 189.338 117.537 181 205 255
56.413 95.9613 92.2192 207 221 255
93.3566 173.447 110.915 222 230 255
89.8607 172.729 111.335 205 220 255
166.207 4.39424 109.189 188 210 255
109.176 121.696 109.324 255 237 221
163.67 60.4372 114.781 204 219 255
111.345 37.9221 114.596 217 227 255
84.951 170.23 112.957 198 215 255
149.76 20.2812 111.64 192 212 255
116.756 110.278 113.492 215 226 255
105.899 106.78 110.826 255 237 222
121.496 110.135 108.7 255 222 197
109.614 127.263 109.913 255 239 225
114.197 177.691 108.666 210 223 255
149.329 166.076 111.902 185 207 255
127.817 137.958 112.893 212 224 255
126.237 82.261 116.953 195 214 255
156.658 111.336 115.248 231 235 255
100.819 93.583 113.279 255 248 241
69.064 132.283 113.811 204 220 255
93.8864 173.681 111.546 255 218 189
34.9575 150.038 111.3 199 216 255
84.8307 136.303 114.619 255 217 186
63.3253 75.6656 115.008 216 226 255
59.8445 62.5682 100.829 221 229 255
81.5779 34.0065 110.386 197 215 255
105.093 101.113 112.255 255 252 248
160.73 142.378 110.713 190 211 255
93.4239 173.476 110.921 206 221 255
85.049 64.4984 113.082 206 220 255
68.2583 65.7165 109.7 200 217 255
130.96 77.533 114.495 255 227 205
97.317 82.178 112.076 255 249 255
108.72 129.369 114.384 255 201 158
182.726 181.321 110.385 188 209 255
88.4194 208.002 112.442 197 215 255
211.091 74.6408 113.761 189 210 255
60.8171 62.9996 115.983 191 211 255
115.822 119.749 109.685 236 238 255
118.497 80.0977 114.77 212 224 255
97.0422 125.67 110.505 221 229 255
109.129 111.732 116.774 219 228 255
65.2502 78.9414 114.746 211 224 255
100.556 158.116 111.91 230 234 255
100.329 153.984 114.309 224 231 255
106.925 199.301 116.161 185 207 255
88.8521 122.091 116.439 255 139 21
53.2308 51.431 111.337 194 213 255
104.364 95.8782 113.767 255 239 225
107.279 147.105 112.312 255 255 251
125.858 54.3274 114.443 234 237 255
108.049 119.533 112.52 255 231 212
76.1387 117.576 108.001 208 222 255
65.8542 127.35 115.257 191 211 255
98.5168 26.5951 116.723 186 208 255
127.873 73.9895 115.445 226 232 255
86.4212 109.174 108.156 221 229 255
75.6817 145.408 119.069 210 223 255
56.2476 81.865 120.204 225 232 255
110.68 18.1956 110.309 200 217 255
106.44 120.436 109.88 255 235 218
212.407 54.0878 110.108 192 212 255
110.722 95.7174 115.546 255 217 188
100.328 183.601 112.763 185 207 255
135.497 19.1185 113.445 181 205 255
206.14 66.1272 115.501 178 203 255
175.873 91.5033 110.131 234 237 255
68.4088 54.6124 111.336 190 210 255
116.972 118.379 110.251 255 232 214
136.386 25.9273 111.518 188 209 255
53.9194 90.262 110.668 204 219 255
94.2244 128.248 118.927 254 248 255
111.448 112.974 113.009 255 232 213
183.885 168.207 116.754 192 212 255
204.504 29.5964 112.421 187 209 255
78.7338 42.0793 106.068 183 206 255
53.1135 80.4007 137.346 182 205 255
134.6 147.123 114.091 219 228 255
114.638 130.125 108.089 255 221 194
185.032 189.034 114.603 193 213 255
116.623 105.539 115.339 255 207 169
158.952 167.325 109.513 219 228 255
144.56 97.0249 113.936 193 212 255
83.2928 77.0538 110.778 212 224 255
105.481 124.736 114.349 206 221 255
79.2122 108.788 109.776 228 233 255
112.825 121.378 105.313 222 230 255
89.27 53.4627 111.183 184 207 255
65.2805 122.634 107.491 255 221 194
76.7442 215.627 111.511 181 205 255
163.523 126.599 116.129 189 210 255
80.6204 199.593 115.248 196 215 255
2.61462 99.2043 109.658 181 205 255
107.329 106.57 112.479 255 239 225
162.851 105.23 114.181 223 230 255
139.349 83.0876 110.757 234 237 255
41.459 198.775 110.715 185 207 255
64.5487 70.0752 101.791 201 218 255
125.298 78.3278 113.677 234 237 255
87.6979 22.8103 111.522 173 200 255
221.561 118.862 113.433 188 210 255
144.589 100.926 112.953 255 233 215
110.004 110.585 112.305 225 232 255
94.0538 174.676 110.176 215 226 255
150.264 186.945 131.034 183 206 255
134.674 38.4556 113.798 197 215 255
103.283 156.458 110.941 224 231 255
74.7565 120.747 111.238 205 220 255
105.59 71.0504 113.136 212 224 255
117.476 160.227 112.501 195 214 255
140.825 6.92246 107.72 192 212 255
111.242 86.9555 107.504 227 233 255
135.93 76.2568 120.01 209 222 255
113.201 149.794 107.628 225 232 255
110.343 112.235 114.7 230 235 255
134.744 99.9007 118.622 255 194 144
120.325 113.939 111.286 198 216 255
152.968 197.94 112.123 192 212 255
125.583 143.565 112.103 241 241 255
167.187 114.508 112.291 210 223 255
51.1575 25.2941 114.281 184 207 255
158.616 162.238 111.603 210 223 255
109.348 28.6557 111.066 195 214 255
84.6164 5.0039 107.516 210 223 255
93.3356 173.349 110.922 244 243 255
105.936 144.255 111.837 221 229 255
92.9268 39.4777 108.103 213 225 255
210.259 73.216 108.061 186 208 255
139.654 176.139 124.426 184 207 255
94.4427 171.403 110.95 196 214 255
205.954 83.7688 112.286 198 216 255
103.267 103.357 109.627 239 240 255
104.857 100.513 113.266 212 224 255
34.2554 149.74 110.097 192 212 255
110.757 113.017 113.475 221 230 255
215.548 58.079 110.516 183 206 255
113.737 117.978 112.455 229 234 255
78.1456 52.4717 115.993 217 227 255
97.957 171.645 109.951 245 243 255
93.5725 173.486 110.961 199 216 255
115.432 111.3 114.641 255 226 203
89.4829 130.575 112.225 218 228 255
127.054 70.3556 121.102 236 238 255
67.5156 137.785 107.749 211 224 255
74.2367 200.676 111.779 190 211 255
93.3844 173.432 110.911 198 216 255
139.469 50.5527 115.634 209 222 255
38.2841 112.384 113.027 198 215 255
133.784 90.7569 117.56 255 219 191
113.616 148.489 120.991 246 244 255
146.452 64.834 110.108 201 217 255
37.2959 153.233 112.613 213 224 255
63.114 130.586 109.819 210 223 255
93.1933 173.307 110.824 255 243 231
75.9008 61.162 114.548 191 211 255
72.2469 95.7297 113.597 225 232 255
106.105 54.5793 115.917 255 242 231
77.129 199.769 112.025 176 202 255
45.2771 108.431 109.911 181 205 255
69.4712 100.05 115.64 207 221 255
138.151 75.2078 124.05 209 223 255
42.4395 78.1749 113.577 204 219 255
108.818 113.403 114.053 255 251 245
90.1718 144.531 111.184 194 213 255
109.321 118.775 110.793 236 238 255
104.385 168.141 113.837 255 247 239
115.154 88.9577 110.903 255 255 252
150.882 183.785 108.71 201 218 255
79.1038 142.723 103.01 211 223 255
83.2409 216.53 112.843 191 211 255
91.6653 92.8324 112.151 255 219 190
93.5262 173.527 111.017 255 254 249
93.4736 173.515 110.954 207 221 255
89.1743 23.3408 113.758 189 210 255
131.207 75.5682 108.017 212 224 255
177.127 184.617 117.559 192 212 255
152.025 65.6353 116.703 243 242 255
177.444 125.728 96.7081 221 230 255
194.576 75.5706 113.072 188 210 255
113.15 99.3373 114.612 204 220 255
60.2296 60.3645 110.839 248 245 255
112.866 157.364 110.586 211 223 255
117.884 127.216 112.159 255 218 188
60.4275 185.413 110.559 197 215 255
189.635 121.295 112.801 187 209 255
26.7912 81.0663 112.548 192 212 255
109.143 111.852 116.72 255 220 192
104.416 147.462 112.767 235 238 255
152.893 123.851 116.741 195 214 255
129.278 119.406 116.101 255 215 184
58.429 163.645 124.039 191 211 255
112.492 116.645 113.453 223 231 255
142.843 158.519 110.489 205 220 255
123.334 129.14 117.553 214 225 255
128.783 73.8479 111.723 215 226 255
49.1834 86.6091 117.712 200 217 255
82.5788 33.57 111.869 188 210 255
97.3136 161.331 114.075 203 219 255
95.2633 97.1308 116.31 207 221 255
108.287 151.511 112.72 192 212 255
84.4183 13.9749 115.12 189 210 255
181.633 135.849 107.112 255 225 202
101.019 151.34 112.558 255 248 240
151.53 109.294 108.807 218 228 255
57.9597 111.473 102.767 220 229 255
99.0685 189.904 110.982 227 233 255
114.794 102.919 110.367 239 240 255
48.8658 179.175 111.358 229 234 255
77.0828 140.346 112.421 213 225 255
93.4166 173.468 110.918 183 206 255
122.757 125.032 114.051 255 199 155
120.774 74.653 114.628 194 213 255
49.2806 188.376 115.47 179 204 255
54.1789 124.492 96.025 223 230 255
122.529 87.6207 115.247 228 233 255
104.292 117.467 110.259 219 228 255
114.995 141.57 112.859 205 220 255
9.92126 69.8444 115.949 178 203 255
141.915 27.4913 109.741 201 218 255
163.074 132.527 109.255 211 224 255
78.9596 49.2009 110.254 190 211 255
182.47 184.425 114.127 188 209 255
119.478 139.106 110.002 208 222 255
146.344 90.4773 116.888 198 216 255
101.192 138.416 106.391 210 223 255
38.6983 37.7137 106.777 189 210 255
150.64 133.221 115.264 223 230 255
74.7206 68.2351 112.702 190 210 255
150.245 104.263 117.529 209 222 255
143.765 79.4111 110.5 200 217 255
104.785 116.073 109.64 255 189 134
170.562 114.847 110.43 198 216 255
100.125 106.518 109.342 252 247 255
158.24 124.629 116.082 198 215 255
99.3919 23.1404 110.423 198 216 255
77.8303 51.2481 108.127 205 220 255
86.6295 103.71 116.425 255 237 222
112.844 142.689 107.186 255 249 255
158.597 163.608 107.52 208 222 255
86.1703 65.7969 110.897 255 250 255
93.401 173.452 110.913 255 243 231
78.9472 128.697 105.905 255 242 230
28.7635 92.7647 110.587 198 216 255
93.1163 173.027 110.849 216 226 255
39.9183 139.882 112.64 197 215 255
92.8086 173.158 111.097 188 209 255
50.9876 107.511 111.268 204 219 255
58.4978 87.2543 109.22 196 214 255
72.6087 63.4904 111.961 217 227 255
131.662 73.9165 112.681 249 245 255
165.02 127.413 106.662 205 220 255
167.343 112.984 105.401 190 211 255
24.4286 177.243 113.498 183 206 255
186.504 71.3372 113.46 189 210 255
93.532 173.535 110.979 220 229 255
93.4302 173.481 110.924 197 215 255
198.848 90.906 110.484 183 206 255
158.59 103.292 99.3745 194 213 255
116.239 139.655 113.027 255 244 234
36.2775 154.26 115.953 187 209 255
93.5713 99.6961 115.604 255 233 215
76.727 42.8204 112.365 243 242 255
99.8313 190.374 111.429 207 221 255
103.002 99.243 110.949 255 220 192
7.52783 106.209 112.199 199 216 255
89.5989 116.255 114.435 198 215 255
123.697 129.059 106.146 255 232 213
53.5624 104.929 94.3211 180 204 255
167.237 118.589 119.782 207 221 255
68.0637 171.628 110.846 193 213 255
216.145 102.637 109.56 228 234 255
108.53 108.374 112.203 229 234 255
110.207 114.32 111.389 255 255 252
155.793 78.4212 110.963 206 221 255
93.4695 173.522 110.934 255 254 251
142.023 25.5628 114.516 199 216 255
93.4173 173.469 110.918 204 220 255
131.592 131.126 112.242 214 225 255
80.0926 165.741 118.776 230 235 255
105.954 110.286 108.9 255 254 250
38.5439 147.467 107.171 194 213 255
128.552 122.856 110.595 190 211 255
106.412 126.643 116.676 255 253 249
93.4335 173.485 110.927 222 230 255
94.3441 174.35 110.949 201 217 255
190.782 136.096 118.775 186 208 255
8.22634 115.827 110.718 199 216 255
121.915 115.114 112.194 229 234 255
95.0295 92.1684 110.587 231 235 255
143.483 126.324 114.841 207 221 255
51.9308 87.4545 103.906 197 215 255
218.024 110.667 111.648 192 212 255
43.9125 72.3588 104.932 189 210 255
135.03 91.7719 113.216 227 233 255
93.4468 173.496 110.934 255 215 183
62.9996 19.187 110.385 216 226 255
172.773 135.369 103.033 185 208 255
81.3919 34.8797 108.181 203 219 255
79.1266 103.494 107.847 211 223 255
89.9477 115.656 114.061 255 240 227
93.4426 173.493 110.931 255 249 241
117.221 138.711 115.767 213 225 255
94.7895 172.92 110.771 244 242 255
165.314 135.48 109.545 238 239 255
111.71 111.597 114.212 200 217 255
171.962 122.667 106.711 200 217 255
86.6694 67.299 112.681 255 198 151
75.399 44.0906 111.704 181 205 255
60.273 124.558 114.3 194 213 255
126.37 91.7166 119.735 246 244 255
109.961 11.4497 139.097 189 210 255
15.0463 73.5968 114.736 186 208 255
106.219 167.079 108.019 221 229 255
105.503 97.0017 113.505 255 255 251
117.683 37.8374 112.383 213 225 255
131.916 55.2587 111.238 193 213 255
110.773 120.032 109.934 197 215 255
79.9807 68.6966 114.264 207 221 255
87.5466 154.217 114.062 219 228 255
161.628 161.751 109.674 255 247 238
105.741 184.934 109.83 194 213 255
79.9347 36.9969 120.756 205 220 255
177.406 107.869 109.83 203 218 255
92.3402 53.5677 112.998 243 242 255
97.2513 156.171 107.306 255 246 237
133.852 82.8531 113.822 255 226 202
30.6892 148.88 115.481 208 221 255
114.944 188.338 112.082 187 208 255
146.165 139.315 73.0138 206 220 255
64.3393 138.106 110.108 192 212 255
42.7997 57.3165 117.227 232 236 255
41.9519 142.167 108.036 228 233 255
195.683 113.694 117.782 194 213 255
89.1415 80.4261 115.061 236 238 255
93.7396 172.814 111.116 255 254 250
106.386 89.0249 109.347 255 217 186
76.6079 81.197 116.34 255 215 183
93.4188 173.471 110.919 189 210 255
118.177 140.872 110.169 255 211 176
26.8692 192.321 111.967 193 212 255
107.157 13.9348 94.0595 203 219 255
