ply
format ascii 1.0
element vertex 1342
property float x
property float y
property float z
property uchar red
property uchar green
property uchar blue
end_header
131.278 98.6669 104.118 232 236 255
148.514 143.702 111.55 233 237 255
98.5343 117.826 92.0657 255 250 243
107.702 143.078 120.383 214 225 255
174.458 150.673 113.361 211 224 255
145.664 83.9907 120.625 209 222 255
106.683 95.0938 105.209 208 222 255
173.947 161.608 109.771 194 213 255
83.9272 54.5086 109.142 194 213 255
130.219 90.2613 105.953 224 231 255
124.022 112.111 125.077 229 234 255
127.63 59.9858 117.245 235 238 255
63.0077 137.921 117.585 225 232 255
131.601 83.9196 101.345 203 219 255
169.889 22.7907 113.081 207 221 255
185.91 129.565 109.47 187 209 255
122.372 133.175 115.919 246 244 255
106.741 62.349 106.212 255 184 124
92.5969 71.7315 108.8 212 224 255
105.261 126.784 126.25 255 189 134
167.237 171.817 114.208 187 209 255
202.855 124.43 112.312 201 217 255
114.557 101.878 94.6931 240 240 255
69.3657 72.6885 108.754 210 223 255
64.0924 44.4356 111.365 199 216 255
123.639 115.338 101.17 230 235 255
71.1096 142.696 109.318 196 214 255
79.4293 116.06 108.526 218 228 255
171.377 137.617 112.241 255 236 220
122.278 114.078 122.57 205 220 255
146.487 140 102.181 227 233 255
116.8 30.6628 110.954 199 216 255
158.971 58.2784 111.406 205 220 255
92.503 59.1263 106.266 191 211 255
141.465 113.673 121.017 255 231 211
178.244 109.124 117.611 204 219 255
106.175 89.4247 116.414 214 225 255
159.038 61.4537 112.822 194 213 255
108.27 43.3035 112.686 199 216 255
99.9345 135.391 117.126 255 248 241
108.358 10.9399 110.994 211 224 255
19.299 157.946 110.309 181 205 255
160.112 14.9143 111.311 184 207 255
149.652 136.559 102.704 192 212 255
74.9385 107.475 109.715 255 184 125
125.935 89.5666 120.457 234 237 255
104.662 162.914 120.715 198 216 255
132.113 134.703 98.2318 203 219 255
118.919 191.908 113.039 202 218 255
150.894 121.082 115.434 228 233 255
73.8456 120.789 114.46 255 236 220
179.923 154.898 109.15 198 216 255
103.575 102.124 101.184 255 246 236
153.405 161.061 116.292 220 229 255
156.739 163.932 112.187 220 229 255
75.2697 71.1731 113.655 220 229 255
123.49 81.6788 110.391 255 246 237
198.38 176.439 113.061 193 212 255
168.993 73.9566 110.892 195 214 255
142.732 139.416 113.699 254 248 255
85.8435 181.713 115.029 203 218 255
61.3463 80.3154 110.475 224 231 255
67.6118 124.592 105.842 202 218 255
101.141 175.494 109.666 207 221 255
32.2703 78.293 109.468 217 227 255
144.152 74.2761 119.858 195 214 255
126.867 4.0354 114.449 193 212 255
190.026 140.664 109.003 203 219 255
105.239 106.243 103.299 210 223 255
112.977 125.859 114.743 255 187 130
93.0753 204.644 112.712 187 209 255
158.149 105.316 104.351 255 237 222
188.936 97.586 112.372 182 206 255
115.05 95.7872 111.947 222 230 255
113.998 99.3469 119.313 255 205 166
158.068 95.5597 110.535 245 243 255
133.975 40.8275 111.145 199 216 255
88.725 92.2775 106.316 202 218 255
140.417 28.7162 112.448 180 204 255
126.875 119.571 110.321 249 245 255
118.132 104.866 108.438 243 242 255
80.6415 98.6172 119.758 255 239 224
134.42 136.51 118.796 234 237 255
152.42 147.941 114.534 191 211 255
79.7607 161.782 111.191 186 208 255
107.673 97.7207 122.159 255 245 235
135.43 121.082 125.056 216 227 255
79.4982 173.669 113.022 204 219 255
93.5993 96.9268 114.483 255 246 237
126.744 157.817 104.893 226 233 255
51.9711 97.0319 117.927 206 221 255
48.4619 54.6516 109.258 217 227 255
154.587 53.3138 108.614 201 218 255
40.2181 154.008 114.353 195 214 255
112.58 157.063 104.576 202 218 255
182.64 118.72 117.562 209 223 255
103.41 120.259 106.241 255 254 251
162.958 122.634 111.256 216 227 255
63.0955 97.325 114.755 255 248 241
88.7422 172.706 109.392 209 222 255
142.464 143.865 106.945 200 217 255
151.039 121.669 120.272 193 212 255
95.7241 69.8664 114.838 197 215 255
70.4013 49.2609 109.597 202 218 255
97.7511 148.029 113.651 231 235 255
161.835 76.4133 111.732 205 220 255
110.387 219.836 114.421 177 202 255
30.0145 96.8445 115.334 229 234 255
204.908 116.043 114.95 188 209 255
184.849 125.28 113.458 212 224 255
173.208 164.376 109.897 243 242 255
104.383 72.3718 102.232 200 217 255
146.217 174.941 114.879 197 215 255
149.892 25.8367 113.499 186 208 255
146.978 166.309 115.925 207 221 255
137.957 129.763 114.245 255 229 207
172.604 137.877 118.473 192 212 255
111.134 126.745 122.817 255 249 255
187.284 85.7323 110.345 255 254 250
192.605 100.496 111.091 193 213 255
171.799 39.1028 112.893 192 212 255
153.198 188.98 111.975 241 241 255
160.187 128.365 111.802 255 250 255
116.747 53.3919 116.358 206 221 255
162.805 27.7456 113.8 186 208 255
160.84 52.9231 114.616 202 218 255
45.5627 89.1265 109.674 255 253 248
125.082 173.59 114.619 229 234 255
72.7761 50.2579 112.029 195 214 255
176.547 143.776 115.686 198 216 255
107.686 178.09 112 202 218 255
138.355 129.02 111.596 191 211 255
107.756 177.124 118.823 200 217 255
121.886 39.4226 116.353 220 229 255
79.8685 179.553 114.558 200 217 255
101.859 111.483 112.755 242 242 255
174.138 79.2472 115.243 196 214 255
166.429 65.1167 110.239 231 235 255
47.1947 168.234 115.895 182 206 255
131.068 114.94 107.115 228 233 255
154.959 52.3472 113.013 220 229 255
104.486 103.164 97.9616 255 225 202
79.5022 38.5822 115.857 200 217 255
117.693 58.0075 106.68 209 223 255
75.2017 96.1738 112.127 246 244 255
112.765 52.413 114.459 192 212 255
82.2231 132.328 123.542 197 215 255
118.793 121.398 126.588 233 236 255
203.368 58.8755 113.612 193 213 255
99.1171 117.405 100.234 255 207 168
81.9258 131.937 118.091 255 254 250
136.229 91.0453 108.155 255 234 217
106.126 133.186 101.313 229 234 255
69.0584 35.0402 114.325 200 217 255
99.6888 135.486 99.355 223 231 255
90.1954 147.431 101.401 255 250 255
154.555 184.803 113.863 200 217 255
129.929 209.832 114.841 200 217 255
150.877 212.141 112.092 196 215 255
90.7595 128.414 107.979 238 239 255
26.1949 154.316 114.026 185 207 255
193.631 133.156 111.334 184 207 255
186.359 109.825 116.053 193 212 255
126.417 90.5583 113.664 227 233 255
127.086 100.766 103.881 221 229 255
61.2852 203.195 110.717 187 209 255
78.9125 91.8971 113.589 199 216 255
142.999 139.219 119.115 255 230 210
193.298 69.8955 110.33 200 217 255
106.185 112.582 89.6288 255 250 255
59.2716 139.867 107.851 211 223 255
148.717 181.841 115.812 190 211 255
123.316 65.2121 111.098 232 236 255
151.106 183.222 114.987 196 215 255
113.929 77.0764 116.463 249 246 255
141.342 72.8794 106.94 200 217 255
18.9713 121.176 111.269 197 215 255
122.205 141.34 106.268 235 238 255
91.8099 175.827 109.524 215 226 255
125.244 3.68098 114.122 185 207 255
51.0832 63.161 113.671 198 216 255
132.732 120.489 107.321 255 239 224
165.331 104.025 118.6 214 225 255
39.3955 60.7657 113.052 201 217 255
144.8 161.462 113.327 215 226 255
102.23 150.495 113.04 206 221 255
103.685 122.188 98.8872 226 232 255
128.138 92.8592 126.509 212 224 255
158.182 191.514 114.041 192 212 255
105.343 83.118 100.737 255 254 251
68.1525 72.6322 117.286 187 209 255
58.2813 145.574 118.125 215 226 255
189.403 109.017 111.627 197 215 255
137.064 58.9041 116.253 255 248 240
206.738 61.6992 110.428 194 213 255
150.746 93.677 123.494 214 225 255
133.554 151.135 105.04 197 215 255
136.352 54.8703 107.721 200 217 255
130.2 91.3587 120.353 206 221 255
126.157 130.887 100.277 255 227 204
142.821 80.2825 122.114 195 214 255
197.489 123.042 112.814 184 207 255
123.883 127.409 126.498 255 250 255
129.094 60.4767 119.999 195 214 255
141.109 100.625 105.017 224 231 255
42.8295 44.4729 113.035 194 213 255
106.569 53.0347 113.284 220 229 255
117.748 71.7682 109.04 210 223 255
70.4152 98.8371 119.78 217 227 255
100.371 107.309 103.733 255 234 217
73.642 196.424 112.137 191 211 255
73.4967 131.987 108.658 203 219 255
50.338 67.1404 112.341 212 224 255
96.8675 150.169 108.975 240 241 255
39.485 110.118 111.227 231 235 255
13.1239 88.7576 114.296 180 205 255
109.281 124.895 111.648 255 196 147
124.221 146.133 120.462 225 232 255
78.3551 48.6649 115.509 195 214 255
90.9228 123.836 101.474 218 228 255
103.581 108.386 114.108 255 172 99
114.945 129.06 101.454 247 244 255
96.9215 186.293 113.57 193 213 255
108.951 53.5588 116.923 194 213 255
145.742 35.922 115.683 188 209 255
126.24 151.632 106.668 218 227 255
146.877 67.003 114.977 200 217 255
106.533 212.843 112.194 185 207 255
135.745 97.7539 114.015 255 235 218
8.97633 110.923 112.987 203 218 255
131.324 113.111 109.506 255 209 173
104.762 160.871 114.307 209 222 255
54.8699 42.2571 111.073 195 214 255
91.0668 110.418 97.7463 255 230 210
101.619 99.3286 125.302 255 162 78
71.9792 114.251 106.009 205 220 255
125.404 163.504 119.103 186 208 255
141.664 95.3986 123.96 233 236 255
41.3867 115.34 118.011 217 227 255
111.527 20.3749 112.083 190 211 255
86.8531 96.4387 103.081 255 230 210
148.311 114.421 121.614 231 235 255
78.852 63.3216 112.787 192 212 255
138.689 76.3467 111.637 255 252 247
164.35 194.903 111.825 191 211 255
101.86 122.38 113.978 255 198 152
61.3608 78.4117 107.894 228 233 255
128.771 133.109 120.205 255 242 229
143.695 128.056 117.285 218 228 255
109.119 175.923 115.461 203 219 255
59.9176 106.797 111.737 212 224 255
40.3088 139.693 110.022 191 212 255
145.171 162.551 119.709 191 212 255
86.9287 106.622 119.889 208 222 255
47.2021 34.1489 112.259 194 213 255
160.256 105.611 107.197 199 216 255
140.08 211.274 111.817 191 212 255
141.184 129.131 116.354 217 227 255
54.515 116.162 107.7 209 222 255
125.475 112.304 114.802 215 226 255
71.356 172.287 115.619 228 234 255
106.364 7.31039 112.256 180 205 255
95.6016 113.44 99.4105 255 230 210
209.803 142.954 112.789 184 207 255
125.85 143.643 112.024 202 218 255
113.069 166.302 104.029 227 233 255
182.117 81.8665 115.528 203 219 255
100.939 41.5826 112.573 227 233 255
110.31 141.206 117.381 209 222 255
31.1607 165.325 112.708 183 206 255
90.3713 196.341 112.078 187 209 255
46.8438 181.199 112.633 184 207 255
212.521 139.576 112.626 182 206 255
56.8666 63.8701 108.753 199 216 255
198.698 127.078 113.908 197 215 255
100.89 133.787 108.725 234 237 255
73.3128 17.9463 110.059 188 209 255
155.849 50.7525 108.163 207 221 255
126.198 49.2069 118.932 223 231 255
66.3954 112.759 110.837 252 247 255
153.633 124.564 109.038 235 238 255
103.168 53.5367 117.767 184 207 255
150.699 113.301 100.781 213 225 255
62.7012 28.2497 114.762 191 211 255
22.0059 50.0174 112.948 202 218 255
163.745 33.3101 113.155 185 207 255
71.8415 149.387 107.773 203 219 255
135.709 136.378 104.447 255 252 247
195.914 147.88 112.577 190 211 255
121.519 89.1773 105.579 255 250 244
107.625 151.567 112.516 233 237 255
130.057 127.097 111.241 225 232 255
37.4689 150.3 113.148 197 215 255
102.076 153.385 108.475 193 212 255
93.2458 211.669 114.948 195 214 255
109.749 129.555 110.223 255 210 174
213.911 151.668 110.207 193 212 255
66.4785 189.797 112.813 201 217 255
98.8842 168.648 111.826 212 224 255
127.804 20.2052 111.877 203 219 255
128.102 62.3516 116.105 209 222 255
137.711 104.453 104.647 255 240 227
174.771 103.123 109.842 215 226 255
108.319 139.564 99.1033 255 230 210
113.821 106.585 123.576 255 250 255
89.2997 158.935 113.231 198 215 255
100.993 115.038 121.328 255 255 251
53.9428 48.9519 108.949 200 217 255
99.9918 94.3902 97.096 231 235 255
124.189 188.927 109.405 204 219 255
88.9616 168.412 109.813 197 215 255
139.896 119.844 120.204 238 239 255
87.4472 89.464 119.52 228 233 255
197.49 135.413 114.047 185 207 255
97.2067 189.9 111.295 189 210 255
118.866 79.1532 99.9068 218 228 255
119.214 98.4053 124.355 214 225 255
60.7877 60.5351 112.818 203 218 255
97.4712 107.625 96.1289 255 99 0
56.6325 39.274 112.507 185 207 255
145.08 110.856 117.602 247 244 255
80.2467 131.278 117.736 255 249 255
102.518 157.83 112.908 255 252 247
26.6574 108.448 114.606 188 209 255
124.811 103.003 113.399 255 210 175
101.946 98.4244 96.5249 255 243 232
95.9487 93.3133 115.432 255 242 230
102.082 96.0916 99.8069 255 220 192
99.2781 152.258 106.31 211 223 255
122.858 100.83 111.027 209 222 255
115.385 98.3895 96.3229 255 231 211
68.5578 135.931 113.384 222 230 255
102.138 92.0847 99.0498 222 230 255
165.474 52.1579 113.063 191 212 255
103.308 162.895 115.238 218 228 255
105.226 107.98 124.24 221 229 255
147.652 174.594 110.344 205 220 255
100.567 124.128 121.299 213 225 255
152.451 30.1858 111.129 211 223 255
91.4299 40.8825 114.617 195 213 255
55.9535 112.69 117.521 210 223 255
79.8628 203.026 112.552 193 212 255
174.236 53.7409 109.98 184 207 255
177.644 199.821 112.33 181 205 255
73.1728 127.678 121.713 215 226 255
54.4374 133.644 115.076 225 232 255
166.147 122.993 111.494 222 230 255
103.79 102.327 124.688 219 228 255
148.411 152.694 115.988 242 241 255
71.2725 113.812 103.427 233 236 255
81.0721 143.443 120.394 255 244 233
184.875 158.771 112.546 200 217 255
91.7197 122.43 111.667 255 253 248
170.647 132.74 110.8 209 222 255
176.022 59.3175 112.956 198 215 255
155.94 107.999 122.904 197 215 255
141.883 105.521 113.55 232 236 255
99.7067 156.375 115.739 214 225 255
133.957 56.7395 116.106 220 229 255
158.394 42.1355 111.157 179 204 255
121.963 79.2897 125.28 214 225 255
119.846 112.719 98.6425 255 236 220
33.8289 113.237 113.244 206 220 255
63.4778 113.492 111.629 208 222 255
159.143 87.2229 105.69 210 223 255
135.353 159.202 120.814 211 224 255
94.0899 32.0253 113.129 195 214 255
134.744 134.308 118.506 255 248 240
126.369 113.737 106.592 255 242 230
145.148 75.5673 119.485 255 211 176
83.5324 108.443 111.275 199 216 255
148.717 88.2009 104.313 222 230 255
101.731 152.506 113.332 210 223 255
162.366 150.151 115.969 250 246 255
135.505 137.553 107.335 217 227 255
109.884 108.178 135.257 250 246 255
133.385 150.956 117.523 242 242 255
165.034 147.917 110.175 184 207 255
98.2951 60.4368 104.504 199 216 255
141.251 180.2 112.76 214 225 255
106.038 169.073 115.488 201 218 255
194.935 128.985 113.847 217 227 255
123.266 129.185 123.974 226 232 255
87.1431 87.2768 116.303 255 252 247
100.014 115.926 131.403 255 248 240
174.486 180.551 113.594 184 207 255
135.821 131.048 118.466 255 227 204
21.4582 52.034 114.095 204 219 255
177.103 145.801 114.725 255 190 137
57.2504 61.2871 108.379 251 247 255
88.3013 95.4418 114.789 206 220 255
184.991 153.447 113.113 199 216 255
84.188 111.946 110.72 198 216 255
117.403 96.939 110.486 255 245 236
159.791 114.419 105.091 195 214 255
194.455 129.162 115.678 196 214 255
102.627 76.1419 117.573 236 238 255
106.965 54.0836 118.91 240 241 255
143.009 116.214 103.047 255 250 244
121.256 28.6172 111.602 217 227 255
90.1716 71.221 117.88 203 219 255
91.2882 14.8892 110.624 177 202 255
82.616 108.737 103.623 231 236 255
146.955 188.798 111.468 185 207 255
78.7594 24.5913 114.352 200 217 255
195.162 170.99 113.963 202 218 255
34.5495 168.138 112.387 196 214 255
110.597 122.402 122.689 255 149 47
110.644 65.9317 115.927 200 217 255
116.795 138.315 115.399 209 223 255
62.6076 125.944 111.366 255 250 243
183.592 164.467 111.084 186 208 255
55.5552 83.1128 108.034 198 216 255
150.787 54.814 108.302 194 213 255
105.316 95.7841 117.552 255 206 166
150.512 91.8215 120.837 247 244 255
109.767 74.7044 113.054 227 233 255
88.5124 122.69 125.738 244 243 255
26.5776 141.864 110.22 179 204 255
120.302 28.0784 112.087 199 216 255
57.1355 85.3195 108.131 189 210 255
107.198 52.6425 105.415 197 215 255
112.375 114.16 126.072 255 250 243
156.115 64.4342 115.728 200 217 255
91.3607 130.86 98.6052 255 244 233
34.702 143.517 114.104 187 209 255
102.476 107.881 102.187 252 247 255
199.309 161.233 114.383 191 211 255
135.416 73.4105 121.857 255 193 142
128.965 131.603 110.02 249 246 255
83.9824 204.639 113.46 186 208 255
146.95 201.385 114.63 194 213 255
115.813 189.792 113.544 193 212 255
113.312 160.7 108.03 255 249 242
116.088 146.477 124.108 198 215 255
58.0192 46.8456 114.329 209 222 255
101.358 207.188 114.151 183 206 255
108.074 163.376 120.726 208 222 255
98.2822 151.277 105.782 206 221 255
102.57 139.241 99.6181 255 239 225
165.713 149.064 106.87 217 227 255
141.611 45.8769 114.767 190 211 255
120.664 59.527 110.273 193 212 255
112.266 214.527 114.94 192 212 255
129.171 158.024 108.873 207 221 255
97.6937 107.694 105.72 255 243 232
192.173 155.154 113.597 189 210 255
155.566 122.978 106.003 201 218 255
138.75 100.42 101.014 190 211 255
126.296 197.405 114.747 222 230 255
76.4749 108.122 101.031 227 233 255
118.876 187.093 112.658 225 232 255
58.2545 79.9895 108.706 211 224 255
114.879 178.579 116.244 206 220 255
88.2045 199.53 113.168 187 209 255
130.682 87.7612 101.583 255 193 142
68.3968 103.104 107.386 216 226 255
59.4991 127.623 108.243 215 226 255
83.871 101.142 101.367 204 219 255
125.032 23.3597 111.194 183 206 255
120.089 59.9381 114.151 192 212 255
174.876 163.64 113.512 214 225 255
132.782 113.992 99.9549 217 227 255
82.7802 65.322 115.197 203 219 255
99.8306 137.031 121.657 228 233 255
174.138 158.026 110.501 190 211 255
89.4621 109.813 98.7925 255 198 152
199.079 167.301 110.388 187 209 255
171.891 97.9772 117.248 211 223 255
119.643 135.85 124.639 246 244 255
59.4304 127.275 112.391 238 239 255
48.041 96.0544 114.627 193 213 255
119.347 138.434 101.532 255 246 237
157.781 82.6045 120.18 242 241 255
87.2068 106.951 99.6161 215 226 255
138.051 218.542 112.581 192 212 255
9.48831 137.676 114.35 186 208 255
163.073 177.444 111.809 211 224 255
134.782 193.951 113.773 183 206 255
75.061 200.229 114.244 184 207 255
99.3576 136.905 117.258 255 232 212
8.7961 91.8397 112.312 186 208 255
51.1489 163.488 109.38 180 204 255
161.356 144.511 114.764 189 210 255
182.445 180.928 112.967 182 205 255
29.8574 105.021 111.857 202 218 255
193.602 108.119 113.186 190 211 255
93.5643 83.5918 104.222 199 216 255
53.0062 147.237 113.361 246 244 255
115.891 19.2954 113.551 197 215 255
184.189 159.83 110.063 195 214 255
66.4966 183.816 115.89 203 219 255
32.2934 174.885 114.241 192 212 255
190.893 36.3388 112.811 188 209 255
127.725 187.162 108.13 197 215 255
156.98 61.3357 109.615 195 214 255
157.804 82.6225 105.809 212 224 255
162.509 155.133 117.441 194 213 255
84.2802 140.662 114.411 239 240 255
98.7507 123.032 123.379 255 245 235
120.386 202.099 112.659 186 208 255
141.542 93.0188 119.59 241 241 255
118.101 125.051 93.7945 255 252 247
17.1102 157.307 112.299 181 205 255
109.723 121.763 117.273 255 243 233
165.079 83.3364 116.198 212 224 255
100.453 52.8094 118.321 195 214 255
102.803 207.258 113.356 190 210 255
101.662 34.3103 115.524 189 210 255
41.5912 160.961 112.431 199 216 255
193.439 106.578 109.64 204 220 255
68.8895 130.734 113.286 255 240 227
69.9178 134.144 109.649 220 229 255
71.8648 105.822 107.736 207 221 255
201.991 61.0624 112.869 180 204 255
121.462 169.85 109.276 234 237 255
206.418 64.7849 114.018 191 212 255
120.6 54.6238 119.433 203 219 255
138.789 102.4 114.716 255 253 248
69.8038 122.722 119.967 255 249 242
52.9022 131.646 114.616 191 211 255
94.0346 29.1938 111.033 203 218 255
118.893 100.291 94.6545 209 222 255
54.8971 111.972 108.906 198 215 255
79.3338 98.8479 109.823 201 217 255
129.326 165.179 113.253 199 216 255
112.163 94.1694 128.232 255 253 249
5.63489 117.735 114.321 195 214 255
66.8741 154.214 107.183 196 214 255
168.4 110.346 117.514 200 217 255
127.267 151.702 120.283 235 238 255
37.2953 168.912 110.79 194 213 255
146.338 68.9972 117.061 209 223 255
148.678 139.328 103.555 255 220 191
127.663 131.988 122.63 255 243 232
123.045 130.225 115.417 255 240 227
81.9386 107.732 118.884 184 207 255
115.382 183.136 108.199 244 242 255
151.431 56.909 107.665 239 240 255
145.481 68.5354 111.759 195 214 255
103.372 176.611 107.023 201 218 255
149.885 64.9078 106.825 192 212 255
129.456 99.9346 127.419 195 214 255
115.316 144.15 120.971 245 244 255
120.597 52.9685 110.077 188 209 255
169.906 113.062 111.971 214 226 255
34.5312 144.637 112.362 179 204 255
134.541 21.8626 114.706 192 212 255
194.736 62.4911 110.477 193 213 255
105.813 81.6202 121.637 255 222 196
119.816 133.74 107.774 255 228 206
99.503 104.388 125.022 255 236 220
107.816 117.269 104.243 255 205 165
98.0229 100.5 120.962 255 220 192
114.276 100.338 115.449 255 183 122
101.782 35.1809 112.76 203 219 255
133.216 116.906 105.626 255 244 234
129.018 139.47 102.61 255 248 240
170.972 35.7352 112.481 188 209 255
118.199 143.324 121.396 215 226 255
152.115 76.7366 114.256 224 231 255
113.039 102.331 99.8108 213 225 255
117.23 144.712 102.826 255 227 205
71.8481 105.387 106.908 211 223 255
189.291 109.393 115.239 200 217 255
120.942 161.225 106.62 193 213 255
132.331 75.67 122.436 232 236 255
76.4745 135.91 123.165 223 231 255
88.6243 92.4249 110.464 221 230 255
110.754 116.974 88.24 255 255 251
115.58 96.7726 108.046 255 186 128
157.836 78.5821 108.959 224 231 255
199.798 167.86 111.138 189 210 255
176.978 152.903 108.57 255 232 213
85.4688 138.024 118.35 207 221 255
162.073 120.734 108.755 196 214 255
85.7465 66.8034 109.192 255 253 249
112.16 62.176 110.31 202 218 255
57.9542 152.735 107.318 191 211 255
119.536 7.26643 112.137 189 210 255
116.804 155.649 121.447 232 236 255
66.0627 118.961 104.446 217 227 255
63.8083 130.567 116.907 250 246 255
136.598 126.339 108.775 255 212 178
103.841 61.1324 109.38 195 214 255
79.106 9.23714 110.994 186 208 255
64.0162 111.727 105.258 194 213 255
89.698 146.268 101.098 255 246 237
154.554 155.161 107.726 255 251 245
98.9096 125.545 110.439 246 244 255
209.615 79.7559 113.418 181 205 255
145.703 91.4548 121.375 236 238 255
166.414 132.446 117.805 208 222 255
138.139 59.5533 114.466 239 240 255
91.2518 55.6921 112.8 215 226 255
80.5072 125.057 106.129 255 233 215
115.302 187.516 108.616 195 214 255
96.2636 69.4002 104.89 189 210 255
117.751 123.452 124.542 213 225 255
74.2123 16.0343 110.821 191 211 255
96.6433 190.876 115.498 186 208 255
113.927 90.7798 112.637 229 234 255
181.651 44.1195 112.34 193 212 255
115.569 164.065 107.66 217 227 255
121.543 136.799 123.371 222 230 255
123.208 79.4571 113.83 190 211 255
172.864 91.0516 107.671 197 215 255
120.605 28.912 113.224 188 209 255
154.12 151.825 112.762 218 228 255
125.898 120.573 128.807 255 245 235
194.265 121.504 112.465 232 236 255
85.1479 100.883 114.699 194 213 255
62.9079 169.147 110.11 194 213 255
51.3227 165.2 114.804 188 209 255
61.3569 167.169 112.071 219 228 255
130.755 111.884 129.738 199 216 255
170.051 91.8805 116.447 195 214 255
165.972 113.599 117.87 255 219 190
101.982 219.63 113.319 187 208 255
145.542 71.4348 114.307 202 218 255
133.561 99.3303 113.655 250 246 255
116.43 125.298 114.415 255 217 186
65.234 133.514 106.062 196 214 255
163.43 191.056 113.366 200 217 255
126.746 129.344 96.6952 249 245 255
92.4286 101.373 97.5372 238 239 255
102.858 126.794 98.7366 243 242 255
71.8731 111.964 117.422 210 223 255
98.4955 83.1822 111.527 255 149 47
87.6021 110.072 120.761 255 192 141
100.532 73.0108 106.27 255 247 238
137.359 80.8544 116.819 214 225 255
178.884 146.97 115.817 206 221 255
93.373 60.5292 111.85 198 216 255
183.459 31.3923 110.537 197 215 255
128.845 53.9715 116.873 199 216 255
146.197 29.5616 113.547 189 210 255
125.604 106.39 102.264 220 229 255
162.219 92.828 117.814 221 229 255
78.0353 80.9832 116.335 210 223 255
94.7529 83.1908 102.111 255 251 245
145.011 134.239 110.209 192 212 255
132.514 60.6505 108.507 201 218 255
176.181 127.595 117.424 222 230 255
93.7556 131.004 127.495 255 187 131
120.167 48.8473 116.78 199 217 255
166.606 113.404 107.066 200 217 255
171.455 121.931 108.116 216 227 255
99.3239 220.173 114.153 184 207 255
182.761 99.6578 117.988 226 232 255
112.709 85.1991 126.522 219 228 255
111.026 171.046 106.635 201 217 255
135.381 85.1013 109.064 254 249 255
96.9155 82.3268 120.044 255 249 242
147.765 164.722 115.881 211 223 255
102.946 118.113 102.877 255 189 134
92.2933 162.194 115.767 195 213 255
178.421 102.271 109.767 193 213 255
87.6534 150.135 115.981 203 219 255
77.2074 34.3829 112.732 193 213 255
104.344 145.622 108.385 218 227 255
37.6017 39.0989 112.577 186 208 255
139.775 71.7965 106.056 215 226 255
72.3255 134.323 122.583 214 226 255
110.064 113.18 134.276 255 183 123
78.7337 170.048 111.518 206 221 255
71.3434 102.731 114.504 199 216 255
97.3324 130.444 111.857 205 220 255
146.661 199.998 111.928 175 201 255
102.197 105.628 115.94 255 248 241
119.458 135.462 118.073 255 240 227
111.369 174.205 109.464 195 214 255
19.9656 151.038 111.453 193 213 255
99.0454 86.9871 101.2 255 255 252
175.652 56.0259 115.356 184 207 255
126.115 130.08 124.238 222 230 255
83.7407 179.245 111.806 201 217 255
70.9902 142.526 112.135 255 234 216
95.1315 85.5712 114.8 203 218 255
95.6696 83.378 114.403 220 229 255
214.914 73.38 114.393 188 209 255
145.14 40.717 110.98 185 207 255
43.3403 98.2124 109.299 227 233 255
185.854 123.205 114.243 203 218 255
81.0537 114.411 115 240 241 255
111.727 133.118 126.925 255 247 238
41.1445 100.356 111.637 199 216 255
201.563 62.2735 110.167 202 218 255
156.605 76.6891 105.054 193 212 255
172.513 71.1188 113.203 203 219 255
121.516 93.7324 105.186 255 237 222
174.926 82.6235 113.369 182 206 255
82.6007 70.1841 113.248 208 221 255
108.05 67.5466 108.841 212 224 255
124.35 54.1799 118.059 221 230 255
123.649 66.9914 119.171 194 213 255
77.463 147.855 117.677 211 224 255
120.089 124.434 120.429 255 243 232
150.931 22.0772 111.548 203 218 255
121.486 174.741 117.307 197 215 255
115.129 135.849 118.602 255 223 197
73.0629 49.1813 111.813 183 206 255
106.098 99.2923 104.777 255 124 0
138.316 128.42 99.5698 255 248 240
130.236 36.315 116.462 198 216 255
68.7276 100.266 104.961 215 226 255
87.188 151.332 108.863 255 234 217
182.838 155.195 109.168 189 210 255
125.173 93.4471 101.269 217 227 255
91.8664 119.648 121.586 205 220 255
198.915 64.6031 114.026 194 213 255
165.023 147.572 111.314 201 217 255
202.965 154.823 111.819 214 226 255
133.862 130.089 124.34 255 254 250
115.014 102.355 134.444 213 225 255
132.193 106.883 99.7168 241 241 255
103.891 108.587 106.263 255 233 214
118.19 81.7758 106.172 255 249 255
105.023 75.0836 100.019 255 240 227
87.5743 218.777 112.71 195 213 255
116.387 98.4306 106.972 255 249 255
89.7633 88.7341 99.1694 218 228 255
112.664 122.935 125.811 236 238 255
21.284 150.591 110.767 197 215 255
93.6004 117.146 102.544 207 221 255
115.686 219.559 110.811 200 217 255
69.4993 29.4356 110.226 199 216 255
31.3761 121.532 111.446 197 215 255
100.423 162.745 105.734 255 247 238
57.7654 126.124 117.626 191 211 255
48.3176 72.4981 108.55 196 214 255
157.219 106.354 121.104 232 236 255
87.4109 81.7168 110.753 216 226 255
190.529 155.082 113.684 222 230 255
119.975 110.994 95.6983 255 222 196
118.129 62.4011 115.065 255 234 216
158.802 170.34 108.826 202 218 255
163.686 192.471 110.678 190 211 255
155.565 125.444 113.996 246 244 255
113.379 92.0312 105.754 255 239 226
188.179 142.704 115.407 190 211 255
120.886 93.1163 125.921 255 187 131
182.43 192.391 112.416 181 205 255
111.06 73.6845 109.867 255 202 160
125.331 117.088 100.53 255 244 233
123.15 95.9558 117.47 255 221 194
120.015 37.8304 115.832 189 210 255
61.3974 139.993 109.556 207 221 255
153.015 78.3206 105.012 239 240 255
148.548 53.0941 114.054 202 218 255
140.506 85.5873 121.466 226 233 255
150.692 107.193 115.196 255 250 244
115.813 140.555 108.091 205 220 255
173.471 196.772 113.077 189 210 255
120.902 79.7271 103.156 255 241 228
120.072 119.922 93.9221 255 247 238
121.218 216.265 113.921 179 204 255
169.132 205.965 112.161 188 209 255
188.231 111.565 113.785 191 211 255
138.167 67.9354 111.57 212 224 255
115.299 144.781 100.849 255 250 255
108.498 171.752 106.904 195 214 255
122.937 163.888 106.844 205 220 255
90.2161 118.304 116.305 239 240 255
104.483 159.234 103.394 197 215 255
146.363 205.378 114.888 190 211 255
52.889 70.7539 114.019 194 213 255
98.5003 112.324 119.353 251 246 255
113.466 101.338 110.611 231 235 255
72.703 113.949 103.17 211 224 255
52.8432 150.883 109.826 204 219 255
120.062 120.447 118.479 255 156 64
193.814 73.9491 114.965 182 205 255
38.9748 82.0232 109.411 199 216 255
45.2787 142.022 108.826 191 211 255
162.777 52.6126 111.455 210 223 255
55.9416 117.861 111.273 194 213 255
56.8387 177.897 114.578 201 217 255
131.527 140.075 117.173 255 250 244
56.8966 167.125 109.217 196 215 255
96.8679 141.542 102.42 255 248 240
30.1652 102.341 109.905 183 206 255
60.9408 130.09 115.759 255 245 235
131.349 180.695 116.962 200 217 255
202.033 112.317 110.157 198 216 255
119.27 154.939 120.291 198 216 255
86.3497 141.406 104.629 249 245 255
84.7166 94.0352 123.647 237 239 255
90.0674 65.2005 105.388 195 214 255
115.375 135.919 121.615 202 218 255
93.0939 122.828 103.047 236 238 255
101.429 153.006 109.17 255 249 243
146.188 188.721 114.773 221 230 255
113.511 155.382 117.399 205 220 255
107.714 218.416 111.406 198 216 255
185.249 82.2673 115.277 193 212 255
100.42 68.6585 117.926 255 238 223
167.612 40.0097 114.551 189 210 255
134.663 90.1003 100.644 248 245 255
220.04 112.926 112.697 185 207 255
144.21 96.3774 121.521 255 235 219
170.223 46.9821 115.943 199 216 255
74.6314 119.621 108.79 255 205 165
92.335 18.8717 112.291 201 218 255
158.657 149.257 107.499 255 248 240
142.615 62.4949 108.167 189 210 255
101.694 156.099 104.18 255 240 227
64.0221 120.088 107.703 238 239 255
70.1858 140.816 119.279 199 216 255
142.072 118.432 104.588 255 237 222
91.1696 113.777 109.57 255 243 233
150.141 152.861 108.913 201 218 255
131.854 165.889 110.775 201 218 255
81.7433 72.3679 114.617 255 241 229
18.4469 93.8118 113.828 188 210 255
95.0565 98.0183 123.062 240 240 255
23.2224 153.761 110.717 204 219 255
107.148 96.8826 104.989 255 210 175
106.677 10.2891 110.262 200 217 255
110.297 69.5027 110.662 255 223 198
136.05 200.648 111.649 193 213 255
146.115 171.858 115.21 255 249 255
32.2727 59.8738 112.376 196 214 255
157.518 117.361 110.742 245 243 255
90.0601 82.1755 121.771 255 200 156
77.1818 109.869 111.001 222 230 255
134.107 57.3826 108.652 198 216 255
69.4687 98.4529 112.248 255 239 224
84.5225 138.348 113.618 255 234 217
28.7986 92.0707 111.319 190 210 255
71.8465 86.3027 105.513 255 254 251
161.231 67.2145 113.996 214 225 255
41.9756 91.6181 112.637 209 222 255
140.103 173.629 113.467 187 209 255
142.079 112.911 120.753 255 200 156
219.946 124.086 113.2 193 212 255
122.521 150.321 122.687 221 229 255
114.426 164.15 112.766 188 209 255
138.351 186.534 114.195 197 215 255
173.243 195.231 112.283 183 206 255
195.986 145.283 114.74 190 211 255
150.682 172.434 114.777 208 222 255
122.05 107.679 116.95 255 82 0
113.416 143.721 112.458 255 248 240
99.7017 103.873 100.001 215 226 255
107.104 117.239 98.8504 255 254 250
136.608 136.123 100.258 215 226 255
118.636 94.2582 110.502 206 221 255
170.229 142.348 106.331 210 223 255
107.621 97.1365 122.114 232 236 255
101.928 116.531 123.756 255 58 0
114.412 83.1432 112.031 242 241 255
121.992 134.36 115.597 213 225 255
168.118 47.384 113.905 197 215 255
79.2438 75.3252 103.899 245 243 255
107.842 134.312 105.977 255 238 223
102.231 49.7672 106.944 206 221 255
208.73 134.493 113.44 190 210 255
40.6933 73.058 111.364 203 219 255
125.965 100.118 112.612 255 246 236
81.4621 57.7018 116.636 210 223 255
88.5609 96.7909 112.808 193 213 255
121.244 52.6174 112.267 207 221 255
146.25 32.52 109.923 208 222 255
102.395 125.381 126.519 206 221 255
19.0224 105.222 114.555 234 237 255
69.6988 101.394 108.437 255 249 255
139.23 109.347 110.372 255 245 236
68.49 144.167 114.317 215 226 255
100.633 213.484 111.796 196 214 255
105.029 76.1223 122.304 255 233 215
107.847 95.9136 117.386 255 239 226
70.2172 62.0031 107.574 209 223 255
109.693 71.3883 110.163 229 234 255
98.0414 164.059 105.493 199 216 255
148.081 159.229 115.006 199 216 255
84.7531 104.079 122.2 255 247 238
149.308 121.452 115.376 209 223 255
131.908 87.2685 104.351 226 232 255
92.1039 178.817 112.42 231 236 255
87.0611 181.602 108.567 189 210 255
23.0333 157.956 114.119 186 208 255
172.461 83.3998 117.341 223 231 255
133.561 94.8147 125.827 210 223 255
104.408 14.8258 114.189 220 229 255
85.784 106.014 126.709 255 227 204
160.34 130.026 118.926 206 221 255
20.8602 79.5806 112.677 181 205 255
160.635 133.797 120.573 212 224 255
177.471 180.334 110.777 199 216 255
103.866 64.4311 108.161 210 223 255
63.2416 151.399 116.689 212 224 255
146.902 73.6319 118.601 255 250 255
183.148 76.6177 110.226 199 216 255
147.729 88.7233 120.788 221 230 255
92.5746 31.5145 114.231 255 246 237
59.9429 55.8081 114.534 187 209 255
157.656 106.046 116.33 255 250 244
92.2279 74.5477 119.21 199 216 255
177.415 93.0006 116.669 255 254 251
130.574 153.837 112.038 229 234 255
95.382 157.048 111.641 203 219 255
79.2069 191.405 115.982 203 219 255
64.3556 146.25 105.783 243 242 255
165.755 69.1623 110.218 201 217 255
46.8174 62.3283 109.398 187 209 255
107.093 34.8672 115.722 224 231 255
125.873 166.409 114.722 242 241 255
110.011 92.0594 123.043 255 253 249
74.3465 94.9119 105.767 223 231 255
102.923 159.278 115.658 219 228 255
124.361 147.987 104.572 230 235 255
147.818 55.3059 115.618 204 219 255
93.4637 86.7198 106.863 255 243 232
100.975 110.325 113.5 255 223 198
179.792 189.193 110.179 182 205 255
143.075 113.407 104.229 255 242 230
99.638 12.2279 112.952 203 219 255
144.597 78.0183 120.205 207 221 255
101.056 172.321 110.497 237 239 255
136.391 105.203 113.749 229 234 255
84.3232 68.8189 115.651 207 221 255
158.022 80.3249 112.274 255 245 236
109.928 37.4045 109.537 192 212 255
92.0697 133.382 123.317 255 235 218
50.9298 94.0284 113.69 205 220 255
119.898 162.719 116.887 200 217 255
183.696 55.7594 114.556 211 224 255
90.4256 105.704 125.896 255 246 236
153.535 95.0913 122.331 255 248 240
123.919 140.406 121.69 255 234 217
105.373 101.105 120.405 255 232 214
122.022 45.6214 113.753 225 232 255
117.912 64.8458 110.134 210 223 255
95.1637 215.053 112.527 192 212 255
97.1232 105.241 118.499 222 230 255
111.427 64.0506 109.134 205 220 255
82.3608 80.4024 106.102 253 248 255
76.8694 89.8857 104.266 205 220 255
110.338 133.952 118.087 241 241 255
192.526 125.437 110.121 194 213 255
186.727 87.7569 111.9 235 238 255
124.407 108.355 101.194 216 226 255
142.063 131.808 104.39 210 223 255
185.793 31.7938 114.714 185 208 255
67.5691 151.282 105.026 223 231 255
47.8521 173.73 111.432 194 213 255
55.5345 110.398 113.649 191 211 255
64.9223 72.8877 109.059 191 211 255
149.858 99.6988 116.839 249 245 255
41.9972 108.337 116.177 204 220 255
137.962 58.7439 120.013 197 215 255
71.4493 116.516 105.895 255 239 225
178.048 139.39 112.257 190 210 255
127.97 153.943 105.838 255 233 215
140.179 13.904 114.778 185 207 255
93.747 117.111 110.706 255 241 228
96.7929 61.0251 117.816 247 244 255
93.4171 46.8315 114.266 199 216 255
219.743 103.845 111.935 189 210 255
97.6857 116.598 128.771 255 234 217
182.746 137.384 113.4 184 207 255
98.4473 206.166 114.618 192 212 255
91.7367 150.039 112.46 214 225 255
156.662 204.919 111.501 182 206 255
92.2276 191.629 111.358 189 210 255
75.0344 97.967 106.926 211 224 255
162.895 88.9184 116.076 200 217 255
84.0251 11.6153 112.869 201 217 255
87.5824 78.4304 121.346 209 223 255
121.891 35.6198 114.457 195 214 255
39.58 109.525 111.598 249 245 255
83.141 158.918 104.235 193 212 255
47.5349 94.6351 111.121 213 224 255
115.275 141.053 110.233 255 229 208
87.7505 176.053 113.617 186 208 255
122.142 128.35 100.606 214 225 255
40.3759 94.1443 114.908 192 212 255
58.1168 38.4286 110.41 199 216 255
121.664 79.6815 114.203 255 254 250
130.188 128.06 100.177 220 229 255
71.3077 117.995 122.877 201 217 255
52.1249 84.2182 110.158 186 208 255
207.734 74.5805 113.745 190 211 255
153.531 33.0543 113.96 187 209 255
80.574 146.786 104.6 255 235 218
177.729 93.3496 108.043 186 208 255
93.5406 196.188 111.16 225 232 255
101.648 35.3419 116.304 185 207 255
37.7272 62.6811 113.851 189 210 255
127.743 81.1934 110.415 255 220 192
137.566 155.84 116.419 254 248 255
74.3275 135.287 110.875 200 217 255
138.683 29.103 113.399 191 211 255
212.321 100.926 110.548 190 211 255
109.815 63.6863 119.479 193 213 255
137.023 79.8912 122.456 255 202 160
151.4 168.449 109.078 198 216 255
52.6101 129.467 110.999 189 210 255
161.034 109.361 106.92 204 219 255
106.354 136.016 104.023 255 241 229
111.208 175.525 112.238 207 221 255
108.389 139.407 101.21 255 240 227
183.287 55.7381 113.14 199 216 255
104.037 123.793 96.3427 255 251 246
16.0866 103.717 113.001 192 212 255
63.9669 160.418 111.779 219 229 255
164.831 135.911 116.804 186 208 255
28.6296 103.189 112.169 185 207 255
99.1708 94.7817 105.291 255 175 107
127.593 78.5286 118.127 255 149 47
90.4816 91.8404 125.13 217 227 255
87.2612 156.854 105.689 205 220 255
128.628 153.94 109.572 206 221 255
199.1 171.615 111.73 179 204 255
56.0771 71.5454 115.379 201 218 255
205.01 79.6702 112.035 202 218 255
181.153 192.037 114.517 196 214 255
65.5934 137.422 120.864 199 216 255
106.984 148.263 110.941 255 234 217
95.3653 99.1174 126.961 255 246 237
58.2145 198.296 111.673 206 220 255
102.21 84.8402 107.086 255 249 255
91.6526 120.467 124.584 255 206 167
114.313 125.823 103.404 255 187 131
155.042 109.255 117.672 231 235 255
149.777 34.2613 114.112 195 214 255
101.136 126.71 100.701 255 217 187
148.003 72.0244 106.124 209 222 255
131.782 93.6703 120.823 227 233 255
121.924 67.6026 106.173 246 244 255
120.793 126.833 113.63 255 239 225
114.806 69.129 118.776 194 213 255
40.3893 77.1967 109.766 191 211 255
44.8 49.0325 110.267 185 208 255
48.6337 96.1138 114.064 194 213 255
163.283 201.637 114.433 184 207 255
129.733 120.11 107.145 223 231 255
125.942 59.0893 106.187 255 252 246
195.745 117.768 110.544 187 209 255
74.3208 103.551 109.272 221 229 255
164.55 58.3715 112.769 196 214 255
152.179 109.699 115.465 255 255 251
191.937 120.808 115.017 212 224 255
46.4509 183.449 111.453 189 210 255
124.749 133.888 119.829 255 227 204
105.292 112.149 101.829 255 236 221
102.344 153.115 122.67 191 211 255
183.756 128.436 115.358 181 205 255
108.392 162.268 120.714 255 195 146
56.3143 141.173 110.093 217 227 255
86.4824 90.7757 103.687 235 238 255
165.625 128.473 117.335 199 216 255
77.9152 107.653 118.27 234 237 255
122.289 81.0702 100.538 250 246 255
143.858 97.5494 109.387 214 225 255
149.376 36.3596 114.058 194 213 255
35.0304 140.492 114.97 206 221 255
72.7057 116.238 113.586 234 237 255
93.6396 73.147 108.467 235 238 255
165.565 143.308 112.091 200 217 255
118.483 95.9368 126.215 194 213 255
104.99 207.869 110.613 199 216 255
114.318 23.0251 113.139 197 215 255
74.0259 113.05 124.28 209 222 255
161.479 32.3251 111.121 192 212 255
28.3741 66.6816 113.519 192 212 255
89.1605 211.741 113.849 183 206 255
156.098 107.741 102.361 202 218 255
162.921 37.9607 110.102 184 207 255
126.452 110.739 117.339 255 163 79
167.228 193.335 112.988 188 209 255
114.521 85.8705 111.032 255 250 244
154.136 82.7419 107.162 230 234 255
25.2773 133.367 112.875 209 222 255
112.376 162.983 111.82 221 230 255
125.911 84.9274 117.963 255 249 255
135.34 107.258 109.841 219 229 255
81.5121 58.9632 117.074 202 218 255
162.503 118.791 121.354 255 255 251
89.5201 79.5053 105.287 209 222 255
123.149 145.134 116.25 255 248 239
43.3262 46.4754 111.726 180 204 255
76.397 71.991 112.573 191 211 255
120.881 108.816 123.426 255 184 123
183.865 83.9336 113.255 203 218 255
19.5205 73.26 110.958 196 214 255
121.951 185.431 109.173 199 216 255
92.3604 143.699 121.386 233 237 255
146.44 12.3511 113.824 185 208 255
121.655 121.512 119.25 255 251 245
162.649 88.823 118.31 229 234 255
190.818 109.595 112.908 206 220 255
168.864 79.4671 109.987 214 225 255
158.132 204.022 112.838 192 212 255
186.727 78.0616 113.683 197 215 255
90.7109 164.688 107.58 255 248 241
133.803 161.978 104.613 201 217 255
63.7165 129.527 112.603 255 201 157
72.9254 177.906 109.555 190 210 255
46.3936 76.7164 116.291 189 210 255
66.2848 64.4463 116.705 225 232 255
127.664 72.0369 113.154 210 223 255
143.111 87.0616 113.455 228 234 255
119.543 101.261 96.049 255 244 234
136.842 167.124 117.887 191 211 255
112.393 70.8716 107.941 195 214 255
49.4588 122.404 114.3 198 216 255
151.222 109.739 109.583 202 218 255
73.7652 65.3161 105.514 186 208 255
67.4412 144.044 119.892 230 235 255
163.794 56.6362 109.687 197 215 255
62.5546 146.248 105.486 216 226 255
160.351 64.2968 115.788 200 217 255
90.8616 97.9298 106.283 216 227 255
151.057 199.644 112.291 185 208 255
177.027 116.571 109.918 188 209 255
105.809 51.6978 113.559 195 214 255
107.671 77.1114 117.885 228 234 255
193.46 102.077 112.362 204 219 255
158.902 111.087 115.867 238 240 255
176.18 23.467 111.492 188 210 255
81.4219 102.85 103.196 255 234 217
168.665 206.313 110.179 188 209 255
157.139 108.343 103.917 244 243 255
187.464 190.755 112.501 188 209 255
156.339 113.159 117.686 203 219 255
103.936 99.8192 113.148 255 206 167
152.823 115.433 118.483 214 225 255
100.541 199.08 109.849 191 211 255
78.2228 165.157 108.276 200 217 255
130.423 74.8683 117.215 197 215 255
114.753 78.6214 117.911 254 248 255
104.502 108.619 131.065 247 244 255
46.3402 92.2825 112.582 221 230 255
158.919 89.7657 110.413 194 213 255
151.259 30.9921 112.094 189 210 255
62.6591 138.079 110.316 189 210 255
102.068 70.4659 110.217 202 218 255
119.764 109.088 124.751 228 233 255
127.611 20.4733 111.958 255 255 252
200.002 73.6783 113.629 211 224 255
53.5887 150.132 112.807 211 223 255
162.921 54.8536 110.693 195 214 255
115.722 102.138 105.829 255 215 183
49.6884 61.6627 111.112 196 214 255
134.153 152.301 107.077 204 219 255
119.012 43.3555 112.719 211 223 255
182.373 174.071 112.51 207 221 255
159.241 84.1914 113.781 219 228 255
85.9807 118.78 118.88 252 247 255
163.636 85.6407 118.494 221 230 255
113.339 60.0646 108.961 217 227 255
179.279 97.4678 109.697 186 208 255
102.176 62.3697 112.884 251 246 255
58.6052 200.96 110.541 209 222 255
127.758 106.91 93.5263 213 225 255
171.285 109.504 112.722 212 224 255
120.318 157.428 119.119 225 232 255
83.9348 40.1217 111.938 191 211 255
116.498 104.618 100.658 255 222 196
83.4649 87.4463 116.961 255 237 222
72.2257 144.547 104.198 209 223 255
121.432 123.995 107.574 255 255 252
94.3099 37.7051 112.188 201 217 255
87.1953 131.727 100.191 243 242 255
131.363 160.113 107.528 206 220 255
138.288 9.76275 112.699 193 213 255
193.868 74.8893 113.791 194 213 255
143.91 163.433 108.89 204 219 255
32.2596 67.3869 110.099 192 212 255
100.015 92.6059 106.032 255 241 228
152.433 13.1577 111.575 182 206 255
46.2799 32.0764 112.552 191 211 255
86.0432 98.1601 126.727 230 235 255
83.2875 130.54 109.42 211 223 255
193.899 68.0282 113.234 202 218 255
144.613 163.363 119.718 227 233 255
125.305 117.397 122.562 255 254 251
100.402 165.533 104.726 207 221 255
66.1611 157.841 114.935 197 215 255
77.7983 112.871 107.132 255 179 113
78.9013 131.032 102.7 240 240 255
129.177 210.76 110.256 187 208 255
48.8961 104.656 107.637 223 231 255
104.378 35.4469 112.169 189 210 255
39.0368 94.4568 114.011 198 216 255
75.3959 14.6721 110.453 211 224 255
30.9584 82.3875 109.355 199 216 255
138.035 134.879 104.82 212 224 255
87.8819 111.294 97.7404 255 223 197
114.565 119.819 102.478 255 244 233
103.763 69.6926 107.706 204 220 255
48.637 92.9345 107.826 233 236 255
142.136 161.176 119.545 192 212 255
74.4074 201.065 114.125 197 215 255
149.286 84.2118 116.68 205 220 255
130.259 124.197 119.76 255 201 157
120.916 65.0355 104.499 207 221 255
86.3362 155.035 108.462 197 215 255
57.0803 119.833 105.955 200 217 255
114.427 67.6462 117.878 248 245 255
143.798 134.517 124.61 255 251 245
115.89 3.86653 110.839 181 205 255
120.073 31.6821 111.453 210 223 255
102.417 80.1661 106.79 204 219 255
123.476 117.758 111.857 255 217 187
113.074 130.93 107.703 203 218 255
38.1351 193.18 115.01 184 207 255
92.4372 118.688 121.465 241 241 255
132.417 171.357 108.536 192 212 255
163.223 65.5124 114.166 192 212 255
113.546 185.821 109.945 194 213 255
113.801 159.677 116.329 216 227 255
158.235 202.209 113.979 198 216 255
128.167 105.273 128.289 227 233 255
170.888 139.978 117.125 195 214 255
141.93 64.4844 111.123 197 215 255
114 120.545 122.863 207 221 255
144.512 63.2436 110.316 255 247 238
58.4719 202.38 114.995 192 212 255
13.5911 96.9308 113.993 198 215 255
189.578 143.147 113.666 185 208 255
120.115 62.5264 107.761 217 227 255
197.749 126.434 109.362 208 222 255
151.767 54.9952 112.537 188 209 255
56.7509 40.1113 110.634 188 209 255
122.486 127.139 101.199 255 232 214
39.127 104.827 109.191 183 206 255
72.5061 160.91 116.892 196 215 255
106.805 113.758 120.765 249 245 255
139.915 88.677 110.09 255 250 255
192.163 141.284 109.35 201 217 255
112.583 131.633 107.183 255 230 210
127.418 108.673 105.847 255 246 237
58.344 160.683 108.902 191 211 255
178.086 32.7663 112.826 195 214 255
185.754 105.891 109 255 244 234
151.14 54.9712 113.596 254 249 255
108.304 43.7978 107.083 189 210 255
148.516 179.545 110.039 194 213 255
153.259 48.4591 111.879 205 220 255
97.3253 211.352 114.558 184 207 255
88.8924 112.619 109.485 255 207 169
156.261 118.044 109.646 231 235 255
110.788 44.5521 114.644 232 236 255
76.3028 112.33 115.103 206 221 255
138.939 64.3834 116.795 207 221 255
81.6967 90.3667 117.483 249 245 255
37.286 140.031 115.855 186 208 255
90.5394 154.705 106.224 182 205 255
54.4491 79.1489 114.22 214 225 255
104.823 110.613 121.09 255 232 213
52.6204 78.5002 111.59 194 213 255
52.0681 111.395 116.562 215 226 255
52.8746 59.6113 111.546 193 213 255
136.803 78.638 122.348 205 220 255
143.73 22.7776 110.995 198 215 255
80.6777 74.4173 116.409 248 245 255
123.772 107.577 107.223 250 246 255
130.912 55.7895 118.121 196 214 255
110.043 146.231 112.183 255 172 100
108.787 74.4493 120.971 231 235 255
173.232 135.339 108.702 210 223 255
142.768 13.226 111.055 200 217 255
86.3494 112.085 118.795 231 235 255
101.682 78.7502 114.813 240 241 255
107.782 110.07 133.448 209 222 255
17.2587 84.736 112.783 182 206 255
119.446 168.262 114.231 255 251 244
135.55 126.272 111.431 255 249 241
168.086 77.3435 112.488 214 225 255
109.385 96.0903 110.997 255 112 0
184.441 47.0217 113.351 200 217 255
156.011 91.8063 108.341 201 217 255
111.569 105.229 133.254 255 216 186
122.745 100.195 97.7847 255 237 223
148.78 170.555 117.68 199 216 255
141.566 93.9651 116.171 219 228 255
119.611 194.606 112.231 218 228 255
116.667 97.8912 109.272 214 225 255
70.551 71.7776 118.119 223 231 255
93.8025 139.458 104.183 255 237 221
135.008 31.2446 114.071 210 223 255
137.809 32.4521 113.92 211 223 255
99.3083 92.716 114.36 248 245 255
93.4238 93.4113 111.528 255 234 216
151.478 77.2487 120.944 204 220 255
96.7585 120.162 111.779 255 247 239
148.563 121.685 109.847 255 250 255
153.161 91.8153 106.577 206 221 255
28.5715 131.503 111.412 181 205 255
147.044 168.377 116.282 220 229 255
45.5224 31.8517 110.804 192 212 255
124.893 81.5165 102.208 208 222 255
103.917 3.15854 114.7 186 208 255
163.049 168.765 114.543 195 214 255
154.849 110.711 113.484 255 201 158
104.296 141.632 124.311 204 219 255
27.5981 90.2184 113.838 187 209 255
99.7937 221.554 112.695 180 204 255
106.552 64.7124 110.55 233 236 255
123.527 163.378 105.396 207 221 255
78.4931 127.43 106.679 201 217 255
143.417 109.493 116.177 224 231 255
119.151 94.2491 113.137 255 244 233
125.58 63.9461 109.699 234 237 255
146.786 80.3269 116.701 214 225 255
171.374 140.919 118.91 255 182 121
183.869 95.2769 111.096 182 205 255
83.9924 141.687 117.185 255 214 181
111.975 145.12 122.423 225 232 255
96.4751 142.924 103.926 211 223 255
34.9686 110.427 114.972 203 218 255
98.3893 141.518 111.701 255 243 232
142.775 145.019 116.274 212 224 255
72.9145 135.255 116.044 212 224 255
97.0259 50.7515 117.705 204 219 255
51.3257 142.486 112.944 203 218 255
114.942 122.519 134.607 255 228 206
69.5834 129.014 117.635 199 216 255
113.982 102.422 101.745 255 156 63
59.4469 141.34 111.859 201 218 255
90.8535 65.4134 108.595 201 217 255
37.5586 145.947 109.786 255 239 225
86.6313 149.571 121.278 211 224 255
149.696 121.099 124.582 255 251 245
122.806 92.159 117.177 229 234 255
118.014 20.3307 110.609 186 208 255
140.765 166.06 113.058 198 215 255
119.562 91.9359 120.52 255 203 161
59.9834 78.2827 112.562 190 211 255
207.686 69.8099 112.99 192 212 255
147.269 71.1677 114.08 194 213 255
108.259 93.8102 106.679 255 244 234
152.683 101.476 118.608 255 251 255
120.99 141.622 117.848 255 213 179
74.1928 120.428 115.603 209 223 255
106.771 196.74 113.923 197 215 255
172.041 110.027 110.33 219 228 255
153.209 100.025 123.904 198 216 255
148.002 201.323 112.391 181 205 255
