ply
format ascii 1.0
element vertex 1342
property float x
property float y
property float z
property uchar red
property uchar green
property uchar blue
end_header
18.1906 77.4245 110.202 188 209 255
150.55 79.8027 114.269 202 218 255
119.587 102.011 112.434 255 255 251
110.102 111.565 109.058 255 246 238
116.078 58.0256 102.824 209 222 255
164.334 107.141 133.215 205 220 255
45.0146 152.553 116.309 205 220 255
137.294 127.953 118.276 197 215 255
121.63 91.5625 113.07 231 235 255
58.3747 122.444 112.586 206 221 255
105.572 137.044 111.501 204 219 255
112.076 109.239 118.059 240 240 255
135.199 85.5245 115.571 202 218 255
130.234 69.9293 116.805 205 220 255
113.116 147.862 120.396 233 236 255
111.677 151.19 109.038 195 214 255
124.392 3.79128 104.617 178 203 255
85.6187 94.2218 112.138 255 233 215
88.2767 105.939 105.999 217 227 255
121.531 162.637 111.651 225 232 255
140.438 141.684 109.188 210 223 255
165.949 116.152 116.294 228 233 255
110.416 116.207 107.925 255 211 176
94.5496 174.441 111.465 213 225 255
146.858 62.299 109.144 194 213 255
215 49.6806 113.575 179 204 255
127.761 58.0486 113.249 198 215 255
103.951 79.9024 113.605 203 219 255
59.1538 118.787 111.899 195 214 255
102.52 90.0204 112.245 255 226 203
95.7353 178.807 110.672 183 206 255
97.6187 162.944 111.884 201 218 255
105.48 166.862 113.735 255 247 239
104.042 122.972 118.6 220 229 255
181.529 95.3075 112.306 231 235 255
88.9977 135.303 119.287 255 251 246
114.407 134.085 111.148 202 218 255
117.465 93.1211 105.588 229 234 255
194.088 25.8415 112.326 179 204 255
129.601 93.2077 108.952 255 249 255
100.93 116.394 118.458 242 242 255
63.5392 131.733 119.213 207 221 255
153.609 42.1906 115.847 207 221 255
29.9921 50.8756 113.247 240 240 255
50.618 84.1412 111.07 222 230 255
55.1672 179.531 108.1 210 223 255
104.65 123.723 109.728 213 225 255
171.067 122.416 117.564 197 215 255
110.264 119.822 118.104 239 240 255
55.131 161.805 108.008 215 226 255
120.623 106.305 114.348 216 226 255
56.3523 123.165 116.231 203 219 255
65.8313 136.659 106.942 216 227 255
118.963 73.2265 114.721 226 232 255
87.392 117.461 111.946 219 228 255
150.898 158.303 111.601 209 222 255
148.335 14.615 112.154 189 210 255
129.858 120.451 118.679 211 223 255
51.5494 103.616 111.499 202 218 255
142.133 199.34 114.435 186 208 255
53.2732 102.909 120.565 204 219 255
69.5467 133.64 112.814 200 217 255
128.518 185.204 112.402 195 214 255
109.077 111.207 104.641 255 243 232
171.492 96.5196 111.357 192 212 255
96.1696 89.5553 108.155 255 237 222
108.463 158.736 109.012 255 227 205
132.83 72.3801 118.047 255 252 246
115.617 110.652 112.54 255 234 216
106.14 112.582 109.214 213 225 255
98.8641 100.071 117.556 255 249 241
107.783 119.722 118.621 220 229 255
120.268 117.54 111.287 232 236 255
92.3906 59.5073 114.834 255 248 240
81.981 205.47 115.536 215 226 255
96.9054 97.3983 111.742 255 152 54
62.5624 59.2189 104.675 209 222 255
94.5712 174.447 111.474 255 244 234
83.8132 61.2292 109.581 202 218 255
102.315 89.616 111.745 255 248 240
93.0906 58.9519 108.449 203 219 255
94.386 209.644 98.4506 202 218 255
90.5278 117.302 109.563 255 217 188
82.6039 47.924 107.846 208 222 255
112.078 149.964 111.345 233 236 255
117.823 193.047 121.014 196 215 255
74.3692 146.581 115.881 211 224 255
115.266 108.81 111.603 255 192 140
146.332 46.2616 113.368 191 211 255
94.5101 174.404 111.432 199 216 255
105.457 112.921 120.277 255 240 228
137.016 72.6254 116.118 216 226 255
116.117 88.7236 112.619 204 219 255
115.374 112.913 115.99 193 213 255
91.6223 157.514 112.154 255 251 255
28.4049 125.091 112.331 218 228 255
80.41 65.978 117.139 213 225 255
94.4074 174.542 111.445 203 219 255
94.5396 174.447 111.448 223 231 255
89.7952 111.041 110.136 255 213 179
70.3645 139.746 117.429 221 229 255
108.029 108.912 114.503 226 233 255
122.879 101.988 115.142 222 230 255
134.386 144.512 110.821 227 233 255
176.718 47.4379 107.627 187 209 255
64.5533 37.9249 105.071 195 214 255
104.781 120.703 110.685 255 171 97
114.067 99.6143 117.318 255 252 247
190.764 57.7654 108.075 188 210 255
138.034 103.003 105.849 215 226 255
94.3417 144.453 110.903 234 237 255
99.6335 90.613 110.7 225 232 255
95.6705 93.8511 102.245 213 225 255
94.5102 174.468 111.411 188 209 255
115.417 116.951 113.993 255 194 145
100.003 167.098 110.721 212 224 255
161.022 132.042 111.452 207 221 255
115.86 117.806 111.045 255 225 200
112.272 116.84 111.663 231 235 255
12.0482 134.826 108.768 194 213 255
94.5542 174.44 111.473 255 228 206
141.064 77.3856 116.741 210 223 255
93.78 147.576 111.91 255 232 213
83.2841 127.576 118.525 255 227 204
51.1863 84.4999 112.752 210 223 255
136.86 78.2403 113.309 208 222 255
103.631 96.8211 112.956 236 238 255
85.0565 158.488 119.634 217 227 255
134.205 12.4038 113.125 211 224 255
196.451 66.7647 115.182 188 209 255
114.194 123.946 110.583 225 232 255
147.689 136.869 114.842 247 245 255
116.25 124.32 110.216 247 245 255
193.322 12.9225 107.553 194 213 255
50.4939 97.7517 110.606 202 218 255
117.208 109.834 114.199 228 234 255
22.119 137.482 112.245 207 221 255
60.9453 129.191 117.419 192 212 255
160.74 38.8005 114.505 189 210 255
166.657 91.7012 111.998 188 210 255
163.264 126.309 115.01 255 238 224
94.5589 174.435 111.484 255 241 228
103.074 33.8384 115.34 211 224 255
147.235 100.535 107.337 192 212 255
88.5916 166.018 112.308 213 225 255
6.05271 77.5704 115.378 192 212 255
102.72 156.402 113.387 244 242 255
131.193 131.55 114.769 255 127 0
174.347 79.4732 115.11 202 218 255
133.11 58.7311 113.825 200 217 255
130.126 81.9128 113.269 191 211 255
47.4785 81.2541 120.982 191 211 255
94.271 174.355 111.301 199 216 255
14.1996 127.58 108.676 193 212 255
23.8978 69.3124 111.018 192 212 255
97.449 155.102 112.652 255 246 236
62.377 131.918 116.285 209 222 255
94.5423 174.445 111.454 202 218 255
190.364 73.2804 111.615 218 227 255
103.609 135.387 107.385 255 195 147
75.4178 77.4802 112.876 255 227 205
89.0421 111.126 120.184 219 228 255
108.816 55.4479 112.371 212 224 255
65.6376 133.148 113.784 255 246 237
44.448 128.373 114.294 196 214 255
26.7949 105.285 110.157 235 237 255
94.9563 174.403 112.184 209 222 255
209.397 129.158 110.585 189 210 255
113.511 84.8037 115.606 255 251 245
143.123 85.6479 113.048 210 223 255
115.356 95.5155 109.797 217 227 255
137.483 75.9966 112.88 199 216 255
133.267 0.267655 108.231 202 218 255
82.5449 40.4822 115.904 196 214 255
40.8777 66.6484 114.503 183 206 255
171.808 119.478 106.854 201 217 255
202.057 162.322 114.072 197 215 255
136.836 207.501 114.577 187 209 255
161.595 73.0485 112.272 232 236 255
71.9632 57.1764 110.5 220 229 255
61.3055 68.5254 109.739 191 211 255
113.65 81.315 113.939 216 226 255
109.676 115.787 108.656 255 221 193
116.657 83.8549 118.144 255 198 152
140.061 78.9494 117.075 203 219 255
43.477 126.639 111.064 206 220 255
210.881 52.7967 111.739 190 210 255
110.769 98.7842 110.449 217 227 255
114.363 56.4105 108.595 201 218 255
73.0558 111.708 114.731 219 229 255
215.194 106.41 114.469 203 219 255
175.191 182.074 109.831 207 221 255
131.725 128.008 112.001 255 226 203
78.5112 141.109 115.908 213 225 255
80.8371 76.4297 108.02 244 243 255
75.7451 173.57 112.244 200 217 255
52.7023 123.19 87.498 241 241 255
66.7352 103.556 106.898 214 225 255
19.5941 169.075 114.253 190 210 255
106.312 119.506 111.371 255 251 245
153.209 91.1909 111.771 223 231 255
98.7665 175.146 114.25 208 222 255
98.8362 21.4371 106.273 177 202 255
104.865 106.688 107.022 199 216 255
97.0959 168.687 109.892 187 209 255
26.6066 122.687 112.561 179 204 255
171.424 58.8326 110.667 210 223 255
94.5517 174.44 111.469 221 229 255
147.888 3.19666 110.985 184 207 255
136.198 72.042 120.844 255 213 180
165.554 100.062 110.482 220 229 255
71.3305 190.851 111.74 199 216 255
128.569 121.906 112.047 215 226 255
56.2776 146.842 112.128 195 214 255
201.694 72.7 111.201 185 207 255
111.612 136.059 110.881 201 217 255
39.4909 189.355 112.907 203 218 255
164.662 73.6277 113.684 208 221 255
178.661 97.9804 114.77 188 209 255
116.271 121.691 110.075 255 243 231
133.027 80.2075 113.722 228 234 255
138.974 56.407 114.164 222 230 255
65.7536 106.2 112.306 240 240 255
94.5017 174.474 111.417 190 211 255
94.595 162.353 124.676 255 240 228
94.4679 174.638 111.433 199 216 255
143.764 179.432 113.101 206 220 255
94.5497 174.442 111.465 205 220 255
168.934 7.05565 107.254 186 208 255
100.246 166.773 105.091 228 233 255
96.9745 146.793 109.857 255 252 246
67.8976 123.959 113.161 206 221 255
56.6204 150.37 110.576 193 213 255
220.489 98.8697 113.898 194 213 255
66.0233 159.733 111.813 214 225 255
90.577 41.6183 110.682 194 213 255
114.06 108.748 112.113 255 235 218
57.7864 197.498 115.492 190 211 255
12.3306 121.142 111.425 182 205 255
102.648 45.0909 109.135 191 211 255
179.879 15.4604 113.436 198 215 255
190.332 108.742 110.993 194 213 255
119.394 32.5858 112.44 229 234 255
131.613 126.831 112.673 199 216 255
88.9918 59.2035 106.08 193 213 255
149.13 112.849 117.953 246 244 255
162.322 119.837 112.337 195 214 255
144.544 75.9883 112.195 235 238 255
182.618 164.178 101.093 223 231 255
167.048 115.995 110.644 207 221 255
179.25 105.649 112.154 195 214 255
148.675 93.5029 118.493 224 231 255
109.895 157.069 108.045 207 221 255
109.351 157.59 111.334 215 226 255
112.054 126.15 116.253 255 246 237
100.947 15.1383 106.97 199 216 255
63.9562 41.9195 111.708 191 211 255
98.7788 167.293 109.928 204 219 255
74.1678 155.833 132.583 253 248 255
101.327 91.4298 118.764 202 218 255
158.214 12.6798 111.317 214 226 255
113.805 58.0843 114.624 221 230 255
94.9181 81.2564 111.287 223 231 255
94.5219 174.46 111.423 200 217 255
33.9089 84.5008 112.774 212 224 255
104.135 117.821 109.571 229 234 255
66.32 145.86 110.708 214 225 255
120.312 149.445 111.943 246 244 255
118.664 84.8261 116.636 229 234 255
135.44 71.1016 122.035 255 252 247
103.88 99.3655 111.46 229 234 255
71.2358 65.9909 112.248 186 208 255
200.587 73.786 113.303 195 214 255
14.1304 87.2059 113.087 204 219 255
150.898 136.876 119.311 197 215 255
114.419 76.5261 111.742 255 240 227
136.575 100.953 112.602 247 245 255
167.942 168.407 108.535 197 215 255
15.907 138.635 115.483 187 209 255
209.464 54.9082 109.515 186 208 255
122.125 124.714 112.387 255 44 0
33.3184 191.584 112.044 208 222 255
104.646 130.911 108.92 255 241 229
39.7296 82.7573 109.979 210 223 255
76.9838 72.6555 117.198 202 218 255
65.5971 128.086 110.368 220 229 255
24.1266 168.348 111.307 255 250 255
100.072 86.873 116.892 236 238 255
79.1952 124.084 111.635 255 246 237
65.5071 94.6438 112.554 202 218 255
82.1826 70.1377 110.497 215 226 255
137.91 107.145 113.099 255 232 214
175.821 126.433 119.246 202 218 255
104.672 56.2471 117.091 195 214 255
0.0163128 116.809 114.256 239 240 255
91.294 123.876 120.957 255 240 227
62.0975 128.708 95.5946 210 223 255
114.358 113.235 112.299 255 248 241
75.9426 203.924 105.266 234 237 255
132.541 100.637 108.892 218 228 255
146.157 95.3458 108.36 243 242 255
66.6444 85.196 109.202 205 220 255
135.587 115.383 110.13 255 218 188
122.886 189.056 112.524 255 248 240
94.5226 174.396 111.422 215 226 255
140.695 87.2685 111.424 215 226 255
91.5017 101.974 110.307 255 242 231
114.53 159.449 111.904 255 228 207
130.904 49.6285 110.503 218 227 255
88.9005 190.878 112.028 202 218 255
132.07 77.5978 113.247 255 235 218
132.278 109.441 117.612 234 237 255
92.7816 162.444 109.152 218 227 255
135.431 142.956 111.992 255 250 243
175.046 119.812 110.459 215 226 255
97.8549 176.179 106.624 205 220 255
137.049 124.147 111.557 255 250 244
167.252 102.544 105.648 224 231 255
131.753 115.605 112.091 236 238 255
115.797 129.393 117.158 255 254 250
161.621 137.697 117.571 203 219 255
119.185 126.377 108.499 232 236 255
125.423 116.444 115.941 255 240 227
123.814 42.3762 117.657 201 218 255
108.205 125.014 114.43 253 248 255
66.0714 108.699 117.263 255 252 248
88.8447 183.304 111.378 185 208 255
115.553 109.422 110.564 188 210 255
109.591 112.705 109.794 206 220 255
110.446 78.5257 113.725 214 225 255
104.583 120.004 117.896 226 232 255
60.7509 77.6905 113.54 193 213 255
207.943 146.086 112.401 184 207 255
147.763 178.772 91.8072 194 213 255
103.776 32.5962 113.974 189 210 255
102.679 121.428 120.566 233 236 255
131.51 100.141 118.866 220 229 255
12.3261 151.826 111.655 200 217 255
144.414 27.7138 113.022 211 224 255
49.3369 218.151 110.717 182 206 255
152.333 60.994 110.05 189 210 255
183.072 176.62 111.863 203 218 255
94.5476 174.442 111.463 212 224 255
119.144 123.24 111.249 255 249 242
70.8367 55.6128 110.494 184 207 255
130.422 142.926 112.3 244 243 255
123.717 177.873 113.169 202 218 255
107.412 136.519 117.09 237 239 255
45.8538 89.9801 113.549 187 209 255
70.2179 142.688 118.613 202 218 255
191.456 144.112 118.004 218 228 255
159.633 148.299 111.077 192 212 255
94.5476 174.442 111.462 181 205 255
134.229 153.35 115.487 196 214 255
51.1379 106.366 108.109 187 209 255
122.254 76.4707 110.953 255 248 240
70.4431 102.716 111.084 203 218 255
114.183 117.194 110.896 232 236 255
94.5062 27.3212 106.374 191 211 255
131.325 3.47434 110.972 213 225 255
100.556 88.2678 110.787 215 226 255
90.5698 3.53414 108.489 187 209 255
190.347 127.293 114.748 227 233 255
164.568 142.887 112.002 195 214 255
99.8273 102.007 116.66 207 221 255
155.624 161.111 115.925 236 238 255
132.494 136.476 112.175 243 242 255
125.686 117.719 113.461 255 237 221
72.2867 131.976 111.972 238 239 255
119.08 108.785 111.283 255 227 205
108.284 107.908 113.697 255 191 139
97.5676 49.3056 109.806 192 212 255
94.3321 101.584 114.546 233 237 255
45.652 79.3003 117.283 255 226 203
126.437 129.282 115.706 255 178 111
56.0189 218.543 109.395 190 210 255
53.1504 115.533 114.468 206 221 255
68.3793 15.6837 113.701 181 205 255
166.232 14.9446 112.773 195 214 255
163.105 85.4688 96.2137 233 236 255
147.937 77.3472 113.973 198 215 255
111.271 107.172 113.039 214 225 255
100.68 70.6909 113.147 255 232 212
122.966 98.6526 120.33 207 221 255
111.184 85.9335 111.324 255 203 162
125.836 182.091 100.548 181 205 255
91.6446 131.502 109.037 255 247 239
125.713 143.926 110.641 205 220 255
115.598 170.636 111.852 217 227 255
65.0664 136.138 113.722 243 242 255
97.1282 89.5687 110.079 242 242 255
69.3368 119.542 112.041 203 219 255
113.682 137.845 111.332 255 240 226
61.5854 51.3541 106.947 197 215 255
119.051 111.852 109.498 219 228 255
49.4001 87.2013 104.323 201 217 255
118.883 117.382 104.656 255 253 249
114.816 115.122 118.021 220 229 255
157.406 90.1359 116.009 203 219 255
170.8 150.82 111.063 197 215 255
61.7396 148.055 111.11 237 239 255
127.525 73.8579 115.927 219 228 255
108.787 112.302 109.562 255 242 231
101.588 180.924 111.463 250 246 255
139.854 175.594 112.14 183 206 255
93.8265 54.8953 115.37 200 217 255
92.7979 85.8804 115.254 226 232 255
161.551 18.8358 111.828 193 213 255
204.628 147.669 112.504 186 208 255
91.193 147.182 113.271 221 229 255
137.55 124.054 113.678 255 246 237
98.8041 103.793 112.876 222 230 255
76.3144 70.0997 114.275 206 220 255
171.384 3.91593 108.434 191 211 255
75.7707 114.181 112.03 204 219 255
174.068 97.1516 113.181 208 222 255
94.5281 174.477 111.423 204 219 255
201.794 124.139 109.978 194 213 255
117.933 105.735 114.7 255 241 229
94.5084 174.475 111.396 194 213 255
56.366 80.9421 109.973 255 241 229
196.809 179.064 114.393 198 216 255
95.5734 175.141 112.638 197 215 255
145.51 94.505 116.001 230 235 255
113.08 107.363 107.887 255 249 255
64.7291 131.931 109.85 201 218 255
113.676 103.241 118.073 223 231 255
144.935 175.761 96.7347 200 217 255
26.2746 136.261 111.048 205 220 255
177.46 63.0381 112.934 206 221 255
46.9379 158.3 110.862 198 216 255
116.383 112.693 110.636 226 232 255
47.7881 42.9984 101.342 222 230 255
110.216 118.939 105.686 236 238 255
80.1698 119.988 118.299 247 244 255
106.727 75.3038 112.278 255 241 228
105.295 107.768 109.818 255 231 212
172.136 82.6388 104.896 220 229 255
107.393 79.6129 109.225 255 198 152
77.7593 15.5495 111.611 183 206 255
116.898 105.075 106.817 255 249 255
154.701 162.657 104.776 203 218 255
112.382 112.124 114.219 255 243 232
72.4284 130.022 111.51 205 220 255
118.59 105.159 109.677 255 222 195
5.56689 145.209 111.636 185 207 255
101.673 153.951 112.783 236 238 255
94.625 174.463 111.565 255 238 224
118.231 196.686 112.32 201 217 255
113.586 120.559 113.652 224 231 255
99.4805 85.8076 113.038 255 248 240
212.915 51.3704 108.409 192 212 255
68.2568 51.2167 117.917 245 243 255
65.956 139.665 116.33 200 217 255
137.552 19.5105 112.781 194 213 255
132.194 105.418 119.298 223 231 255
96.7923 84.9627 109.574 255 226 202
80.9604 165.552 113.533 244 243 255
207.302 39.6688 111.495 194 213 255
195.755 59.4238 113.514 207 221 255
114.393 101.231 114.66 255 184 124
56.7273 92.7844 111.507 209 222 255
210.639 75.4343 108.973 187 209 255
103.688 108.526 115.974 235 238 255
49.6228 71.3394 112.1 194 213 255
95.4013 174.389 111.981 180 204 255
147.367 78.6367 124.051 255 212 179
115.917 8.68883 110.538 183 206 255
153.607 54.2244 112.216 191 211 255
67.9973 48.2304 113.426 186 208 255
129.43 27.623 115.64 231 235 255
75.5577 79.0471 117.266 255 249 242
19.1041 91.6396 114.962 179 204 255
120.606 89.3251 119.745 255 241 229
146.921 69.5408 114.401 228 234 255
115.136 106.947 107.994 214 225 255
49.1762 78.4703 109.263 196 215 255
141.123 54.7846 109.886 201 217 255
105.152 117.486 119.086 197 215 255
162.081 99.2529 111.666 223 230 255
65.2763 123.021 102.133 235 237 255
144.791 181.211 107.216 208 221 255
122.961 13.2147 111.75 190 211 255
85.3798 58.8575 115.357 200 217 255
88.7615 48.6419 111.165 202 218 255
168.073 183.146 114.551 198 215 255
68.267 47.6623 108.55 198 216 255
110.967 120.186 117.128 255 223 197
129.184 25.7655 142.744 187 209 255
151.824 89.315 111.401 213 225 255
126.896 173.664 110.555 185 208 255
14.0653 141.69 113.905 187 209 255
76.9404 127.725 119.682 212 224 255
110.08 150.307 114.823 222 230 255
50.301 145.25 112.429 210 223 255
147.163 130.503 105.278 194 213 255
115.305 10.863 107.388 225 232 255
85.7224 80.6918 117.686 207 221 255
85.6292 21.7972 108.359 188 210 255
217.992 78.2532 114.732 202 218 255
119.763 91.8734 104.378 255 164 82
168.226 131.211 111.187 189 210 255
139.697 96.0111 118.453 255 220 191
137.574 224.426 131.939 204 219 255
101.843 143.191 108.739 225 232 255
93.4796 98.474 111.948 255 236 219
141.07 115.061 106.828 255 251 245
118.89 96.0256 108.152 255 242 231
68.5064 36.1158 121.815 185 208 255
115.364 114.437 112.694 255 116 0
111.398 109.335 109.754 220 229 255
139.887 175.574 111.069 205 220 255
99.1735 60.4757 110.617 186 208 255
162.647 147.789 105.165 207 221 255
94.537 174.449 111.443 212 224 255
61.3889 187.088 113.2 189 210 255
58.7615 127.581 109.626 255 253 249
105.272 116.319 107.564 255 222 196
151.005 151.047 116.679 221 229 255
94.906 175.686 111.322 203 219 255
142.708 142.596 110.132 200 217 255
94.436 174.455 111.475 255 253 248
94.6476 108.505 111.792 227 233 255
70.4618 138.28 117.327 207 221 255
136.255 61.0255 115.638 184 207 255
110.315 129.647 111.76 239 240 255
116.328 123.757 113.412 255 175 106
52.6649 23.9678 114.064 178 203 255
90.5869 131.26 114.433 220 229 255
140.904 151.148 108.667 212 224 255
92.3441 133.532 110.172 214 225 255
57.9615 185.947 114.617 186 208 255
52.3265 117.577 113.145 200 217 255
105.71 151.325 116.186 255 249 242
89.1424 207.099 108.139 192 212 255
188.885 119.801 112.524 197 215 255
108.427 95.7936 101.289 236 238 255
62.8162 157.658 111.143 187 208 255
143.224 123.652 105.062 255 252 247
125.492 58.4573 119.405 189 210 255
153.752 111.215 110.886 232 236 255
136.71 155.152 114.601 248 245 255
105.319 111.874 106.098 255 237 221
97.8915 113.88 111.88 213 224 255
110.459 81.3212 116.076 203 219 255
79.1102 33.6385 108.187 189 210 255
130.122 52.343 108.839 197 215 255
159.429 6.95353 113.52 184 207 255
68.385 128.791 114.825 240 240 255
141.701 39.8618 114.635 193 212 255
164.803 125.168 113.921 194 213 255
112.242 99.7575 115.83 224 231 255
40.5966 138.186 108.145 200 217 255
106.371 210.392 108.415 187 209 255
113.372 114.938 111.37 190 211 255
168.051 128.327 118.953 255 241 229
94.7959 174.224 111.882 210 223 255
101.583 163.799 108.266 213 225 255
138.243 125.107 113.932 255 242 231
136.252 112.328 115.426 228 234 255
160.774 136.322 111.098 221 230 255
26.8774 174.82 112.346 180 204 255
121.694 73.6974 119.522 255 232 214
78.9087 48.009 111.067 186 208 255
167.155 154.697 108.118 186 208 255
151.217 157.147 112.276 202 218 255
100.54 51.7492 110.561 212 224 255
83.278 62.2559 111.193 218 228 255
77.169 154.676 121.871 198 215 255
123.814 75.6621 117.372 216 227 255
162.812 118.55 154.645 210 223 255
168.751 147.158 112.527 255 250 243
18.1464 56.8528 106.896 183 206 255
60.2577 103.557 106.602 203 219 255
122.477 87.0362 116.556 202 218 255
145.13 80.5625 115.153 247 244 255
107.91 111.776 115.544 255 220 192
69.2355 55.884 110.664 187 209 255
135.478 117.193 105.216 255 247 239
46.7746 50.6619 111.999 188 209 255
121.269 99.4343 112.385 221 229 255
160.503 132.484 110.837 255 236 220
203.836 93.0743 110.498 190 211 255
91.7577 99.1544 105.419 196 215 255
72.7746 142.537 105.551 225 232 255
70.5588 113.999 111.573 203 219 255
143.602 143.652 118.469 193 213 255
23.287 54.572 114.766 191 211 255
133.21 149.989 113.163 222 230 255
134.794 161.27 109.953 195 214 255
208.16 115.407 113.887 186 208 255
163.588 117.559 109.414 202 218 255
130.655 79.9167 112.222 207 221 255
86.6189 98.1798 120.476 190 210 255
103.334 98.3004 111.507 224 231 255
66.2326 143.091 111.998 214 225 255
108.841 126.985 111.504 254 249 255
217.268 75.0907 113.089 202 218 255
108.79 171.855 111.649 212 224 255
89.7386 158.179 109.233 199 216 255
103.959 116.39 108.995 198 216 255
64.6929 126.466 107.989 206 220 255
12.7202 131.326 114.534 182 206 255
152.498 63.7916 123.554 255 233 214
169.654 156.202 108.742 240 240 255
119.471 130.049 111.797 255 142 29
117.079 106.074 110.903 255 224 199
112.746 115.837 118.059 255 240 226
115.819 117.468 110.467 247 244 255
138.158 130.102 113.126 226 233 255
184.295 15.0276 106.909 200 217 255
120.44 87.1552 111.276 255 237 221
85.7837 126.066 89.5977 198 216 255
110.84 106.853 112.987 255 252 248
53.9314 69.5301 113.632 209 222 255
220.261 85.0784 113.677 181 205 255
161.374 141.679 112.198 208 221 255
159.513 46.6427 114.859 197 215 255
222.529 97.7427 113.406 181 205 255
101.758 62.7185 116.786 250 246 255
188.265 123.915 114.224 190 211 255
124.287 100.69 112.535 255 173 101
94.9776 174.475 111.911 224 231 255
57.6282 111.398 111.96 199 216 255
75.9445 31.9414 112.998 195 214 255
96.7484 173.262 107.646 216 226 255
171.22 23.9983 110.902 216 227 255
122.374 122.453 111.042 203 218 255
222.517 98.4409 116.665 183 206 255
145.389 136.027 107.569 205 220 255
92.4959 133.866 104.933 255 252 246
51.1374 140.392 116.664 207 221 255
94.5089 174.471 111.384 208 221 255
140.201 182.03 112.068 186 208 255
146.061 80.7968 110.545 213 225 255
156.969 77.7217 136.853 244 243 255
144.887 181.35 113.553 196 215 255
52.912 82.879 111.558 214 225 255
130.417 74.6527 119.189 209 223 255
99.761 101.022 114.083 212 224 255
194.99 36.0625 116.843 189 210 255
132.046 67.396 107.905 209 222 255
88.5422 181.991 112.423 206 220 255
167.754 109.99 110.524 205 220 255
115.172 90.123 112.105 255 231 211
117.226 117.01 111.497 255 243 231
54.4783 147.548 107.647 185 207 255
146.029 93.4755 112.764 255 250 244
136.575 104.813 121.721 255 233 215
114.186 107.877 108.24 255 224 199
150.546 85.1963 112.506 255 237 222
185.546 72.6932 112.112 190 211 255
72.948 84.829 113.317 210 223 255
52.1935 122.188 112.116 199 216 255
107.961 114.021 103.881 255 159 71
106.661 112.31 109.172 255 242 230
110.1 38.9785 111.702 191 211 255
194.481 30.2954 114.444 191 212 255
133.416 99.7894 118.968 237 239 255
83.6031 22.7157 114.474 189 210 255
215.711 72.1411 110.595 213 225 255
105.631 100.49 113.474 255 251 255
61.8825 109.407 114.618 220 229 255
94.7391 174.791 111.412 208 222 255
77.5419 64.9994 115.668 192 212 255
161.845 55.8167 115.6 200 217 255
76.4809 214.632 115.906 182 206 255
198.4 64.0189 113.346 175 201 255
104.972 112.127 116.866 228 234 255
68.7646 68.4094 110.586 255 232 213
81.6177 54.8944 118.491 193 213 255
194.344 109.048 112.455 180 204 255
117.091 108.495 112.63 255 221 193
128.742 93.1751 119.826 221 229 255
116.922 135.036 115.664 239 240 255
127.168 145.908 112.64 217 227 255
91.0595 151.397 122.507 205 220 255
118.865 98.7398 115.608 215 226 255
46.2219 103.679 112.222 207 221 255
102.154 121.264 109.229 255 197 151
162.803 181.427 123.672 201 218 255
94.7236 174.639 111.346 211 224 255
143.283 125.654 118.204 201 218 255
108.053 84.0648 111.095 218 228 255
121.783 177.785 110.675 189 210 255
108.619 161.284 109.039 205 220 255
115.364 87.0128 108.028 211 223 255
142.263 93.5854 109.641 255 240 228
87.8219 66.0837 118.925 201 217 255
153.702 149.887 109.678 203 219 255
52.6768 66.8657 105.763 217 227 255
53.5745 134.408 112.808 204 219 255
112.294 111.651 113.335 220 229 255
26.4581 182.718 112.53 181 205 255
81.4151 96.6999 107.901 250 246 255
61.8001 54.9674 105.073 187 209 255
117.16 177.733 112.518 192 212 255
110.267 145.604 109.995 205 220 255
139.564 93.162 116.396 255 232 213
94.5469 174.443 111.461 197 215 255
110.643 109.704 108.379 255 140 23
167.254 98.4967 110.599 213 225 255
110.202 96.0977 108.754 255 232 212
166.056 83.46 107.827 195 214 255
101.077 81.2151 104.517 211 224 255
68.3805 169.199 112.132 202 218 255
112.784 97.9325 105.435 241 241 255
123.009 81.3747 116.132 227 233 255
151.979 126.096 108.926 255 211 176
113.965 110.868 109.64 255 218 189
114.892 113.254 112.374 233 237 255
117.183 86.2673 109.708 242 242 255
114.03 103.287 115.757 208 222 255
172.777 122.108 106.362 204 219 255
124.459 82.3503 118.479 211 223 255
140.06 41.5594 112.511 189 210 255
75.6652 141.876 111.577 255 238 224
189.165 127.133 114.014 218 228 255
103.568 159.743 99.6647 244 242 255
88.8943 23.5078 114.906 193 212 255
94.5417 174.445 111.453 215 226 255
134.252 90.752 119.587 255 253 249
117.483 124.195 110.93 255 130 0
129.537 74.9268 114.985 255 176 107
111.657 43.6313 115.871 205 220 255
94.5487 174.442 111.464 245 243 255
214.338 66.4766 110.034 187 209 255
199.353 176.799 113.094 201 217 255
164.327 88.2384 111.136 182 206 255
38.7885 129.736 114.852 211 223 255
108.27 89.5713 120.694 204 220 255
104.478 120.116 108.499 240 241 255
146.462 169.733 115.42 211 224 255
94.4338 174.462 111.534 223 231 255
159.673 138.645 73.2379 207 221 255
136.751 62.2244 116.385 231 235 255
131.158 15.017 90.6234 206 220 255
116.377 78.2659 105.125 255 250 244
166.412 26.0711 113.067 188 209 255
61.6899 149.135 114.814 255 251 245
72.0614 37.3713 111.657 210 223 255
123.134 206.064 108.859 196 214 255
119.079 73.2038 112.733 205 220 255
108.336 121.814 118.944 255 213 179
114.624 143.267 111.312 234 237 255
114.173 156.503 111.327 192 212 255
109.707 103.953 114.879 200 217 255
100.404 205.534 119.463 189 210 255
111.149 110.001 116.591 243 242 255
157.703 191.908 113.291 188 209 255
146.972 21.3197 115.537 230 235 255
106.076 81.5608 113.915 202 218 255
98.6484 144.093 108.406 244 243 255
94.7236 174.604 111.384 209 223 255
57.6192 107.841 112.237 255 246 236
106.705 80.491 110.42 195 213 255
114.531 130.091 115.865 251 247 255
50.6 100.376 109.947 255 250 243
82.7026 62.2709 118.256 203 219 255
161.949 59.8234 112.389 227 233 255
162.648 81.826 118.21 252 247 255
94.5413 174.446 111.445 186 208 255
77.8056 147.151 109.885 191 211 255
129.903 68.3923 112.72 213 225 255
127.415 200.754 109.474 195 214 255
123.299 136.448 119.262 255 229 209
90.4602 159.039 128.568 255 234 217
87.2635 199.57 108.823 190 211 255
72.8755 154.21 113.445 195 214 255
94.5397 174.448 111.445 193 213 255
45.4735 58.4065 118.888 196 214 255
144.728 138.796 110.327 214 226 255
80.3744 91.0946 106.942 220 229 255
155.609 88.9078 111.707 255 205 165
127.207 122.523 116.788 255 251 246
90.7981 89.0892 115.177 225 232 255
92.4429 61.7236 118.678 239 240 255
11.3173 71.1006 109.134 181 205 255
108.304 138.768 111.977 255 225 201
145.339 90.5637 118.351 255 239 226
109.444 78.3127 113.472 204 219 255
121.06 89.9187 111.834 255 218 189
49.7433 89.9092 112.818 200 217 255
96.5808 96.619 117.209 233 236 255
132.707 115.283 118.313 242 242 255
100.822 86.6113 116.032 242 242 255
15.5406 139.361 115.391 192 212 255
162.348 143.693 111.6 203 218 255
94.409 174.464 111.721 188 209 255
142.464 85.8076 112.437 199 216 255
94.462 174.611 111.372 191 211 255
182.415 91.8902 110.583 185 208 255
161.493 106.111 116.019 197 215 255
95.2483 97.7245 112.993 255 248 240
94.386 122.978 111.719 227 233 255
152.613 99.8399 119.471 222 230 255
82.3188 67.2283 109.995 196 214 255
50.0026 100.941 109.668 198 215 255
90.3314 160.979 118.385 248 245 255
103.34 116.475 108.702 255 245 235
103.093 61.8079 118.414 208 222 255
131.146 117.483 118.056 227 233 255
150.765 168.861 120.514 201 218 255
123.169 147.501 110.399 236 238 255
96.5274 163.58 118.624 250 246 255
44.8223 203.319 110.892 189 210 255
105.981 118.53 109.071 255 251 255
104.097 77.3297 113.826 208 222 255
98.1056 114.221 112.158 255 223 198
142.864 163.387 111.887 199 216 255
51.8041 197.489 114.457 201 218 255
113.347 96.9014 107.112 211 223 255
152.309 127.647 110.407 255 224 200
63.3868 63.7016 112.503 203 218 255
117.047 33.2392 113.817 189 210 255
155.506 58.3439 116.377 197 215 255
97.861 72.6181 107.067 204 220 255
94.5961 174.194 111.398 229 234 255
76.4477 109.97 114.943 255 241 229
122.716 139.184 109.395 231 235 255
192.496 102.886 105.442 218 228 255
94.4685 174.472 111.392 255 250 243
148.035 82.7111 115.515 202 218 255
99.4907 88.5453 111.884 213 225 255
107.044 151.269 112.151 201 217 255
107.819 149.983 111.873 255 251 245
106.365 127.177 111.842 255 230 209
139.448 121.224 121.344 198 216 255
71.6871 59.4799 112.04 197 215 255
94.7888 174.379 111.734 255 250 243
80.608 136.993 108.11 200 217 255
182.858 95.3421 114.868 187 209 255
42.8204 90.5192 105.927 211 224 255
106.39 182.367 110.779 190 211 255
108.424 90.3036 119.872 212 224 255
107.152 115.919 105.525 236 238 255
107.161 121.74 109.222 255 219 190
70.1891 47.629 109.802 240 240 255
115.967 114.828 112.279 227 233 255
94.5824 174.429 111.52 206 220 255
101.745 43.695 115.67 189 210 255
96.7907 81.2381 114.406 255 169 93
172.894 128.308 110.188 255 251 245
100.447 116.694 114.828 212 224 255
96.8755 100.563 111.644 255 251 246
159.792 118.094 115.853 255 255 251
43.7495 111.276 126.891 220 229 255
171.302 125.588 111.021 207 221 255
94.6085 174.48 111.66 188 210 255
107.723 88.7162 105.632 231 235 255
78.9176 41.8169 105.872 194 213 255
69.408 142.254 124.75 199 216 255
159.162 165.574 104.265 190 211 255
11.7586 153.959 113.532 178 203 255
192.445 119.588 110.209 204 219 255
100.441 214.429 96.7407 191 211 255
61.6662 181.631 113.257 193 212 255
119.432 120.767 108.633 229 234 255
66.9636 137.384 108.307 198 216 255
65.0817 144.307 119.546 224 231 255
93.2374 124.319 115.767 255 229 209
148.91 89.8045 112.38 187 209 255
99.8353 115.453 114.345 230 235 255
165.447 94.4787 111.819 255 247 239
128.591 73.9594 117.679 255 246 237
156.586 97.895 111.578 203 219 255
162.024 49.8586 109.892 222 230 255
97.7527 33.8113 114.834 185 207 255
33.2085 155.958 110.014 198 215 255
176.993 164.75 112.635 182 206 255
67.9655 128.985 118.926 230 235 255
94.5545 174.442 111.475 211 223 255
93.2817 37.0613 113.912 201 217 255
90.351 43.5669 115.455 193 212 255
115.767 98.2992 105.584 255 222 197
153.831 194.741 111.934 192 212 255
57.6301 166.631 116.322 190 211 255
167.286 116.539 104.067 194 213 255
105.03 153.835 115.983 255 245 235
94.9932 174.833 111.493 187 209 255
140.029 32.0009 112.505 209 222 255
158.36 89.1957 112.334 215 226 255
135.438 123.928 116.448 255 218 189
14.688 132.573 115.88 187 208 255
111.2 121.181 120.143 222 230 255
75.7421 141.839 113.29 196 215 255
59.6531 56.1246 107.541 203 219 255
94.5309 174.489 111.394 226 233 255
214.598 156.539 112.127 179 204 255
49.7731 87.5004 120.563 193 212 255
134.792 157.631 115.928 205 220 255
64.6825 33.3763 112.735 188 209 255
117.742 153.261 111.53 199 216 255
104.274 143.025 111.98 203 219 255
111.425 111.909 115.098 210 223 255
126.217 199.351 110.745 194 213 255
95.0123 174.871 111.526 213 225 255
133.888 66.715 114.791 187 209 255
162.722 96.6124 114.399 204 219 255
106.246 149.73 111.088 233 237 255
115.646 73.3776 110.111 233 237 255
72.9535 17.1783 112.074 177 203 255
136.124 79.8554 110.45 198 215 255
170.988 82.3115 115.314 208 222 255
94.5368 174.448 111.444 217 227 255
152.792 31.0094 112.094 200 217 255
73.9851 205.177 110.206 189 210 255
58.9962 127.367 113.362 247 245 255
119.964 62.0439 110.476 232 236 255
92.6988 93.2149 119.007 221 229 255
113.059 113.009 111.266 255 180 117
109.865 109.694 117.097 255 245 234
167.582 156.09 109.573 255 254 250
174.021 142.889 107.815 198 215 255
128.056 194.557 124.695 188 209 255
136.856 108.944 118.699 255 209 173
137.062 82.5159 106.478 238 239 255
94.7676 168.964 111.53 227 233 255
94.6615 174.445 111.5 200 217 255
94.5636 174.446 111.478 183 206 255
128.563 153.417 112.05 223 231 255
103.918 33.3301 110.439 238 239 255
77.6598 184.356 110.287 191 211 255
117.08 110.023 111.675 255 216 185
51.8768 100.939 105.781 255 248 240
48.5856 115.477 114.229 208 222 255
125.825 66.3305 111.402 239 240 255
18.343 180.426 114.847 196 215 255
213.014 100.393 111.687 187 208 255
73.8478 23.6012 101.716 189 210 255
160.514 124.788 118.288 255 253 248
158.605 37.085 113.569 192 212 255
77.5606 144.295 114.622 249 245 255
114.297 106.448 112.618 255 248 240
73.0978 100.923 107.365 201 217 255
108.943 197.85 110.692 205 220 255
90.032 92.9656 115.666 216 226 255
51.5421 103.133 108.281 191 211 255
32.1905 48.0794 110.26 177 202 255
141.109 76.9271 113.828 194 213 255
78.8834 168.353 112.585 198 216 255
68.5203 137.689 101.607 255 237 222
102.935 123.877 110.259 255 212 177
137.584 139.441 115.519 255 225 200
178.114 121.726 112.894 224 231 255
94.5362 174.448 111.443 211 224 255
148.668 206.812 113.38 190 211 255
108.894 119.182 108.485 219 228 255
108.118 108.039 110.336 255 240 228
192.961 88.4028 113.931 212 224 255
106.949 117.534 105.132 245 243 255
106.491 107.863 114.71 237 239 255
94.308 173.839 110.846 238 239 255
176.649 79.6402 110.901 196 214 255
35.1066 51.3537 114.025 180 204 255
182.466 11.4707 112.15 211 223 255
35.1287 180.195 108.42 193 212 255
119.704 103.33 116.336 255 248 241
68.8051 107.32 116.774 194 213 255
111.483 83.611 112.837 255 215 184
168.602 105.323 110.88 206 221 255
122.188 143.664 112.245 221 229 255
78.1283 81.8488 109.33 192 212 255
177.082 13.6064 97.7236 201 217 255
108.772 142.533 115.418 205 220 255
106.328 106.818 114.998 255 251 255
71.1365 142.951 126.846 203 219 255
35.6881 84.7385 112.146 184 207 255
83.3709 152.329 111.384 193 213 255
181.886 84.2931 111.151 198 216 255
125.225 62.2604 114.201 196 215 255
90.0677 68.0807 106.798 239 240 255
129.29 141.122 109.236 215 226 255
107.12 114.433 108.726 255 237 222
122.396 116.325 115.993 232 236 255
91.0238 150.64 121.252 230 235 255
179.208 171.171 110.961 195 214 255
62.9028 102.073 115.557 227 233 255
116.538 157.197 110.192 199 216 255
117.268 147.572 115.147 216 226 255
99.1671 88.7885 114.139 188 210 255
55.6785 120.88 114.326 210 223 255
81.67 49.752 112.945 206 221 255
152.044 88.0076 117.951 221 229 255
133.662 70.861 118.043 227 233 255
108.084 110.085 114.938 255 213 180
156.002 158.695 121.055 186 208 255
139.654 163.306 108.552 200 217 255
93.751 174.591 109.891 202 218 255
98.4869 130.894 105.475 226 232 255
120.96 96.4603 108.518 255 200 155
21.4039 60.7932 111.901 189 210 255
45.8845 99.292 113.287 186 208 255
164.639 163.214 111.855 223 230 255
76.0048 175.661 115.445 192 212 255
121.479 140.649 111.484 255 223 198
209.248 154.046 114.199 185 207 255
153.042 96.5696 113.046 255 206 167
84.7667 40.7092 114.891 189 210 255
65.182 76.6277 115.745 194 213 255
77.3291 182.471 111.886 222 230 255
96.3971 147.771 115.495 220 229 255
84.7064 155.485 110.989 233 236 255
105.271 87.8143 111.137 210 223 255
141.606 176.097 111.497 192 212 255
93.109 68.0226 107.921 255 248 241
49.066 192.989 111.93 179 204 255
111.941 113.978 116.982 255 243 232
58.4295 222.71 120.878 184 207 255
103.437 68.9458 116.598 255 254 251
94.6391 174.423 111.597 235 238 255
123.835 194.601 110.591 201 217 255
74.1413 130.055 118.58 255 201 157
48.7572 87.8713 117.247 189 210 255
47.7899 142.045 112.097 197 215 255
122.058 192.624 141.11 255 244 233
124.618 72.6971 128.45 245 243 255
161.129 108.182 107.666 216 226 255
102.773 93.7359 107.003 255 78 0
96.0299 90.4951 114.323 253 248 255
185.043 13.7313 113.063 201 217 255
94.3075 95.7699 110.102 255 198 152
54.6923 105.751 117.958 192 212 255
67.0047 57.616 111.571 199 216 255
119.195 145.659 114.202 255 245 235
123.498 148.87 110.744 255 247 238
30.9912 96.7024 111.954 183 206 255
98.1155 114.613 113.188 227 233 255
89.1946 41.967 112.414 183 206 255
129.744 23.8287 111.953 195 214 255
79.0444 132.745 111.345 220 229 255
131.823 119.711 116.333 225 232 255
187.378 171.559 116.451 204 219 255
96.9353 110.485 110.249 255 220 193
40.5174 194.075 114.631 200 217 255
195.883 155.117 112.334 204 220 255
42.8292 58.5161 105.268 198 216 255
79.8469 142.014 109.659 181 205 255
94.585 174.817 111.543 196 214 255
47.235 48.6896 112.14 190 211 255
42.1537 85.9878 108.81 241 241 255
119.476 187.055 113.441 198 216 255
69.7688 45.0241 110.897 200 217 255
166.778 99.1744 117.162 250 246 255
121.99 178.132 115.441 185 208 255
121.018 135.383 112.061 210 223 255
85.655 85.2323 110.095 255 224 199
59.3387 76.9061 117.447 199 216 255
104.569 185.504 111.773 181 205 255
43.6433 180.501 117.109 181 205 255
65.5283 163.8 111.219 242 242 255
133.51 187.93 111.641 192 212 255
127.422 132.23 113.332 208 222 255
94.609 174.45 111.546 214 225 255
118.368 77.1506 117.328 219 228 255
86.6639 32.9496 113.858 188 209 255
15.3427 184.545 112.139 180 204 255
79.4442 109.473 109.991 201 217 255
137.899 146.714 112.941 221 229 255
187.23 84.8729 115.571 198 215 255
151.597 89.9877 118.381 216 227 255
145.977 109.843 118.449 205 220 255
93.0437 100.117 110.462 255 149 47
80.9706 82.5766 114.746 198 215 255
32.49 153.512 111.816 178 203 255
58.1043 69.2613 111.74 211 224 255
183.003 57.3475 113.575 200 217 255
182.206 139.034 127.352 189 210 255
113.742 118.474 111.036 255 217 186
122.831 69.8644 111.703 206 221 255
94.8239 174.695 111.387 255 220 192
130.035 148.11 110.638 245 243 255
39.4227 76.6117 120.467 214 225 255
76.1109 104.85 118.205 212 224 255
95.4652 128.008 116.186 223 231 255
94.4855 174.428 111.413 207 221 255
94.2385 153.937 119.487 255 232 213
139.728 90.3652 107.351 255 231 211
220.215 86.2148 110.916 191 211 255
180.792 140.519 114.588 192 212 255
62.088 105.127 108.172 226 232 255
200.03 119.901 109.018 187 209 255
150.625 84.6084 112.269 255 221 194
131.068 104.087 118.218 216 226 255
157.592 43.3948 112.157 255 254 250
153.801 133.171 113.706 201 217 255
79.7017 127.688 117.789 213 224 255
113.628 101.45 112.636 234 237 255
182.679 20.7218 110.694 199 216 255
70.7688 113.887 120.04 255 244 234
149.815 193.648 103.375 196 214 255
104.222 45.5921 111.247 195 214 255
117.068 104.156 111.697 209 223 255
107.261 16.2409 123.548 194 213 255
33.7852 41.5948 112.025 185 207 255
104.015 124.145 115.662 255 201 158
106.347 103.475 107.493 226 232 255
149.038 81.489 117.743 244 243 255
218.701 62.6889 111.371 184 207 255
169.257 131.455 111.33 220 229 255
82.4816 106.131 108.499 255 241 229
114.079 113.093 115.202 201 218 255
108.09 155.167 110.229 223 231 255
94.5291 174.456 111.429 214 225 255
94.2411 175.043 111.625 255 234 216
111.954 124.149 113.752 255 250 243
179.716 166.915 112.552 195 213 255
119.19 66.8953 114.096 201 217 255
149.378 81.2534 111.482 208 222 255
115.346 106.831 107.104 255 237 222
111.05 128.58 117.801 206 221 255
165.198 154.123 110.681 217 227 255
145.26 44.7577 118.411 200 217 255
114.48 116.38 110.315 206 221 255
132.989 89.9069 111.059 222 230 255
125.187 126.942 111.118 255 234 216
69.7876 89.8527 114.624 241 241 255
169.744 109.012 109.508 221 230 255
113.973 111.547 113.951 241 241 255
110.008 112.69 117.543 218 228 255
117.019 107.04 111.175 235 237 255
62.9114 29.5683 114.442 186 208 255
51.7812 84.9479 104.288 198 216 255
95.9918 177.892 112.286 204 219 255
99.2212 86.3942 114.074 227 233 255
177.452 182.367 114.771 209 222 255
74.0151 67.8985 116.384 209 223 255
63.967 67.0952 117.32 184 207 255
148.77 172.891 112.866 207 221 255
171.981 127.072 106.6 198 216 255
90.2315 122.091 111.539 255 139 20
110.551 162.397 111.721 198 216 255
158.109 45.5453 118.5 191 211 255
122.625 140.328 113.801 255 233 216
83.5226 172.27 120.652 255 250 255
112.2 123.067 109.885 255 185 127
166.767 110.23 112.479 229 234 255
136.786 40.8379 114.043 189 210 255
185.377 184.491 110.236 188 209 255
97.2323 101.502 119.281 194 213 255
58.6557 83.8898 115.238 206 221 255
92.9799 175.589 110.681 202 218 255
110.457 112.728 119.977 210 223 255
94.5226 174.472 111.412 255 234 217
168.732 109.224 115.119 196 214 255
65.0021 94.5305 118.946 255 252 247
112.983 92.118 107.492 239 240 255
113.579 153.603 114.319 203 219 255
108.366 107.568 104.316 205 220 255
107.108 96.2656 114.2 254 248 255
68.7957 16.8391 109.236 187 209 255
121.19 75.1662 111.166 211 224 255
81.9456 145.433 105.912 216 226 255
60.0286 155.234 112.324 199 216 255
186.213 123.84 108.37 255 228 206
112.806 63.5447 108.894 255 208 170
169.475 116.06 121.803 202 218 255
193.907 136.228 113.838 193 213 255
94.8515 174.456 111.857 199 216 255
157.118 36.0269 113.137 200 217 255
70.5859 106.982 109.285 255 244 234
89.6336 134.475 118.333 255 187 130
20.2 79.3206 116.948 190 211 255
142.067 94.2209 109.135 244 243 255
164.884 155.142 106.809 198 215 255
105.681 7.42347 109.75 188 209 255
149.877 57.3563 112.235 231 235 255
136.13 120.697 117.162 245 243 255
169.706 112.26 111.392 200 217 255
109.793 140.225 120.706 255 223 197
109.102 107.928 118.87 255 217 187
112.501 108.106 115.803 253 248 255
97.9218 120.658 125.488 220 229 255
157.984 123.203 112.494 215 226 255
24.1188 160.023 113.965 181 205 255
144.631 185.403 112.163 193 212 255
170.791 42.5071 112.981 198 216 255
127.291 101.024 113.136 225 232 255
100.691 139.167 114.387 231 235 255
94.9818 173.743 110.842 193 212 255
75.8258 15.6725 105.212 201 217 255
169.425 135.081 117.76 192 212 255
125.274 126.24 111.786 255 252 246
61.368 52.5872 109.044 202 218 255
79.9535 115.718 111.908 247 245 255
148.464 134.638 114.411 255 237 222
112.061 113.623 115.565 255 246 237
151.06 88.2308 113.516 255 252 247
136.933 150.9 110.203 189 210 255
153.736 89.3579 115.173 208 221 255
64.1223 119.911 117.806 255 240 228
95.1202 95.5796 109.957 208 222 255
165.326 108.01 115.613 199 216 255
113.978 108.045 105.261 255 250 255
70.3172 121.222 118.313 255 241 228
135.795 63.8041 112.664 203 219 255
131.931 73.0158 119.87 202 218 255
144.474 117.404 114.22 255 254 250
112.017 119.442 118.544 255 232 213
121.419 138.521 111.767 222 230 255
55.9986 118.995 112.833 194 213 255
154.772 146.709 116.879 220 229 255
138.323 108.309 117.522 255 247 238
216.891 113.771 110.387 193 213 255
152.314 151.841 109.595 197 215 255
79.6385 126.031 109.293 255 246 236
121.951 107.393 116.158 246 244 255
107.608 118.22 107.869 239 240 255
95.8995 68.9251 108.096 204 219 255
98.0922 166.055 121.731 206 220 255
113.246 14.8245 108.69 186 208 255
98.8569 170.323 109.482 204 219 255
26.1724 167.868 113.415 187 209 255
104.575 45.6232 114.23 200 217 255
116.004 103.976 115.481 255 226 202
105.71 123.007 109.559 255 187 130
105.626 158.473 111.5 204 219 255
114.693 111.128 111.099 213 225 255
24.8302 149.04 112.583 198 215 255
80.4508 29.3944 105.579 194 213 255
94.9247 174.662 111.649 255 175 105
100.173 141.932 109.875 232 236 255
92.0536 81.9224 112.395 242 242 255
109.657 94.2535 112.365 255 236 219
107.928 113.612 108.814 255 219 190
150.882 115.533 118.552 237 239 255
174.274 95.7236 110.397 204 220 255
84.7125 117.757 118.148 221 229 255
94.4678 174.586 111.758 193 212 255
207.517 144.632 107.975 187 209 255
129.329 65.2966 114.152 204 219 255
116.355 166.812 112.243 255 254 250
53.6185 124.695 102.44 190 211 255
16.0885 77.9666 113.686 177 203 255
201.812 59.1917 115 191 211 255
48.3655 76.7181 118.229 194 213 255
96.7861 139.702 111.909 217 227 255
134.985 54.5812 116.008 200 217 255
123.476 127.79 113.127 211 224 255
55.1234 74.2067 110.052 205 220 255
72.2473 184.005 113.067 189 210 255
158.059 87.4933 113.304 214 225 255
46.9772 106.222 114.108 220 229 255
22.511 51.7888 112.169 192 212 255
53.838 69.4007 119.013 197 215 255
94.4641 174.41 111.318 218 228 255
65.2287 46.6063 122.062 186 208 255
124.974 154.578 113.493 200 217 255
114.716 111.922 113.098 255 216 185
105.958 151.612 110.462 255 245 235
200.399 52.0498 110.577 194 213 255
100.767 210.166 114.598 189 210 255
65.7314 140.084 112.77 199 216 255
180.741 114.042 112.379 191 211 255
117.854 110.389 108.339 255 241 229
95.6251 155.392 119.31 255 249 255
94.4539 174.492 111.374 195 214 255
94.5294 174.449 111.435 205 220 255
157.093 94.9615 117.923 204 219 255
161.116 169.886 125.471 213 225 255
41.4223 56.6823 112.545 198 216 255
141.137 120.9 109.152 217 227 255
114.104 108.52 105.456 255 251 245
91.7507 86.9113 111.777 255 251 245
39.6167 38.1114 112.679 187 209 255
60.2595 205.583 112.083 189 210 255
122.859 154.969 112.748 190 211 255
116.378 202.482 108.375 182 206 255
156.252 88.9603 113.754 202 218 255
70.429 70.1946 111.638 202 218 255
113.01 93.5452 113.106 239 240 255
89.0428 115.058 114.599 255 210 174
163.425 78.5258 115.72 231 235 255
124.157 113.276 112.661 255 248 240
111.843 95.9737 119.05 255 254 251
56.2313 100.612 111.165 192 212 255
94.6112 174.423 111.563 237 239 255
74.477 64.3423 114.438 193 212 255
94.724 174.383 111.632 251 247 255
101.873 22.4296 109.054 190 210 255
165.875 86.607 120.803 237 239 255
114.666 25.544 114.707 181 205 255
40.8927 199.098 109.187 186 208 255
218.357 124.759 115.214 178 203 255
179.865 30.5974 110.603 200 217 255
148.7 86.1703 112.142 215 226 255
112.885 111.829 112.967 255 230 210
118.477 186.472 112.646 216 226 255
103.932 77.2147 110.923 201 217 255
136.924 156.215 112.131 213 225 255
131.589 130.56 112.042 200 217 255
144.815 118.013 115.834 255 221 194
50.5714 111.465 118.11 202 218 255
166.648 166.395 114.33 188 210 255
160.555 6.4405 114.382 193 213 255
14.5833 126.48 109.535 193 212 255
137.768 192.063 108.877 208 222 255
91.1696 64.6556 113.627 247 244 255
38.1279 36.3684 113.28 199 216 255
99.1468 170.119 108.612 255 192 140
114.509 173.145 111.169 210 223 255
76.8737 140.366 112.898 231 235 255
94.2357 173.911 111.61 196 215 255
217.693 153.475 112.146 189 210 255
50.4943 145.091 116.8 197 215 255
117.491 112.478 113.366 255 223 198
121.291 157.569 108.434 231 235 255
54.2136 103.341 108.35 205 220 255
170.022 120.144 81.4661 210 223 255
56.9195 29.324 91.9941 211 223 255
87.7642 155.849 108.158 214 225 255
57.5819 145.787 114.764 255 250 255
135.914 37.839 116.802 195 214 255
74.588 137.474 111.419 208 222 255
107.768 106.512 106.822 215 226 255
178.06 125.003 114.268 194 213 255
102.742 67.4614 106.367 212 224 255
94.5002 174.489 111.388 206 220 255
113.111 120.101 107.056 255 238 223
112.116 112.775 114.214 255 233 215
156.617 133.641 117.43 200 217 255
75.6371 169.898 113.454 220 229 255
185.255 181.545 110.851 192 212 255
164.84 140.849 117.151 189 210 255
107.485 108.785 115.712 255 238 224
116.096 111.548 112.455 255 205 164
56.8122 119.998 114.712 238 239 255
202.867 50.0569 113.1 189 210 255
87.4359 51.3921 116.114 217 227 255
154.506 89.5642 114.782 224 231 255
121.314 111.442 113.531 220 229 255
207.584 128.302 113.771 186 208 255
138.855 76.5068 110.229 203 219 255
143.593 79.8392 112.875 240 240 255
165.578 124.321 112.197 201 217 255
177.977 100.769 112.212 191 211 255
32.2709 193.93 110.964 195 214 255
87.9687 208.937 111.594 180 204 255
68.4926 166.26 112.564 216 226 255
74.7133 147.59 110.814 207 221 255
77.4471 42.151 108.619 196 214 255
134.492 104.19 120.468 255 222 196
