ply
format ascii 1.0
element vertex 1341
property float x
property float y
property float z
property uchar red
property uchar green
property uchar blue
end_header
168.821 104.389 130.456 255 184 125
65.2259 191.358 113.906 192 212 255
116.137 122.256 103.427 255 243 233
4.2851 171.013 110.441 184 207 255
142.684 68.5024 116.356 196 214 255
116.447 140.065 122.042 209 223 255
99.2929 108.682 106.768 215 226 255
142.123 168.05 113.636 192 212 255
90.1549 139.943 112.534 221 229 255
109.294 159.256 107.915 208 222 255
95.0536 147.057 127.275 247 244 255
93.3402 46.0413 111.735 185 207 255
122.495 118.526 111.773 207 221 255
78.9675 137.704 111.811 255 227 204
127.929 70.9573 89.5377 255 252 247
93.6004 173.31 111.148 226 233 255
119.066 133.32 111.718 255 221 194
74.1677 49.3898 113.969 255 249 255
131.606 71.8784 115.455 255 239 224
94.1367 173.966 110.819 255 255 252
196.039 104.666 110.397 196 214 255
87.6087 156.201 106.359 203 219 255
60.068 130.447 109.682 255 202 160
25.6467 127.196 117.798 191 211 255
196.288 147.337 121.301 191 211 255
111.03 127.87 125.805 255 249 242
63.7976 99.6138 112.154 192 212 255
114.296 72.0078 121.104 200 217 255
124.562 40.6268 113.928 202 218 255
62.2586 48.4398 104.765 200 217 255
113.966 113.424 115.463 195 214 255
154.256 110.789 110.219 255 180 116
112.698 66.1406 115.698 202 218 255
119.115 130.685 100.188 213 225 255
114.729 125.877 108.157 215 226 255
172.794 137.252 116.012 222 230 255
131.907 72.2277 118.464 255 249 255
117.073 86.625 140.065 243 242 255
60.7728 112.097 109.969 255 233 214
129.528 125.012 100.534 192 212 255
153.835 42.3322 111.585 211 224 255
94.7673 173.277 110.904 212 224 255
108.971 108.96 116.532 255 230 209
103.777 79.1162 110.582 223 230 255
75.3673 92.4878 111.953 212 224 255
132.753 151.174 88.1368 182 206 255
128.257 126.327 105.333 226 232 255
130.075 115.061 114.391 255 188 133
179.253 77.2533 112.597 193 212 255
93.9082 173.891 110.312 206 220 255
109.899 65.3124 117.072 209 222 255
116.51 130.643 103.337 255 224 199
78.5341 151.227 110.412 208 222 255
110.52 62.9504 115.596 203 219 255
213.776 64.4227 112.144 194 213 255
68.1231 141.956 126.863 199 216 255
123.048 106.872 106.714 199 216 255
94.1516 173.956 110.818 204 219 255
123.715 117.549 111.587 255 205 166
117.043 144.928 108.722 219 228 255
125.816 201.428 104.123 187 209 255
24.6328 119.897 107.537 187 209 255
117.499 121.501 120.131 255 157 66
111.159 44.1097 114.757 218 228 255
107.952 102.647 111.992 232 236 255
94.1641 173.949 110.816 202 218 255
86.6539 138.575 117.032 228 234 255
115.376 197.251 94.8721 194 213 255
93.9466 154.903 122.223 243 242 255
58.4954 205.07 110.125 184 207 255
90.2097 185.442 112.727 193 213 255
122.628 116.245 110.678 255 254 250
105.592 159.577 117.255 255 247 238
95.217 173.627 111.127 255 251 246
116.053 57.6653 118.966 209 222 255
16.8858 102.519 109.48 212 224 255
98.3615 22.736 115.7 202 218 255
94.1501 173.955 110.819 189 210 255
8.05929 183.86 99.3115 186 208 255
137.857 26.1901 115.463 217 227 255
94.1521 173.956 110.818 221 229 255
94.1583 173.952 110.817 211 223 255
16.652 60.7241 128.433 200 217 255
78.096 53.289 98.7948 193 213 255
126.182 118.084 114.8 203 219 255
125.595 113.465 100.596 209 222 255
58.2755 47.7517 105.603 194 213 255
79.6025 161.773 127.353 208 222 255
108.827 164.842 123.154 249 245 255
50.167 220.041 108.42 201 217 255
80.004 130.425 109.873 214 225 255
102.592 87.9758 108.659 209 223 255
57.23 123.768 112.796 255 241 228
193.619 141.973 118.608 186 208 255
207.734 70.741 114.822 193 213 255
91.4964 51.673 114.289 214 225 255
84.4323 39.8909 110.33 213 224 255
78.4582 112.758 110.954 255 250 244
94.2289 173.907 110.795 223 230 255
111.302 13.9282 106.318 189 210 255
125.303 117.556 106.453 255 230 210
155.54 137.419 102.463 199 216 255
143.34 74.1601 116.005 186 208 255
108.396 115.972 117.534 209 222 255
82.4137 44.5246 111.351 214 225 255
52.4841 101.897 102.917 218 228 255
97.3422 111.757 107.876 214 225 255
121.652 93.2561 115.82 255 239 225
204.85 20.2076 120.805 203 219 255
70.5847 140.119 127.267 255 249 255
94.1455 173.96 110.819 203 219 255
75.8069 0.298231 130.021 184 207 255
115.728 26.4467 111.43 184 207 255
48.9693 83.8174 85.4401 193 212 255
21.8741 202.474 106.516 190 210 255
224.803 124.509 114.957 195 214 255
111.9 124.298 112.638 255 0 0
103.062 167.156 130.753 221 229 255
82.4473 151.751 120.529 255 236 220
106.829 166.733 130.014 206 221 255
95.7015 136.204 113.775 255 231 211
56.8901 119.61 90.4154 255 242 231
58.0366 178.948 97.7943 211 224 255
42.1939 72.8189 121.326 193 212 255
46.6699 44.0205 112.01 197 215 255
15.8647 87.6186 108.926 215 226 255
146.698 106.473 111.36 184 207 255
87.8242 86.2574 114.286 218 228 255
118.524 123.876 102.582 255 190 137
123.825 107.178 136.053 202 218 255
32.5793 138.408 106.986 183 206 255
123.59 128.761 107.753 255 244 234
128.607 55.4253 117.48 195 214 255
44.9107 107.894 111.876 182 205 255
151.374 144.481 101.571 197 215 255
94.1713 173.944 110.814 216 226 255
117.615 113.468 131.798 212 224 255
71.372 128.283 108.655 255 249 255
104.879 156.32 119.968 216 227 255
157.528 20.9349 109.4 197 215 255
157.555 114.372 107.432 203 219 255
48.8414 102.771 116.516 191 211 255
57.248 218.547 101.376 186 208 255
68.6683 127.841 119.155 220 229 255
93.1333 193.428 99.2199 211 223 255
69.1996 163.149 111.894 205 220 255
103.768 115.746 117.844 255 136 13
97.0842 167.003 105.312 230 235 255
66.9922 110.743 114.145 207 221 255
120.439 114.558 114.979 255 195 147
112.956 74.3188 119.276 234 237 255
92.3155 99.586 103.212 209 222 255
95.1781 113.98 117.031 219 228 255
93.8695 174.488 110.966 209 222 255
72.9631 73.2107 110.93 224 231 255
94.1405 173.963 110.82 185 208 255
114.688 117.413 107.012 255 252 247
87.0517 73.8081 113.956 191 211 255
84.0417 18.5915 100.059 186 208 255
92.9293 66.3955 112.681 255 241 228
112.259 206.41 125.133 182 206 255
106.214 170.065 113.442 190 211 255
95.9278 145.398 122.17 255 254 251
184.521 58.6984 116.07 204 219 255
108.454 119.758 117.322 255 222 196
124.765 98.6196 112.027 205 220 255
63.3557 135.363 127.654 199 216 255
74.7701 139.733 115.26 197 215 255
79.2716 178.885 101.871 241 241 255
94.9254 86.167 111.873 255 246 236
119.95 178.888 112.445 181 205 255
94.1548 173.954 110.817 197 215 255
91.6063 183.092 111.572 255 223 198
171.273 154.113 114.931 182 205 255
94.0958 173.98 110.827 207 221 255
103.653 107.915 101.054 205 220 255
79.6139 151.632 129.482 202 218 255
135.087 167.084 110.46 254 248 255
163.743 109.502 137.482 232 236 255
57.9991 92.405 123.854 202 218 255
89.7518 20.5876 97.5189 191 211 255
110.411 151.824 103.6 218 228 255
155.665 133.267 112.46 190 211 255
59.9005 112.845 114.26 255 239 225
119.552 27.4319 115.401 198 215 255
108.363 112.298 110.861 196 214 255
88.3708 75.9111 113.053 191 211 255
116.13 135.846 99.4367 221 229 255
168.91 113.87 141.846 200 217 255
94.1498 173.958 110.818 186 208 255
109.494 120.178 104.449 219 228 255
75.8369 50.3913 102.113 255 252 247
94.1543 173.955 110.818 198 215 255
96.6092 197.505 111.388 201 218 255
3.04892 78.8746 112.448 188 209 255
107.685 51.0624 113.707 216 227 255
105.256 170.274 108.368 255 228 206
55.9872 139.781 109.063 195 214 255
119.161 146.959 105.723 231 235 255
167.122 112.179 102.895 216 226 255
114.854 93.8589 112.573 216 226 255
95.4806 107.669 107.295 255 239 226
123.064 112.845 104.413 255 230 210
148.19 35.6882 116.594 209 223 255
174.131 6.51534 106.485 195 214 255
103.163 137.436 100.56 199 217 255
72.3198 34.138 106.647 189 210 255
85.6427 195.827 109.227 196 214 255
171.283 148.119 82.113 190 211 255
94.7008 20.9701 105.154 205 220 255
116.009 131.555 105.234 255 203 161
116.035 82.501 115.719 248 245 255
78.0337 178.044 96.8678 194 213 255
94.1456 173.96 110.819 190 210 255
98.9255 192.294 103.921 180 204 255
120.706 54.1124 117.422 227 233 255
94.2805 173.875 110.771 255 251 245
115.102 83.2196 119.134 180 204 255
153.499 103.621 116.326 199 216 255
163.087 133.335 102.791 197 215 255
94.1346 173.964 110.821 212 224 255
125.948 85.2277 121.74 215 226 255
119.021 150.119 103.176 184 207 255
131.322 147.925 109.588 211 223 255
111.117 85.2158 120.272 224 231 255
172.227 108.59 123.631 226 232 255
83.7433 140.087 108.615 188 210 255
82.8167 162.978 125.831 222 230 255
220.019 51.9484 111.53 186 208 255
102.252 137.341 109.322 235 238 255
70.6179 58.5896 109.567 219 228 255
150.941 100.544 111.328 234 237 255
217.364 97.0451 106.726 188 210 255
72.0045 135.591 106.608 255 216 185
162.402 111.424 107.279 203 219 255
119.932 113.003 108.233 208 222 255
112.107 107.877 116.427 255 247 239
90.9719 152.422 106.892 222 230 255
75.0588 35.4669 115.166 198 215 255
144.465 110.606 112.148 188 209 255
118.275 105.589 112.962 255 217 186
81.099 171.47 103.197 218 228 255
94.1765 173.941 110.812 208 221 255
105.111 110.228 123.789 209 223 255
182.501 101.845 115.474 208 221 255
98.5993 124.884 104.418 208 222 255
120.358 144.482 114.082 200 217 255
60.0102 139.638 118.755 211 223 255
37.9894 178.727 109.033 188 210 255
58.4232 115.997 107.308 217 227 255
145.38 163.911 112.421 187 209 255
127.408 90.202 115.462 209 222 255
97.9445 155.736 108.351 183 206 255
69.6818 57.1697 117.282 200 217 255
175.16 185.276 113.583 187 209 255
156.21 134.858 108.651 191 211 255
90.6131 132.118 117.855 216 226 255
139.777 110.443 114.081 230 235 255
91.299 175.127 112.38 229 234 255
117.427 86.6694 124.746 255 246 237
141.295 88.0045 104.044 255 218 189
84.8516 6.79742 105.496 178 203 255
80.4226 79.7327 111.92 208 222 255
120.392 78.5192 111.871 214 225 255
137.9 58.4857 114.23 206 220 255
124.317 120.013 110.023 255 247 239
167.029 51.1187 114.824 210 223 255
101.819 99.9577 112.47 255 216 184
94.1557 173.954 110.817 197 215 255
184.5 89.0518 111.612 205 220 255
41.5643 188.249 111.678 207 221 255
130.192 103.046 115.119 255 238 223
94.0361 173.996 110.883 255 254 250
59.8034 148.811 120.957 208 222 255
94.1535 173.955 110.818 191 211 255
123.983 72.7565 123.57 203 219 255
155.815 84.3788 124.278 255 236 221
111.507 119.034 105.355 196 215 255
57.2939 194.131 112.309 188 209 255
94.1609 173.951 110.816 197 215 255
127.366 69.6396 118.37 185 207 255
100.396 172.166 102.781 208 222 255
147.87 75.1686 128.654 217 227 255
60.9019 130.469 113.508 225 232 255
109.244 107.467 116.821 255 197 151
4.93689 168.341 108.814 190 211 255
179.555 31.1265 112.463 196 214 255
93.9388 173.842 110.755 199 216 255
94.1616 173.95 110.816 199 216 255
160.494 122.746 109.935 198 216 255
75.2358 172.086 116.136 210 223 255
163.663 173.354 111.623 185 207 255
114.117 101.555 111.328 209 222 255
103.214 95.3858 116.625 208 222 255
58.2315 92.6307 112.568 203 219 255
65.6681 48.4376 95.7308 188 209 255
64.9413 123.647 108.978 206 220 255
117.801 183.768 107.852 184 207 255
94.1623 173.95 110.816 199 216 255
94.1928 173.932 110.809 208 221 255
110.456 166.224 110.12 242 242 255
94.2107 173.92 110.802 192 212 255
71.8747 143.788 109.103 222 230 255
149.629 127.079 111.653 251 247 255
143.629 103.768 112.347 255 248 240
106.454 96.6621 107.776 219 228 255
120.611 133.046 110.229 255 203 162
175.059 104.388 117.447 190 210 255
94.1563 173.954 110.817 206 220 255
91.9218 149.359 113.83 255 191 139
99.4097 121.973 116.84 255 170 96
65.8554 120.102 106.554 224 231 255
117.174 101.672 114.342 255 236 220
136.86 84.1308 109.188 208 222 255
107.729 130.131 109.992 255 197 150
109.797 190.658 115.013 255 249 243
169.832 125.889 105.365 199 216 255
98.7313 125.406 105.809 255 211 177
220.716 126.475 114.271 189 210 255
185.942 133.654 108.19 246 244 255
75.3343 47.6986 111.254 214 225 255
93.4918 174.572 110.143 192 212 255
119.703 125.894 110.208 207 221 255
110.559 121.381 114.888 221 230 255
161.305 130.238 108.881 204 220 255
0.265183 78.7474 106.699 179 203 255
110.256 115.542 108.17 255 223 197
87.6817 145.946 109.959 211 223 255
81.5739 104.144 94.6047 185 207 255
94.1875 173.963 110.886 213 225 255
203.549 141.684 112.319 193 212 255
94.1505 173.957 110.818 204 219 255
103.766 133.673 98.8376 255 244 233
18.8982 202.496 108.466 190 211 255
92.6552 150.046 105.174 255 254 251
86.776 149.775 108.902 255 236 221
94.1626 173.95 110.816 209 222 255
117.758 133.891 121.695 218 228 255
51.5439 114.802 112.351 235 237 255
140.921 74.1311 136.503 194 213 255
94.1451 173.961 110.819 192 212 255
192.941 44.5743 110.608 193 213 255
214.272 86.1074 113.224 191 212 255
116.317 103.733 104.78 211 224 255
116.016 98.7434 101.854 255 246 237
94.1531 173.956 110.818 208 222 255
64.0057 59.9307 89.025 255 213 180
145.135 113.254 110.994 213 225 255
116.554 108.905 100.139 255 242 230
60.7534 45.9406 88.2366 204 219 255
72.3391 8.14417 103.302 195 214 255
111.081 106.186 108.088 255 193 143
94.2296 173.905 110.794 221 230 255
61.1354 9.73419 104.331 225 232 255
104.146 105.709 118.244 248 245 255
76.4485 43.0352 104.854 224 231 255
107.233 103.803 109.966 255 253 248
15.3218 129.844 115.142 183 206 255
21.5021 189.97 110.853 251 247 255
122.753 112.666 110.487 255 230 210
93.453 173.924 110.927 186 208 255
97.5729 113.903 112.908 255 233 215
130.655 162.383 112.262 201 218 255
94.1624 173.95 110.816 215 226 255
87.4182 152.634 127.922 217 227 255
104.517 127.616 111.326 203 219 255
70.1503 139.444 103.734 217 227 255
70.6276 141.87 103.327 230 235 255
68.5628 133.742 116.325 188 209 255
65.2328 108.357 113.426 205 220 255
94.1557 173.954 110.817 237 238 255
3.70978 134.589 114.742 177 202 255
130.444 111.158 116.489 218 228 255
55.0451 40.1681 108.151 194 213 255
131.772 53.7894 114.886 202 218 255
95.6233 143.196 112.069 213 224 255
130.785 71.4239 121.438 211 224 255
109.914 142.625 110.769 255 251 246
45.2988 105.995 100.85 238 239 255
110.662 116.834 115.698 255 241 229
45.0818 75.8931 116.078 199 216 255
94.1606 173.951 110.816 207 221 255
42.2719 101.761 119.899 235 237 255
99.5831 219.756 182.025 179 204 255
97.089 95.9134 110.41 248 245 255
168.88 62.6849 111.271 203 219 255
140.024 73.282 103.71 252 247 255
158.064 128.829 110.762 223 230 255
98.4138 164.903 82.795 204 219 255
94.7695 128.837 114.226 245 243 255
118.049 112.253 114.187 255 219 190
152.963 110.083 134.132 192 212 255
128.216 118.157 111.597 255 217 186
116.736 144.111 116.682 209 222 255
49.6747 48.0965 114.68 255 249 243
143.798 63.1567 114.881 255 249 255
182.24 113.469 103.477 232 236 255
65.1064 114.027 120.251 255 243 232
116.829 141.232 103.662 244 243 255
93.5309 175.365 110.4 195 214 255
17.6588 182.519 107.999 192 212 255
15.7398 122.114 117.028 182 206 255
129.331 123.857 115.458 198 216 255
94.3728 190.722 109.267 254 248 255
113.903 91.4617 112.759 209 222 255
183.397 148.761 89.2534 223 231 255
149.305 101.583 116.53 204 219 255
128.117 81.6363 122.047 218 228 255
62.0375 113.156 114.952 201 217 255
87.5994 160.154 112.387 195 214 255
124.295 119.127 109.801 255 231 211
110.88 129.818 115.033 212 224 255
107.526 100.565 118.706 255 240 227
90.1906 21.8397 141.15 203 219 255
145.457 76.7807 105.521 232 236 255
110.721 111.842 112.766 210 223 255
99.0952 172.094 108.921 200 217 255
47.6737 86.1833 114.115 203 219 255
108.373 101.043 109.604 196 214 255
133.47 175.415 109.753 190 211 255
131.544 79.0728 126.509 196 214 255
132.135 117.839 114.798 255 221 193
128.454 187.76 117.603 199 216 255
10.339 73.3217 145.327 189 210 255
61.3843 196.766 113.101 201 217 255
79.1245 140.474 115.22 199 216 255
48.7757 61.0249 106.171 234 237 255
94.1554 173.954 110.817 255 218 188
93.1387 174.723 111.378 203 219 255
129.989 102.246 111.285 208 222 255
111.256 92.6297 112.608 255 242 230
144.657 129.585 118.06 203 218 255
141.942 72.0854 120.684 255 242 230
135.164 103.497 112.376 200 217 255
50.6044 113.263 108.642 204 219 255
105.574 123.517 119.668 219 228 255
77.95 166.583 107.123 255 222 195
95.1437 173.73 110.876 235 238 255
120.255 148.85 114.328 255 239 225
104.542 129.69 110.953 255 196 147
131.726 80.2802 136.184 244 243 255
61.8234 115.064 113.834 255 251 245
94.1571 173.953 110.817 197 215 255
94.1323 173.968 110.821 202 218 255
110.848 127.714 125.675 231 235 255
116.956 120.115 100.597 255 209 173
2.66257 85.5814 111.4 185 208 255
156.461 79.1956 111.471 228 234 255
112.222 99.8327 117.503 255 203 161
101.919 124.746 113.793 240 241 255
93.3887 73.1682 110.496 188 209 255
121.684 124.818 118.033 211 223 255
94.1696 173.945 110.814 221 229 255
124.476 63.2141 119.54 200 217 255
90.4276 112.618 110.493 230 235 255
58.0949 100.688 114.154 205 220 255
169.448 98.361 127.164 248 245 255
97.0516 94.8812 117.988 195 214 255
121.009 122.406 105.19 200 217 255
88.0856 89.8252 130.137 211 224 255
113.985 88.8885 108.262 213 225 255
114.044 123.722 108.894 216 226 255
151.427 82.5257 119.166 201 218 255
158.746 103.491 108.213 215 226 255
119.592 169.393 105.54 190 211 255
149.979 138.942 115.188 220 229 255
21.4922 142.906 106.343 189 210 255
136.936 103.166 112.788 233 237 255
94.1682 173.946 110.815 255 176 109
59.3786 147.604 111.999 195 214 255
132.027 87.2748 107.858 199 216 255
171.761 152.454 106.998 208 222 255
94.1585 173.952 110.817 210 223 255
114.508 145.382 111.853 255 170 95
117.377 85.3252 115.164 202 218 255
96.4294 70.4334 113.364 233 237 255
100.197 16.0869 141.543 202 218 255
85.3723 73.161 114.773 197 215 255
94.4515 173.704 110.278 244 243 255
186.78 12.378 108.392 198 215 255
93.5745 174.067 110.83 198 216 255
53.7655 110.699 90.3508 223 230 255
146.609 95.3115 109.08 199 217 255
94.1839 173.936 110.81 224 231 255
135.741 85.0771 130.333 203 219 255
75.3749 44.5414 96.5811 204 219 255
114.251 109.287 109.296 255 234 216
174.894 193.965 119.923 197 215 255
90.7864 155.442 128.61 235 238 255
94.1633 173.949 110.816 230 235 255
106.367 102.404 119.894 228 233 255
204.085 117.438 117.367 182 205 255
94.1647 173.948 110.815 209 222 255
73.6162 127.664 110.583 214 225 255
138.588 90.7106 113.984 231 235 255
75.5709 131.825 110.22 203 219 255
64.6706 60.1451 99.1828 205 220 255
127.53 123.066 111.288 255 230 209
162.243 116.687 102.1 206 221 255
133.517 46.2113 114.105 199 216 255
129.695 116.472 114.173 213 225 255
155.724 174.201 114.231 191 211 255
121.896 126.155 93.7791 235 237 255
94.3676 28.3835 111.722 198 216 255
106.914 107.777 107.832 255 107 0
88.7466 111.242 98.7132 255 228 206
99.8157 112.722 111.876 199 216 255
94.2092 173.922 110.803 204 219 255
94.1716 173.944 110.814 218 227 255
129.519 112.016 113.967 215 226 255
87.0101 19.8588 112.312 189 210 255
94.8778 174.232 111.207 255 249 242
31.7198 145.447 102.496 203 219 255
118.241 124.324 117.989 195 213 255
48.1051 104.928 103.208 202 218 255
137.519 83.7927 110.309 208 222 255
43.1729 204.738 111.086 183 206 255
112.967 109.607 104.997 255 228 206
119.291 105.77 121.569 239 240 255
173.978 111.841 133.168 189 210 255
8.35267 136.757 112.809 184 207 255
169.528 121.62 91.4873 255 248 239
161.069 135.848 113.161 192 212 255
58.7632 120.017 104.891 255 250 244
100.42 141.803 113.393 251 247 255
93.6977 173.785 110.875 191 211 255
99.7596 120.259 132.89 250 246 255
82.5745 102.641 111.63 239 240 255
98.615 126.741 116.579 255 231 211
72.7576 133.685 116.696 225 232 255
106.516 130.814 108.713 217 227 255
67.1272 38.2828 105.094 196 214 255
112.879 153.661 110.47 214 226 255
93.0835 174.019 110.877 195 214 255
55.0438 82.6295 112.51 225 232 255
102.736 96.9982 100.4 207 221 255
187.082 76.5427 116.871 241 241 255
55.1158 53.1021 110.55 214 225 255
140.107 149.152 113.294 247 244 255
109.907 116.059 109.449 205 220 255
203.661 173.473 67.2226 236 238 255
53.1967 94.1109 111.517 210 223 255
144.609 99.1072 111.29 230 235 255
94.0564 173.918 110.82 237 239 255
46.854 173.154 113.648 189 210 255
171.508 78.1884 110.117 232 236 255
105.771 116.401 107.542 228 234 255
137.748 72.413 154.253 210 223 255
107.523 105.149 116.323 207 221 255
127.331 98.054 113.103 255 235 218
132.767 75.0788 107.946 195 213 255
129.072 159.925 111.818 202 218 255
52.3478 98.6555 119.856 185 207 255
121.633 124.107 106.659 255 227 205
146.719 55.8892 117.579 213 225 255
149.567 206.627 95.4339 227 233 255
174.652 171.871 114.027 205 220 255
103.055 116.665 111.013 255 240 226
57.9289 75.7506 120.09 212 224 255
129.986 58.9347 117.546 245 243 255
132.426 93.4363 89.2607 255 224 199
87.1485 161.608 134.507 219 228 255
115.482 62.1734 118.436 214 225 255
123.473 171.316 113.854 194 213 255
106.964 99.564 106.99 211 223 255
122.699 121.952 111.803 214 225 255
94.1781 173.94 110.812 255 226 202
170.12 129.77 110.764 220 229 255
113.454 173.976 110.165 196 214 255
120.045 120.988 106.413 202 218 255
88.2093 86.5549 108.895 255 240 228
132.765 118.142 113.541 209 222 255
92.5704 113.571 115.648 193 212 255
114.652 126.206 107.409 255 250 244
63.604 175.632 111.299 213 225 255
71.8014 59.3564 111.462 195 214 255
123.92 125.606 110.28 255 243 232
96.5895 63.3934 102.045 201 217 255
159.475 140.395 109.855 255 247 239
152.559 141.499 113.844 183 206 255
106.078 110.471 127.222 255 250 243
114.178 129.637 105.434 255 157 66
103.688 141.797 106.175 220 229 255
90.6953 143.111 111.414 203 219 255
85.3717 160.008 125.735 204 219 255
83.702 160.35 104.999 194 213 255
96.293 169.646 113.648 255 252 248
94.1549 173.955 110.817 194 213 255
116.687 127.824 126.359 239 240 255
111.784 96.5468 115.002 191 212 255
124.235 101.805 119.972 255 251 255
163.503 93.0149 113.492 196 215 255
106.455 147.591 112.426 210 223 255
149.321 115.66 92.7664 223 230 255
94.1816 173.938 110.811 191 212 255
121.247 95.8353 110.895 255 251 245
99.5848 175.186 106.156 213 225 255
108.635 102.19 106.612 204 219 255
31.5955 207.639 102.858 183 206 255
94.2169 173.915 110.8 200 217 255
183.024 12.5439 117.581 191 211 255
174.635 134.85 112.865 221 229 255
115.182 110.475 101.574 255 213 180
90.4055 84.1062 112.825 202 218 255
94.4171 173.935 110.904 255 248 240
33.2492 60.3651 108.04 204 219 255
80.6831 79.2103 111.934 255 242 231
49.2348 101.133 80.4988 206 221 255
50.6669 92.6227 95.759 187 209 255
109.89 94.902 104.022 199 216 255
92.2945 69.5438 103.499 241 241 255
137.927 163.053 112.919 190 211 255
94.1598 173.951 110.816 184 207 255
114.779 131.731 105.204 255 250 244
113.915 145.799 103.979 190 211 255
95.0921 112.464 116.303 217 227 255
167.829 21.7866 124.292 187 209 255
129.372 1.45548 116.513 198 215 255
138.607 177.891 56.3366 213 224 255
134.572 202.272 137.609 198 216 255
160.798 111.02 114.644 233 236 255
109.515 103.338 109.39 255 191 139
111.36 97.315 112.641 207 221 255
137.345 177.031 113.18 194 213 255
121.949 119.971 108.183 220 229 255
102.482 166.39 111.286 193 213 255
68.585 79.155 114.472 212 224 255
94.1857 173.935 110.81 238 239 255
114.176 125.693 113.779 255 219 190
118.908 112.191 92.7737 218 228 255
77.014 66.9775 110.93 195 214 255
57.1791 203.249 115.098 193 212 255
94.1197 173.973 110.822 255 192 140
104.913 102.288 104.962 236 238 255
78.0756 50.6629 108.385 215 226 255
106.033 110.15 105.019 255 242 230
42.691 47.8973 123.976 206 221 255
104.022 127.445 113.708 197 215 255
58.1745 95.2263 104.158 214 225 255
186.659 122.307 117.971 239 240 255
113.3 93.7241 118.782 248 245 255
69.538 188.221 110.708 193 213 255
205.157 91.0135 112.164 195 214 255
129.456 124.17 112.825 215 226 255
121.252 101.584 118.308 255 126 0
155.707 78.9865 115.203 205 220 255
94.1636 174.105 110.987 255 238 223
13.8646 61.2157 117.372 187 208 255
94.1451 173.96 110.819 191 211 255
115.536 129.18 107.904 255 251 255
79.0476 147.907 104.321 228 234 255
94.2076 173.916 110.797 255 232 213
94.1571 173.953 110.817 221 230 255
126.135 112.826 101.138 255 249 241
94.1345 173.967 110.821 205 220 255
122.162 98.0268 115.153 204 219 255
149.236 97.1506 112.079 255 234 217
52.5796 172.745 113.838 187 209 255
86.9769 24.3072 109.654 195 214 255
100.503 110.803 111.36 196 215 255
60.3616 104.805 122.374 202 218 255
117.723 183.499 112.648 191 211 255
128.174 84.9525 110.992 186 208 255
94.0864 173.326 111.18 201 217 255
142.614 154.085 115.823 212 224 255
98.9439 111.245 113.543 220 229 255
56.6878 224.755 100.453 192 212 255
118.737 132.538 112.889 221 229 255
127.062 120.863 112.068 255 253 249
160.564 106.724 111.118 188 209 255
84.585 211.239 137.162 206 220 255
179.062 137.989 108.155 209 222 255
37.9678 121.69 112.698 180 204 255
119.31 110.196 106.115 255 238 223
86.8846 27.6189 112.801 217 227 255
119.192 100.552 108.58 214 225 255
165.024 155.128 114.325 204 219 255
111.09 110.373 111.333 255 243 232
118.173 86.119 116.67 217 227 255
162.176 138.233 110.911 201 217 255
100.403 164.804 106.863 189 210 255
134.285 126.156 114.04 255 248 240
117.439 116.462 93.9671 255 246 237
94.1466 173.959 110.819 211 223 255
66.6035 77.4626 111.051 194 213 255
14.775 185.054 107.045 193 213 255
110.106 102.039 113.396 215 226 255
66.2668 84.811 112.175 197 215 255
94.1624 173.95 110.816 198 216 255
145.516 92.1911 121.883 230 234 255
106.752 128.18 119.465 206 220 255
143.994 46.3196 111.939 209 222 255
204.882 14.6832 117.665 203 218 255
104.779 135.501 115.868 229 234 255
97.1576 48.7616 92.8411 255 217 187
107.287 130.905 112.052 209 222 255
65.6529 68.9127 112.167 255 249 255
94.0048 173.95 110.759 255 250 255
183.888 69.8448 112.767 201 218 255
125.739 132.748 111.005 205 220 255
120.971 99.2429 91.5473 205 220 255
130.567 114.549 127.075 255 255 251
73.99 160.827 106.576 201 217 255
126.093 167.414 104.593 185 208 255
110.193 65.5122 120.415 252 247 255
94.1235 173.967 110.817 206 220 255
124.349 82.3765 114.805 200 217 255
108.033 127.468 110.554 219 228 255
150.495 84.9163 115.449 199 216 255
103.084 180.714 110.36 199 216 255
107.268 97.5006 129.028 191 211 255
176.221 163.559 116.647 194 213 255
130.688 64.9517 94.3555 204 219 255
107.46 130.575 102.488 255 144 35
101.619 134.543 107.058 227 233 255
94.1422 0.160515 116.414 192 212 255
104.525 130.37 119.468 235 238 255
109.349 162.048 116.113 214 226 255
96.8951 160.026 102.541 238 239 255
135.043 154.341 110.652 188 210 255
92.6177 210.604 95.1312 182 206 255
86.699 144.906 111.561 202 218 255
75.8002 150.363 113.988 189 210 255
98.3838 117.503 115.433 255 199 154
116.08 130.288 121.004 243 242 255
119.198 145.719 117.269 220 229 255
127.093 126.341 107.46 255 175 106
46.0162 85.8957 98.6713 213 224 255
26.8239 133.426 113.199 202 218 255
91.4433 98.9264 107.493 255 242 230
192.117 60.4843 109.065 182 206 255
95.1098 144.853 114.574 202 218 255
135.481 87.4392 106.471 209 222 255
66.7811 160.638 84.3349 255 235 219
43.3267 50.4921 117.151 199 216 255
104.316 99.9721 111.51 204 219 255
57.5064 116.605 123.567 198 215 255
98.4765 100.401 104.775 206 220 255
78.1986 158.382 109.362 255 229 209
107.994 136.68 118.84 255 247 238
112.721 119.539 111.803 212 224 255
155.645 103.457 122.055 217 227 255
152.607 100.839 121.099 212 224 255
101.731 95.6271 101.333 255 210 174
157.105 118.68 110.498 191 211 255
218.58 118.233 118.924 186 208 255
91.7283 175.879 110.212 255 253 249
123.405 154.706 120.646 177 203 255
144.575 78.3458 119.502 203 219 255
152.932 141.237 111.377 191 212 255
105.732 67.926 117.651 255 207 168
94.1246 173.976 110.822 255 241 229
68.1192 138.826 119.255 211 223 255
94.7977 113.734 107.002 213 225 255
123.648 200.04 110.752 196 215 255
156.045 159.969 128.416 190 210 255
74.7673 181.174 112.095 214 225 255
148.526 27.0697 110.051 209 222 255
94.1562 173.954 110.817 202 218 255
104.106 128.63 98.4334 255 210 175
130.505 161.989 116.296 214 225 255
96.1624 48.2597 110.724 216 227 255
111.903 96.5635 117.109 255 208 171
145.456 3.63486 111.775 192 212 255
115.392 103.855 108.693 206 221 255
66.5083 52.4341 105.983 202 218 255
101.17 168.834 107.942 201 217 255
127.914 161.44 126.306 183 206 255
82.0008 12.799 117.883 198 216 255
94.1475 173.959 110.819 208 222 255
50.9152 197.996 109.869 198 216 255
66.5367 37.6069 90.0862 207 221 255
107.099 112.945 110.557 255 214 181
136.63 84.8308 107.398 217 227 255
81.5383 147.241 103.879 220 229 255
82.8204 136.225 112.812 255 241 228
94.1674 173.947 110.815 214 225 255
80.3593 128.99 112.051 247 244 255
109.095 112.527 114.919 255 172 99
101.253 104.704 110.058 247 244 255
107.163 128.183 110.648 255 247 238
137.065 157.618 111.861 182 205 255
139.924 131.306 137.18 198 215 255
59.6927 61.8139 104.416 211 224 255
69.4024 57.8266 110.541 210 223 255
120.997 116.546 103.653 255 226 203
122.09 84.157 107.945 253 248 255
64.2932 175.912 96.5147 209 222 255
88.5894 107.227 109.825 232 236 255
105.254 34.4617 105.056 194 213 255
52.5795 98.0217 88.8727 198 216 255
130.652 97.0427 113.986 205 220 255
117.388 118.486 117.534 241 241 255
120.083 116.168 103.614 226 232 255
105.829 91.6116 108.225 195 214 255
95.8177 166.72 128.156 190 211 255
191.332 90.3186 111.835 191 211 255
89.4474 47.7844 113.799 202 218 255
96.7332 100.486 115.639 226 232 255
213.645 117.152 113.754 191 211 255
65.4571 121.72 147.942 205 220 255
71.1363 127.088 101.376 185 207 255
114.953 89.4436 119.964 217 227 255
117.731 143.763 106.22 255 228 206
48.0774 37.4286 136.555 250 246 255
151.36 161.306 109.56 180 204 255
75.5977 155.948 110.754 199 216 255
105.163 157.53 113.598 228 233 255
117.618 139.434 102.717 255 212 178
104.761 135.122 106.192 231 235 255
107.52 143.331 116.611 255 245 236
94.1237 173.973 110.823 189 210 255
163.061 37.3081 111.651 212 224 255
118.674 147.551 107.655 213 225 255
43.071 192.794 107.919 180 204 255
139.879 140.924 100.87 207 221 255
195.936 140.19 104.68 218 228 255
145.628 121.265 113.125 255 252 247
98.3939 169.835 105.651 255 245 235
39.7359 145.054 112.897 195 214 255
147.309 142.805 111.283 196 215 255
153.255 127.637 112.641 214 226 255
180.471 141.136 117.673 255 232 214
31.0147 125.054 114.31 192 212 255
81.0935 68.5099 112.133 229 234 255
103.693 115.367 120.757 255 253 249
116.428 78.3669 109.266 208 222 255
112.375 118.067 110.365 210 223 255
115.402 121.75 107.789 255 194 144
51.9239 46.6643 112.871 184 207 255
81.9949 149.417 106.078 211 223 255
100.752 108.636 121.727 255 237 222
121.682 122.437 107.73 255 189 135
123.626 81.7586 107.323 183 206 255
57.9075 34.8153 109.6 201 217 255
202.785 95.8226 115.153 175 201 255
97.9539 119.195 107.083 255 203 161
117.02 114.471 104.492 213 224 255
152.552 118.432 111.277 198 216 255
77.2349 161.053 108.115 217 227 255
100.734 134.872 114.348 220 229 255
119.649 115.016 117.315 255 232 213
123.413 122.783 120.946 205 220 255
118.128 118.162 106.718 255 49 0
94.1605 173.951 110.816 210 223 255
94.1736 173.943 110.813 199 216 255
123.929 121.531 113.309 232 236 255
185.572 14.7846 84.1336 187 209 255
131.619 10.1895 110.897 187 209 255
111.797 113.08 110.632 245 243 255
127.492 166.957 108.923 207 221 255
129.948 147.198 113.023 188 209 255
150.755 119.374 85.72 213 225 255
82.6394 141.947 111.563 255 242 230
79.1373 103.87 112.244 234 237 255
71.8536 50.0942 111.647 255 249 255
77.607 172.017 113.756 188 209 255
126.787 175.495 109.909 203 219 255
124.868 127.607 111.464 255 245 235
110.419 73.2248 117.241 232 236 255
118.761 76.2313 115.459 255 236 220
102.831 99.0716 108.431 255 231 212
102.32 127.1 125.952 247 244 255
112.303 113.337 113.344 230 235 255
211.665 62.0877 113.125 177 203 255
76.8127 39.2344 106.02 255 217 186
93.9729 173.948 110.689 228 234 255
62.4909 98.1321 111.945 200 217 255
59.6604 123.403 97.7688 223 231 255
121.441 106.667 105.45 207 221 255
66.9507 185.261 111.589 233 236 255
109.615 103.37 107.836 255 230 210
161.517 54.663 113.695 200 217 255
127.262 46.0006 112.971 238 239 255
119.459 168.75 123.214 194 213 255
94.1432 173.961 110.819 223 231 255
92.1929 169.359 106.369 255 245 235
102.589 67.2939 114.856 196 214 255
112.945 159.371 123.284 186 208 255
141.303 91.9375 117.586 210 223 255
94.1847 173.936 110.81 198 216 255
111.712 91.7587 118.818 255 248 241
111.496 104.846 107.587 242 242 255
39.3829 52.5078 115.744 188 209 255
103.764 110.457 111.08 255 219 190
93.0801 143.023 112.833 255 234 216
94.063 173.918 110.843 220 229 255
114.707 70.7718 121.964 206 221 255
103.778 153.652 122.345 223 230 255
101.553 179.855 116.62 255 216 185
153.139 75.4209 120.365 216 227 255
166.231 156.43 112.138 195 214 255
109.154 103.612 110.262 255 251 246
19.8296 185.747 110.904 216 227 255
41.3465 53.8807 151.082 192 212 255
115.97 125.481 100.2 255 250 244
92.722 151.061 117.838 190 211 255
118.435 117.385 106.651 193 212 255
164.542 77.6204 114.045 196 214 255
94.1337 173.916 110.844 193 212 255
148.097 122.813 111.724 198 216 255
75.2225 160.211 102.609 201 217 255
180.026 90.5087 113.412 180 204 255
131.369 84.4364 116.425 207 221 255
98.065 72.1631 105.43 255 253 249
87.8298 112.61 114.708 255 245 236
165.28 160.442 127.336 200 217 255
165.437 34.5145 114.41 204 220 255
94.5199 42.8526 112.476 194 213 255
96.7272 119.27 107.965 198 216 255
114.81 87.5302 116.994 255 243 231
117.686 86.5608 115.058 221 229 255
102.741 128.889 117.397 248 245 255
129.68 73.0717 111.955 244 243 255
30.0719 185.975 113.615 189 210 255
121.944 115.408 128.276 239 240 255
93.0519 30.1544 115.376 214 225 255
120.317 120.762 103.626 221 230 255
109.281 108.893 117.777 207 221 255
101.757 166.275 110.691 255 180 117
122.005 21.2523 110.322 201 217 255
205.26 28.7485 114.874 187 209 255
13.6668 72.6052 114.825 195 214 255
54.9081 119.408 108.441 200 217 255
122.108 141.839 108.482 202 218 255
85.4442 139.907 112.37 203 218 255
120.744 88.3913 121.897 210 223 255
107.848 143.556 114.555 223 231 255
80.0579 20.2246 99.5307 194 213 255
148.73 202.027 93.8618 195 214 255
94.1579 173.953 110.817 191 211 255
164.501 103.262 103.973 255 251 246
102.64 94.3562 104.969 212 224 255
62.2424 75.875 110.439 221 229 255
116.289 97.2177 113.366 217 227 255
60.6365 77.1852 114.144 213 225 255
165.835 123.826 116.072 198 216 255
107.294 109.384 116.126 255 222 195
87.5088 10.4555 108.409 192 212 255
95.8456 97.3961 118.563 255 205 165
113.885 99.9412 118.418 210 223 255
146.301 97.7588 117.363 232 236 255
39.3834 173.346 113.993 199 216 255
121.144 132.781 72.575 214 225 255
108.132 102.769 114.067 213 224 255
138.096 186.059 144.059 202 218 255
35.3519 217.622 106.38 194 213 255
143.734 130.294 112.899 240 240 255
133.696 50.6814 116.246 210 223 255
165.845 119.438 102.463 203 219 255
120.347 127.041 106.053 255 218 188
107.856 110.393 114.588 255 239 226
124.477 59.3812 118.062 206 220 255
35.1148 94.2819 99.8127 255 232 213
120.543 167.296 117.656 201 218 255
136.119 166.645 112.447 195 214 255
73.1746 142.364 101.312 193 212 255
160.607 128.068 117.245 202 218 255
94.026 173.879 110.742 217 227 255
90.1304 160.678 104.46 205 220 255
110.562 130.079 110.189 255 220 193
94.1634 173.949 110.816 198 216 255
109.398 100.774 109.934 228 233 255
123.61 116.985 105.382 255 233 215
50.5791 63.5178 111.255 255 219 191
214.096 69.8468 111.703 188 209 255
207.658 159.574 123.492 213 225 255
63.2917 127.612 142.924 219 228 255
123.253 169.606 112.125 252 247 255
112.325 89.7915 105.218 189 210 255
113.598 150.115 117.034 252 247 255
98.7193 137.249 110.859 255 213 179
94.3255 62.0996 113.146 195 214 255
94.2064 173.917 110.796 220 229 255
115.555 102.886 109.904 213 225 255
98.1679 128.439 105.401 255 254 250
76.2781 135.533 115.91 207 221 255
94.1555 173.954 110.817 186 208 255
123.632 126.882 100.139 255 229 209
153.135 104.007 108.804 209 222 255
94.8823 173.485 111.039 193 212 255
113.556 94.5868 120.106 194 213 255
181.132 96.7876 112.061 182 206 255
172.977 84.0936 112.121 184 207 255
145.927 74.3981 130.503 207 221 255
94.16 173.951 110.816 177 203 255
137.217 103.344 153.141 226 233 255
173.166 149.693 115.472 193 212 255
120.292 110.584 93.8025 255 247 238
93.7947 174 110.926 207 221 255
109.809 140.731 115.351 225 232 255
41.3727 57.7116 136.836 206 220 255
63.8951 105.318 111.557 211 224 255
134.324 87.0814 110.757 209 222 255
162.027 35.5185 114.87 212 224 255
40.5001 201.688 110.869 187 209 255
157.691 23.0189 111.162 182 205 255
140.413 13.7049 109.229 202 218 255
74.5002 53.6578 113.993 205 220 255
78.1228 7.06182 107.725 184 207 255
94.6825 173.763 110.641 231 235 255
149.575 91.025 108.278 255 239 225
99.3252 199.018 122.289 195 214 255
93.3123 128.547 105.946 255 252 247
163.116 113.772 101.953 192 212 255
93.3752 174.143 111.116 195 214 255
138.215 78.241 92.586 233 236 255
94.1983 173.927 110.805 226 232 255
94.233 173.908 110.794 208 222 255
111.601 155.601 105.807 255 254 251
96.8189 171.582 109.849 237 239 255
93.0638 176.482 112.391 255 162 77
108.547 138.552 111.343 210 223 255
101.032 124.736 113.236 223 231 255
121.207 114.945 111.911 196 215 255
94.1846 173.936 110.81 210 223 255
94.1665 173.947 110.815 184 207 255
109.65 88.8639 112.712 225 232 255
107.729 104.091 111.555 255 239 224
149.099 151.121 97.6395 212 224 255
61.4497 171.152 114.312 195 214 255
125.274 120.314 100.11 255 240 226
150.722 153.042 111.704 212 224 255
94.164 173.949 110.815 197 215 255
77.5674 121.738 120.581 191 211 255
136.593 187.639 126.873 180 204 255
33.9573 56.1257 117.583 188 209 255
72.3125 56.2877 105.736 221 229 255
108.335 147.675 110.728 255 249 243
95.0271 61.4577 112.172 202 218 255
112.689 104.375 115.629 214 225 255
119.771 159.855 113.644 183 206 255
114.256 152.945 116.775 223 231 255
150.379 156.854 105.004 214 225 255
70.9514 131.813 109.574 230 235 255
119.394 170.264 107.178 238 239 255
80.0062 142.979 109.975 191 211 255
155.943 88.6137 114.141 195 214 255
94.1584 173.953 110.817 210 223 255
116.286 47.828 116.487 192 212 255
139.786 101.822 133.128 200 217 255
60.08 106.666 111.948 247 245 255
164.641 176.102 130.403 190 211 255
114.001 133.342 93.177 255 -2147483648 0
101.349 169.681 110.602 202 218 255
91.1469 148.208 118.978 209 222 255
150.229 124.085 112.441 255 245 235
94.0127 174.081 110.821 255 246 237
36.9967 212.636 109.708 184 207 255
58.9425 142.591 109.79 195 214 255
129.431 69.3825 112.045 255 224 199
95.5233 132.007 106.075 205 220 255
131.427 46.123 115.385 231 235 255
123.629 86.2918 106.85 207 221 255
94.1596 173.952 110.816 204 219 255
94.1461 173.96 110.819 183 206 255
128.613 117.97 116.019 221 229 255
113.251 84.7967 112.431 232 236 255
62.5465 142.138 87.2 193 213 255
114.255 95.7703 133.883 206 220 255
94.1637 173.949 110.815 195 213 255
109.06 151.792 121.002 255 193 141
130.455 113.974 114.603 210 223 255
94.1119 173.979 110.822 192 212 255
122.199 124.423 109.974 255 249 241
106.581 105.917 106.221 255 245 236
157.636 80.5699 114.168 255 246 237
94.1635 173.949 110.816 189 210 255
69.5742 125.483 114.733 229 234 255
110.397 105.566 109.637 255 132 0
197.639 163.255 112.212 181 205 255
157.297 168.205 100.076 198 216 255
122.251 99.757 109.755 212 224 255
63.7058 86.1094 117.341 191 211 255
100.063 177.659 110.48 200 217 255
96.3806 63.4393 68.0948 199 216 255
120.62 176.796 111.768 181 205 255
108.814 112.494 119.03 226 233 255
113.628 125.759 102.594 213 225 255
111.078 95.2923 123.984 208 222 255
88.2852 144.449 119.744 201 217 255
107 70.4708 117.7 211 223 255
114.956 100.548 108.086 205 220 255
44.6419 95.0043 127.672 228 234 255
92.0146 24.8699 109.433 198 216 255
2.66395 140.689 109.071 178 203 255
71.0704 197.096 113.423 202 218 255
69.959 122.093 108.521 195 214 255
106.282 99.8861 116.623 255 213 179
72.0407 46.2962 101.31 255 240 227
109.315 94.2642 114.573 237 239 255
94.1597 173.951 110.816 217 227 255
65.6378 117.828 133.872 202 218 255
106.362 106.223 111.651 191 211 255
94.1193 174.077 110.799 199 216 255
115.191 124.585 100.971 255 220 192
132.283 95.2421 113.271 255 201 158
102.753 131.392 107.707 255 227 205
115.078 122.86 113.005 208 222 255
94.182 173.938 110.811 193 212 255
79.9355 101.843 112.538 255 250 244
45.9789 54.6596 70.3981 189 210 255
125.074 75.8354 118.209 225 232 255
94.1048 173.762 110.751 190 211 255
99.0173 171.106 130.123 214 225 255
90.6252 178.868 114.227 240 241 255
125.973 101.444 115.176 216 227 255
130.351 181.863 110.635 203 219 255
35.5842 177.149 136.427 186 208 255
111.379 91.1203 105.185 208 222 255
105.066 129.101 110.711 245 243 255
126 80.6936 127.155 186 208 255
149.203 147.768 124.238 190 211 255
115.62 129.513 104.848 255 188 133
89.285 180.979 111.573 193 212 255
78.838 29.3448 116.508 203 219 255
95.8396 92.5847 120.468 223 230 255
124.426 106.686 123.639 255 230 210
110.526 100.4 125.652 199 216 255
118.479 150.295 84.3296 202 218 255
81.8729 99.2076 113.032 198 216 255
94.3574 173.834 110.798 197 215 255
98.7718 103.256 108.039 212 224 255
94.0883 173.987 110.886 220 229 255
135.317 76.8975 120.325 236 238 255
165.628 125.694 112.967 199 216 255
94.2004 173.926 110.807 199 217 255
112.045 23.7266 117.539 210 223 255
146.002 93.1951 102.349 217 227 255
82.2401 141.205 113.803 255 224 199
118.428 91.4868 107.523 201 217 255
71.1457 117.986 115.34 196 214 255
94.153 173.956 110.818 212 224 255
218.259 138.037 117.733 202 218 255
62.1889 129.549 112.498 202 218 255
156.273 135.308 112.454 189 210 255
105.722 26.3235 106.361 247 244 255
49.2266 108.319 122.732 202 218 255
38.1351 201.253 116.766 177 202 255
93.5396 173.953 110.692 217 227 255
47.9836 47.8284 91.3427 199 216 255
37.0865 115.064 123.702 255 246 237
70.5165 122.848 111.534 204 219 255
70.9363 15.782 97.5372 205 220 255
116.975 161.758 112.246 185 207 255
110.978 53.2262 114.024 218 228 255
107.534 98.1327 112.037 255 229 209
101.936 49.6696 114.888 213 225 255
122.616 117.525 105.902 255 252 247
115.2 88.1701 113.27 223 231 255
134.281 76.6951 133.341 196 214 255
94.192 173.931 110.808 226 233 255
80.6703 37.7226 109.564 193 212 255
94.1438 173.938 110.826 204 219 255
101.645 67.3281 116.446 189 210 255
122.564 85.6507 114.641 194 213 255
120.352 110.866 113.364 255 173 101
99.3707 186.418 106.037 190 211 255
43.1718 190.797 111.544 255 244 233
94.5731 173.508 110.586 218 228 255
154.725 100.423 114.929 255 249 241
120.058 70.9701 121.874 208 221 255
141.057 73.6537 117.88 222 230 255
119.846 109.121 107.636 255 146 38
121.273 128.57 108.46 220 229 255
109.293 119.892 111.807 220 229 255
24.4497 76.0002 114.553 189 210 255
64.9936 135.849 111.573 209 222 255
126.033 181.348 113.36 198 216 255
94.1672 173.947 110.815 193 212 255
116.802 130.847 99.1295 255 193 142
111.868 104.589 114.222 242 242 255
125.088 124.799 108.343 216 226 255
112.419 120.717 105.571 214 226 255
97.215 27.2232 100.824 230 235 255
138.2 49.3851 114.25 193 212 255
114.419 86.9591 116.54 217 227 255
92.8495 180.005 120.937 235 238 255
109.755 107.035 107.501 255 214 181
94.186 173.935 110.81 203 219 255
91.9081 187.045 111.613 215 226 255
126.487 117.189 115.327 255 155 60
49.9211 77.4163 111.605 186 208 255
94.1971 173.928 110.806 197 215 255
92.3574 174.426 111.036 193 213 255
94.1412 173.963 110.82 198 216 255
84.4564 143.899 110.173 186 208 255
39.7132 98.9657 121.855 255 244 234
108.083 123.212 118.623 255 185 126
107.428 116.525 96.2738 255 246 237
150.035 95.2349 119.139 229 234 255
59.3836 183.737 111.703 196 214 255
99.0062 139.374 113.443 200 217 255
111.416 117.07 110.501 214 225 255
129.99 92.9187 111.911 205 220 255
123.162 109.041 113.568 204 219 255
106.409 83.6156 103.711 186 208 255
89.4934 110.307 115.038 218 228 255
58.6516 218.95 118.233 185 208 255
110.762 159.311 96.9156 255 250 255
200.003 109.791 116.937 188 209 255
101.466 49.0177 113.023 207 221 255
122.437 124.748 114.665 255 253 248
36.9515 108.45 87.1436 192 212 255
56.4585 43.5635 112.607 201 217 255
210.638 64.9498 110.522 194 213 255
82.2586 54.2086 111.304 255 250 255
111.77 116.208 112.676 225 232 255
128.272 110.355 115.825 228 234 255
154.7 186.99 113.733 184 207 255
189.232 106.712 132.594 255 254 251
123.383 90.2526 110.95 255 236 220
68.7353 55.7092 115.678 198 216 255
97.1373 125.639 109.915 255 252 246
113.565 156.856 109.237 213 225 255
94.1555 173.954 110.817 230 235 255
119.338 83.6292 113.124 191 211 255
150.166 108.318 111.637 185 208 255
169.785 176.826 116.268 193 213 255
117.946 126.187 105.282 255 254 250
144.374 99.7187 108.314 216 227 255
103.808 97.0358 112.063 213 225 255
106.497 149.716 106.151 213 225 255
104.541 15.1276 93.6611 189 210 255
138.458 69.1676 114.217 255 233 215
209.262 106.864 116.922 187 208 255
94.1654 173.946 110.819 215 226 255
131.058 159 118.846 189 210 255
107.042 109.434 119.995 255 249 242
100.28 12.4285 129.214 198 215 255
116.098 81.9477 120.363 212 224 255
94.1111 173.987 110.844 184 207 255
123.469 101.183 120.362 255 200 155
158.335 164.451 116.076 180 205 255
108.921 90.9081 121.1 255 253 249
86.7812 112.817 113.542 205 220 255
48.7697 90.4721 109.167 203 219 255
131.292 120.957 97.9875 255 250 255
105.043 54.8147 113.79 202 218 255
94.1569 173.953 110.817 195 214 255
19.9756 142.381 114.448 186 208 255
45.5481 41.8317 110.749 199 216 255
82.7468 138.451 117.109 214 225 255
104.363 107.377 121.947 255 251 246
99.2744 136.333 106.364 219 228 255
94.1662 173.947 110.815 202 218 255
66.0117 124.927 138.595 227 233 255
160.06 129.827 106.73 225 232 255
151.758 93.2395 112.824 197 215 255
115.225 135.832 93.8405 255 225 201
94.1432 173.994 110.727 255 208 170
129.265 74.6896 125.836 214 225 255
155.556 160.975 98.2267 188 209 255
129.779 19.427 104.989 216 227 255
105.178 80.3619 111.38 255 249 241
26.1804 147.534 110.838 202 218 255
102.924 129.812 109.519 255 244 233
72.6858 62.0809 114.43 187 209 255
100.825 115.953 120.364 208 222 255
111.662 115.093 116.495 225 232 255
94.1621 173.95 110.816 198 215 255
161.409 24.7661 117.334 189 210 255
100.748 144.219 115.038 255 239 225
131.665 73.783 127.979 204 219 255
130.606 105.671 106.056 255 217 188
213.292 121.444 115.772 196 215 255
107.439 141.794 114.716 255 227 205
94.0788 174.044 110.838 255 217 186
101.677 174.634 119.496 191 211 255
73.9478 134.068 107.186 198 216 255
143.641 86.4085 114.079 212 224 255
84.1032 184.468 114.554 211 224 255
92.4435 174.467 111.086 199 216 255
46.7029 191.745 112.102 197 215 255
81.2447 107.867 114.366 255 253 249
120.705 130.812 118.116 217 227 255
94.1042 173.981 110.823 221 230 255
132.417 151.151 122.302 255 193 141
206.067 98.0631 112.98 213 225 255
56.3418 89.7946 113.137 219 228 255
106.767 158.469 118.821 208 222 255
29.4399 158.835 112.729 222 230 255
103.359 114.643 124.838 197 215 255
111.298 126.061 99.7702 209 222 255
92.1403 173.969 110.664 255 245 235
147.935 170.707 109.598 201 217 255
203.246 16.912 103.651 236 238 255
94.1574 173.953 110.817 184 207 255
149.254 131.657 113.161 236 238 255
94.2226 173.799 110.826 211 224 255
94.17 173.942 110.813 195 214 255
131.44 166.112 113.745 209 222 255
67.3755 129.803 123.713 201 217 255
94.1779 173.94 110.812 189 210 255
123.913 116.125 112.693 205 220 255
202.008 49.4245 151.949 255 204 163
110.356 108.702 106.332 255 220 192
49.9272 105.519 91.799 202 218 255
159.611 129.303 107.196 214 225 255
161.067 50.4087 109.556 184 207 255
128.194 115.364 106.549 255 218 189
139.046 70.1577 100.371 219 228 255
53.1848 115.481 97.6668 201 218 255
67.4292 139.133 107.557 193 213 255
121.477 128.84 114.858 212 224 255
94.0954 173.94 110.886 209 222 255
108.751 86.9363 111.057 240 240 255
182.872 40.4113 115.511 182 206 255
105.998 207.302 103.271 199 216 255
83.4186 114.584 108.651 255 243 231
90.4188 60.5199 109.772 197 215 255
106.05 95.1874 107.074 198 216 255
84.7602 148.734 125.755 199 216 255
147.516 135.425 111.042 219 228 255
130.402 23.2798 110.321 208 222 255
154.449 94.7237 90.6937 220 229 255
94.1478 173.959 110.819 247 244 255
57.3545 79.7628 100.84 224 231 255
54.9523 47.1489 106.989 190 211 255
124.094 122.547 99.8546 208 221 255
101.887 188.241 107.319 196 214 255
107.49 106.203 89.2099 212 224 255
61.4273 107.822 106.918 190 211 255
162.31 57.6623 114.765 194 213 255
94.1954 173.929 110.807 194 213 255
107.232 110.87 110.318 239 240 255
5.62382 175.639 113.353 186 208 255
137.212 22.1586 104.613 197 215 255
113.39 86.5826 116.014 252 247 255
94.151 173.957 110.818 205 220 255
130.45 90.0923 111.922 198 216 255
162.487 102.444 120.174 222 230 255
126.4 111.684 100.368 212 224 255
114.292 98.5269 118.365 233 236 255
62.035 88.8389 110.141 199 216 255
43.0682 89.619 113.273 255 251 255
61.694 132.023 103.145 240 241 255
93.675 164.277 119.847 243 242 255
119.586 114.972 86.7198 211 224 255
106.198 110.824 111.943 201 218 255
110.175 68.1362 116.4 202 218 255
