ply
format ascii 1.0
element vertex 1341
property float x
property float y
property float z
property uchar red
property uchar green
property uchar blue
end_header
57.5759 126.628 99.6477 203 219 255
131.427 25.3303 112.858 210 223 255
148.631 114.984 112.632 214 225 255
107.759 82.5089 111.925 227 233 255
93.2966 173.931 110.353 255 246 237
57.3277 82.1988 118.864 193 213 255
112.738 149.933 119.255 255 205 165
107.734 101.45 114.465 255 244 234
214.068 124.948 116.489 194 213 255
86.471 76.985 110.711 196 214 255
93.3221 173.951 110.401 193 212 255
156.532 106.14 107.639 196 214 255
120.286 157.283 111.852 205 220 255
164.106 38.8132 111.53 218 228 255
86.7315 124.763 113.974 255 253 248
58.4655 140.296 116.278 201 217 255
93.3489 174.006 110.774 190 211 255
175.257 98.627 116.382 192 212 255
215.238 53.3553 110.632 190 211 255
87.247 45.252 108.149 195 214 255
55.3933 134.187 103.653 255 226 203
67.6513 127.182 112.569 202 218 255
179.832 189.054 108.012 189 210 255
83.3724 50.4098 111.779 197 215 255
107.827 196.09 111.498 182 205 255
114.133 174.463 107.984 192 212 255
97.9057 176.564 107.8 204 219 255
201.593 145.612 110.496 186 208 255
131.118 77.0976 118.7 255 200 156
116.645 123.772 108.627 216 226 255
93.9036 173.609 110.147 255 238 224
109.509 89.366 123.799 255 225 202
183.028 142.653 109.253 208 222 255
93.3176 173.946 110.392 196 214 255
128.516 166.549 118.609 188 209 255
101.119 217.297 115.783 179 203 255
118.325 92.2846 111.623 255 251 255
93.3077 173.938 110.373 219 228 255
101.412 105.609 118.309 200 217 255
133.13 28.6774 117.915 212 224 255
109.427 106.078 126.006 255 237 222
156.554 143.733 109.479 187 209 255
197.405 72.6048 109.766 236 238 255
155.041 94.5229 105.88 194 213 255
123.462 151.52 108.939 198 216 255
46.6596 39.2628 113.917 185 207 255
129.311 76.0404 111.474 255 250 255
107.182 143.096 114.151 255 220 192
158.45 123.8 113.2 204 219 255
68.7959 193.424 110.903 201 218 255
2.91461 148.939 110.875 202 218 255
107.566 141.554 112.929 219 228 255
92.3053 205.366 108.725 206 221 255
109.281 114.43 116.642 244 243 255
144.459 94.9116 89.2915 209 222 255
164.269 117.313 108.09 220 229 255
93.2721 173.93 110.476 203 219 255
67.3382 45.784 115.831 204 220 255
38.3742 199.779 120.585 194 213 255
100.776 185.963 114.048 208 222 255
107.848 84.2303 115.183 255 243 232
188.383 160.064 116.107 198 216 255
111.836 11.5813 95.5335 197 215 255
209.021 148.521 115.028 189 210 255
123.957 117.347 114.741 255 244 233
155.159 92.9081 116.761 207 221 255
106.775 116.311 109.785 216 226 255
174.082 53.5912 116.838 210 223 255
123.762 45.5189 115.368 198 216 255
135.736 167.529 111.117 194 213 255
169.634 88.5884 139.195 195 214 255
90.2893 55.5391 113.302 255 246 237
93.3134 173.942 110.385 196 214 255
115.955 97.5032 114.723 255 217 187
121.378 115.968 109.327 255 250 243
125.85 97.8303 113.585 206 221 255
119.857 89.6407 114.669 255 248 240
217.921 107.876 109.293 193 213 255
110.396 114.903 113.447 255 249 242
93.3114 173.941 110.381 194 213 255
98.7457 107.075 109.835 204 219 255
93.6481 173.854 110.407 203 219 255
81.0982 106.798 110.7 255 218 188
139.829 137.556 114.529 255 234 217
195.364 80.0814 115.811 200 217 255
133.645 16.8445 108.059 194 213 255
140.062 99.8616 112.319 229 234 255
191.314 105.555 108.496 187 209 255
205.136 39.654 112.978 215 226 255
122.35 123.313 115.841 255 214 182
47.5331 147.093 114.788 191 212 255
137.493 111.055 111.766 255 225 200
107.243 110.15 106.161 212 224 255
101.092 135.493 111.868 255 246 237
134.253 178.425 127.103 188 209 255
93.2344 173.911 110.26 206 221 255
167.684 96.9821 93.2605 253 248 255
61.6753 115.29 105.822 198 216 255
110.233 125.23 110.451 222 230 255
142.288 84.0152 119.25 214 225 255
113.118 119.146 125.393 208 222 255
93.3857 174.042 110.489 201 217 255
103.393 76.9579 112.343 215 226 255
94.6234 23.683 93.9915 194 213 255
115.136 100.408 117.555 255 249 255
132.543 66.9242 118.565 196 214 255
171.634 87.7469 111.112 190 211 255
113.712 124.688 104.543 255 231 211
65.9413 128.022 110.562 243 242 255
101.931 120.108 115.989 214 225 255
117.385 127.598 108.152 226 233 255
102.99 152.053 100.557 203 219 255
66.361 159.029 124.082 211 224 255
116.17 116.394 113.238 255 222 196
111.409 120.112 127.634 255 236 219
93.3206 173.949 110.398 195 214 255
147.777 93.1102 109.632 212 224 255
93.2816 173.921 110.33 184 207 255
82.5389 92.4082 110.703 195 213 255
103.327 118.979 117.196 206 220 255
93.2172 173.893 110.29 209 222 255
10.0434 100.556 107.941 195 214 255
123.175 42.3258 110.105 209 222 255
196.678 106.766 94.2565 234 237 255
212.061 137.225 110.051 179 204 255
83.6918 94.3146 111.226 209 222 255
139.589 63.4629 115.888 191 211 255
105.311 102.238 107.793 255 201 157
93.3975 174.005 110.409 252 247 255
58.036 120.39 115.714 219 229 255
129.401 131.965 112.06 255 248 239
93.3358 173.956 110.339 247 244 255
181.218 10.8955 109.742 190 211 255
110.179 111.313 112.012 255 187 130
71.0826 130.776 111.561 208 222 255
118.526 122.994 108.675 255 231 211
167.505 22.6043 128.146 200 217 255
82.405 139.496 109.401 219 228 255
79.8585 172.541 99.7255 203 219 255
39.9731 214.447 112.812 176 201 255
124.231 8.6353 108.977 196 214 255
72.3797 140.407 79.8117 200 217 255
222.606 73.7173 113.488 191 211 255
163.231 175.599 122.756 197 215 255
114.497 122.008 110.717 255 165 84
114.152 119.6 107.278 226 233 255
176.898 146.686 110.038 204 219 255
93.3605 173.98 110.471 200 217 255
27.9942 145.274 110.946 211 224 255
105.717 147.109 109.729 255 238 224
124.689 18.4951 107.012 207 221 255
128.737 91.6888 101.089 255 235 218
136.585 110.189 110.75 255 241 228
114.399 124.711 104.956 255 226 203
149.465 90.1879 136.434 204 220 255
54.8384 142.583 112.905 217 227 255
93.1739 173.919 110.241 197 215 255
85.5019 69.304 110.294 255 255 252
117.319 137.171 108.048 251 246 255
86.5293 88.7167 111.875 255 191 138
76.6433 28.3192 104.123 220 229 255
166.726 28.0845 114.222 198 216 255
97.973 22.6863 112.357 185 207 255
68.7514 126.339 112.112 255 250 255
55.4326 170.444 110.098 204 219 255
118.081 114.285 128.31 217 227 255
111.913 101.126 117.252 255 230 209
115.536 117.537 116.762 255 253 248
61.9467 81.6763 111.42 217 227 255
116.333 124.012 105.178 203 219 255
63.3402 121.54 123.402 206 221 255
22.1664 199.865 116.4 186 208 255
155.239 91.1908 97.6039 189 210 255
64.3034 56.3157 113.758 202 218 255
117.116 121.12 107.955 213 225 255
61.0414 44.5545 107.407 222 230 255
103.928 173.391 118.172 255 251 255
148.538 98.1511 115.331 211 223 255
50.2976 91.1685 110.082 255 254 250
136.587 102.287 111.285 217 227 255
144.079 44.8002 115.794 201 218 255
104.675 105.543 115.131 239 240 255
58.84 180.567 117.304 207 221 255
116.633 160.618 110.402 217 227 255
98.3145 58.7128 112.116 191 211 255
121.17 108.267 120.439 255 219 190
95.2788 70.3857 120.009 255 235 218
93.321 173.949 110.399 202 218 255
111.484 152.775 118.366 185 208 255
161.832 111.549 108.107 200 217 255
99.4876 98.2784 110.966 214 225 255
74.3302 58.9376 108.813 204 219 255
222.08 131.295 109.478 198 216 255
114.944 147.353 106.207 245 243 255
35.9632 103.05 113.393 217 227 255
91.8066 198.72 112.5 212 224 255
121.243 119.905 109.216 234 237 255
93.2991 173.944 110.332 227 233 255
137.086 81.406 122.611 213 225 255
51.796 125.824 100.203 216 227 255
59.6143 140.941 111.313 197 215 255
187.55 97.7486 138.595 196 214 255
52.0267 142.003 115.196 192 212 255
116.897 114.935 110.161 255 241 228
129.474 192.141 111.672 196 214 255
47.9332 128.635 79.6566 255 212 178
69.6236 214.566 103.257 188 210 255
160.461 196.435 122.769 205 220 255
157.68 95.955 118.148 190 211 255
93.4862 173.926 110.501 196 214 255
201.274 81.906 115.883 192 212 255
4.17138 96.7006 107.868 208 222 255
65.5392 117.407 108.177 219 228 255
74.3757 141.465 115.325 199 216 255
93.3241 173.952 110.404 199 216 255
93.0757 173.006 109.806 207 221 255
148.546 0.304819 109.591 205 220 255
212.744 78.2864 113.586 193 213 255
158.489 109.68 120.448 245 243 255
48.199 68.9861 120.447 255 246 237
136.74 157.167 110.545 216 226 255
121.606 97.9573 116.643 195 214 255
197.615 21.0328 113.354 188 210 255
121.325 74.0009 107.523 255 231 212
113.893 124.872 122.925 255 183 123
194.512 70.8302 112.11 205 220 255
87.1753 213.441 108.065 196 214 255
113.91 124.358 104.571 238 239 255
72.5126 82.0902 112.792 203 219 255
53.5975 118.651 103.079 187 209 255
88.3568 133.294 111.538 224 231 255
92.7895 174.012 110.439 252 247 255
146.546 105.749 112.246 229 234 255
216.888 85.9069 114.584 179 204 255
93.3036 173.935 110.367 201 217 255
155.347 125.781 114.491 206 220 255
109.77 110.039 116.434 215 226 255
158.21 132.882 111.676 206 220 255
139.245 84.721 113.575 219 228 255
87.5823 31.5797 102.942 198 216 255
93.3054 173.936 110.37 187 208 255
115.307 66.9765 115.442 193 212 255
38.2558 94.3503 111.911 193 212 255
125.31 81.3895 110.971 206 220 255
88.6475 104.96 114.266 222 230 255
202.438 40.4738 111.635 192 212 255
119.447 65.6858 114.975 251 246 255
82.5271 192.575 112.944 187 209 255
61.074 82.0561 112.784 255 239 226
70.8502 104.271 109.57 200 217 255
102.448 164.413 113.381 222 230 255
46.2364 75.1983 110.734 218 228 255
214.546 63.8719 112.209 184 207 255
145.541 35.6249 110.03 196 214 255
111.579 109.935 112.85 255 239 225
198.066 20.784 95.507 191 212 255
102.169 111.105 120.333 255 229 209
167.753 59.7226 111.874 189 210 255
116.004 124.672 118.031 255 197 151
146.804 128.415 111.358 255 245 235
99.5442 88.2527 111.502 255 253 249
82.7562 150.242 112.499 185 207 255
106.296 114.148 125.932 255 206 168
154.273 109.663 138.033 255 246 237
93.2162 173.109 110.331 210 223 255
111.982 137.761 112.931 215 226 255
112.623 125.49 106.307 255 169 94
150.15 48.3826 112.218 204 219 255
19.9494 162.291 111.106 193 212 255
93.3249 173.977 110.381 241 241 255
93.3146 173.944 110.387 229 234 255
51.8762 43.5346 129.692 192 212 255
41.7678 63.915 117.374 183 206 255
103.17 124.485 112.452 230 235 255
93.5418 163.962 104.698 200 217 255
69.6117 208.433 120.627 183 206 255
59.8453 150.489 110.246 206 220 255
150.502 189.776 114.598 196 214 255
137.054 23.0685 113.041 209 222 255
93.3647 174.011 110.437 255 163 80
109.552 101.843 108.025 255 196 149
93.3307 173.964 110.41 219 228 255
93.3161 173.945 110.389 191 211 255
93.3039 173.944 110.332 254 248 255
29.9131 151.587 116.175 181 205 255
109.217 141.22 108.76 240 240 255
105.431 151.656 96.1855 197 215 255
87.9517 123.682 108.56 255 197 149
91.9027 92.9841 112.966 255 251 255
20.6035 163.778 115.474 184 207 255
109.409 64.988 114.164 222 230 255
157.856 94.52 104.588 249 246 255
66.5783 170.459 110.964 203 219 255
60.1177 77.6183 111.844 205 220 255
93.3012 173.916 110.336 214 225 255
106.671 126.7 109.097 255 207 169
120.927 27.9208 113.49 202 218 255
106.855 108.585 109.065 255 221 193
101.222 106.419 111.145 216 227 255
39.8689 51.5157 116.952 210 223 255
221.004 25.3807 120.147 189 210 255
93.3177 173.946 110.392 198 216 255
56.0967 137.745 85.0794 240 240 255
164.66 68.1056 111.667 200 217 255
47.8227 134.729 123.952 201 217 255
162.186 151.127 107.986 224 231 255
109.467 148.261 109.697 255 253 248
151.462 146.955 113.206 209 222 255
30.5438 135.435 116.071 193 212 255
65.9847 51.6101 103.4 205 220 255
206.186 71.7902 114.807 197 215 255
128.48 190.805 79.2147 192 212 255
150.848 151.15 113.527 213 225 255
113.302 125.928 108.797 239 240 255
79.8544 125.156 113.064 255 232 214
122.007 55.2829 115.975 240 241 255
101.72 127.758 110.705 255 241 228
41.713 162.631 114.462 201 217 255
66.6604 60.0386 112.551 194 213 255
149.555 96.061 116.588 242 242 255
93.311 173.941 110.381 200 217 255
118.879 134.232 113.339 234 237 255
83.9214 134.75 112.163 255 244 233
133.849 150.823 113.111 198 215 255
115.549 121.503 115.298 216 226 255
62.092 66.9799 124.248 219 228 255
100.624 115.632 91.9933 255 230 210
132.018 157.996 111.806 242 241 255
158.197 125.856 113.815 217 227 255
103.045 89.4055 117.633 228 233 255
74.8336 209.91 110.309 177 202 255
124.19 80.4488 118.808 255 237 222
145.047 81.2193 113.818 219 228 255
176.093 55.411 110.943 188 209 255
154.806 102.204 112.613 213 225 255
130.881 125.464 112.081 214 225 255
182.774 111.755 111.57 202 218 255
139.776 82.6917 105.529 206 221 255
71.6084 102.292 115.091 204 220 255
62.9464 123.603 106.701 200 217 255
111.07 120.245 106.259 221 229 255
93.3234 173.953 110.403 185 208 255
142.118 108.704 115.451 196 214 255
134.83 18.4722 111.661 182 206 255
22.4859 143.499 111.01 194 213 255
136.344 79.2454 118.212 219 228 255
101.347 85.9153 115.321 255 253 249
101.979 45.532 111.886 206 220 255
161.456 185.448 113.359 200 217 255
118.104 111.365 116.475 255 217 186
93.4237 173.823 110.647 255 252 247
132.056 19.6746 109.569 205 220 255
107.927 113.117 110.757 210 223 255
66.7702 120.263 115.522 200 217 255
93.2741 173.921 110.322 248 245 255
79.6956 25.1436 115.371 199 216 255
71.2673 51.6418 117.638 221 230 255
65.2429 178.285 111.703 195 214 255
132.392 71.8914 108.709 203 218 255
97.8774 109.115 108.088 242 242 255
134.783 76.2642 96.4245 231 236 255
105.427 120.543 115.092 205 220 255
93.0085 180.284 112.652 196 214 255
159.103 107.169 114.302 190 211 255
128.889 58.7479 113.069 208 222 255
103.517 1.57941 112.759 192 212 255
116.433 89.4874 112.043 215 226 255
135.136 73.1495 123.138 195 214 255
111.277 111.87 108.489 226 233 255
144.434 35.5057 115.605 203 219 255
135.778 133.271 110.26 214 226 255
106.237 103.275 108.746 255 210 175
112.495 105.18 102.583 212 224 255
153.278 145.651 108.214 199 216 255
113.671 97.57 120.828 255 248 240
159.2 88.7299 106.862 192 212 255
61.6913 107.587 124.582 208 221 255
104.729 83.2819 111.188 212 224 255
80.5926 194.983 112.91 200 217 255
102.881 109.406 125.041 205 220 255
142.416 170.029 90.3446 195 214 255
138.162 69.8646 115.178 233 237 255
94.8952 39.0311 114.347 245 243 255
68.468 153.321 113.311 186 208 255
98.079 169.266 108.853 191 211 255
107.698 13.6141 107.906 177 202 255
93.3216 173.951 110.402 201 218 255
12.2467 95.3163 109.539 184 207 255
90.6842 96.1332 115.163 213 225 255
75.3147 154.413 111.886 202 218 255
110.001 113.928 104.283 212 224 255
129.181 33.2651 106.501 215 226 255
79.8305 62.3895 112.724 255 165 84
93.3099 173.934 110.377 229 234 255
110.465 158.213 115.227 255 250 243
52.4647 81.2415 118.337 199 216 255
157.273 94.6183 93.5818 218 228 255
104.048 106.691 114.74 224 231 255
197.563 140.021 110.892 199 216 255
134.561 78.2504 120.389 255 251 255
190.835 119.235 88.8104 255 170 95
86.0905 160.758 127.614 238 240 255
128 19.962 106.381 255 228 207
74.7043 138.442 102.1 210 223 255
137.161 69.7368 112.313 231 235 255
147.079 74.2861 115.522 211 224 255
115.415 133.977 107.001 255 205 165
93.3428 173.931 110.451 201 218 255
84.8722 184.342 110.98 224 231 255
93.3005 173.933 110.362 213 225 255
64.1448 86.3855 131.452 230 235 255
94.1428 174.313 110.458 201 217 255
109.269 76.6641 111.464 195 214 255
153.64 88.2099 119.91 255 228 206
81.3637 34.5754 109.766 190 211 255
135.026 30.6133 111.38 204 219 255
93.1126 110.958 113.813 200 217 255
121.518 114.22 103.606 255 252 247
129.11 204.005 107.916 186 208 255
107.187 158.822 121.673 195 214 255
155.271 95.5112 127.629 203 219 255
93.2925 173.928 110.348 189 210 255
71.3851 43.5823 117.702 210 223 255
190.291 104.596 111.818 204 219 255
142.787 133.079 117.055 184 207 255
91.7066 163.725 106.284 255 221 193
101.329 90.1249 107.91 255 243 232
51.8572 88.7435 106.694 192 212 255
9.81356 156.886 113.819 189 210 255
157.909 128.94 113.464 240 240 255
150.835 72.2208 103.162 226 232 255
126.511 122.033 110.308 212 224 255
111.462 121.146 109.458 184 207 255
93.307 173.937 110.373 212 224 255
111.635 119.045 96.3123 201 218 255
100.533 100.787 106.107 255 237 222
110.721 33.1907 113.319 194 213 255
73.9677 52.7766 111.807 194 213 255
87.7497 108.739 111.235 255 230 210
129.518 77.5393 109.673 217 227 255
93.3303 173.962 110.419 255 242 231
123.433 205.205 110.403 196 215 255
155.026 93.0488 123.864 218 227 255
90.5606 142.904 113.089 255 247 238
93.3092 173.939 110.377 229 234 255
113.999 107.93 94.8023 255 255 251
78.5107 164.639 113.193 219 228 255
107.891 110.949 109.4 255 250 244
153.306 89.9264 116.272 202 218 255
201.049 131.34 150.47 210 223 255
111.072 120.181 108.41 232 236 255
73.7824 40.3993 109.994 198 215 255
105.655 104.651 110.284 255 251 255
116.453 125.52 99.3772 255 233 215
140.748 70.2509 122.673 255 239 226
131.776 141.663 112.296 206 220 255
160.526 101.114 107.363 252 247 255
116.991 122.649 107.224 255 187 130
102.759 121.836 114.615 209 222 255
164.452 158.093 106.705 198 215 255
93.107 173.367 110.41 194 213 255
74.9801 119.607 108.894 204 219 255
159.467 63.5378 114.039 190 211 255
76.6277 70.5241 116.543 207 221 255
152.48 47.3139 48.2234 247 244 255
61.8731 75.6115 113.083 212 224 255
110.39 113.806 110.72 203 219 255
161.905 153.213 110.194 213 225 255
103.046 89.8896 117.128 255 242 230
170.515 74.4808 112.682 192 212 255
104.61 110.945 125.701 208 222 255
9.61641 128.57 108.85 186 208 255
117.008 119.902 110.663 255 233 215
85.0387 54.2187 111.156 242 242 255
118.151 178.367 55.6943 194 213 255
93.4709 174.131 110.55 193 212 255
80.7775 88.5107 114.366 219 228 255
46.3356 188.101 111.914 184 207 255
102.761 151.907 109.935 218 228 255
93.2882 173.938 110.353 210 223 255
133.192 66.6183 111.182 255 246 236
152.057 21.4553 111.024 190 211 255
112.831 140.62 115.608 215 226 255
155.793 108.594 117.04 247 244 255
95.8293 129.821 110.917 217 227 255
110.72 126.72 113.128 204 219 255
123.534 167.39 111.004 184 207 255
127.307 183.403 111.919 184 207 255
84.4989 147.724 115.928 232 236 255
169.828 121.671 122.945 240 241 255
109.083 132.537 110.502 245 243 255
57.8383 107.487 107.03 186 208 255
115.019 112.712 110.429 255 197 150
81.4412 20.8992 118.318 199 216 255
93.2812 173.848 110.229 210 223 255
46.5646 75.1424 103.304 203 218 255
65.0726 136.836 116.207 210 223 255
150.527 65.4583 102.832 255 242 230
146.287 97.462 113.588 214 226 255
110.747 126.951 100.815 218 228 255
27.4265 41.1896 113.863 190 211 255
115.584 92.8622 118.963 206 220 255
145.68 181.7 117.126 208 222 255
159.844 109.789 112.268 209 222 255
103.328 149.931 110.697 255 240 227
114.801 104.778 119.094 255 220 192
109.517 116.499 116.942 255 218 189
82.0188 83.7092 112.138 225 232 255
117.849 163.746 110.94 190 211 255
93.3802 174.001 110.481 195 214 255
93.3095 173.939 110.378 187 209 255
131.895 33.1405 113.202 192 212 255
93.3482 173.966 110.445 201 217 255
123.152 20.9335 105.613 181 205 255
44.8726 138.096 110.974 203 219 255
121.848 140.573 113.785 202 218 255
115.136 120.327 110.187 237 239 255
59.5458 76.8054 111.3 189 210 255
115.964 119.158 109.236 255 235 219
145.537 90.24 114.308 199 216 255
31.842 207.866 109.657 200 217 255
76.9803 124.104 110.023 227 233 255
96.4767 168.886 115.196 211 223 255
80.3729 141.18 105.379 207 221 255
126.055 76.1149 105.488 224 231 255
142.71 161.878 114.253 191 211 255
158.149 103.208 107.858 211 223 255
152.395 119.972 112.087 234 237 255
11.7465 190.242 113.66 212 224 255
60.9098 116.164 113.194 255 247 239
103.766 89.9318 97.4673 230 235 255
25.8229 130.74 112.916 190 211 255
216.169 122.624 112.216 205 220 255
109.489 125.37 107.941 215 226 255
106.602 158.921 115.405 255 205 164
219.871 149.357 111.328 195 214 255
16.5339 157.905 112.822 191 211 255
66.5458 118.013 115.611 188 210 255
144.266 162.802 113.443 197 215 255
45.0501 65.5497 118.169 198 216 255
106.008 153.86 107.353 255 229 207
87.3628 54.8409 114.186 201 218 255
93.3288 173.963 110.416 211 223 255
79.223 109.826 110.819 255 238 223
95.1322 173.784 110.323 221 229 255
46.3522 85.4379 126.898 194 213 255
116.499 167.017 110.913 223 230 255
23.5708 53.6355 114.622 192 212 255
81.3973 32.5225 127.172 199 216 255
63.5722 19.1285 132.754 189 210 255
115.226 136.95 105.753 217 227 255
61.4136 131.798 113.45 220 229 255
93.3138 173.943 110.386 189 210 255
127.128 126.203 113.525 246 244 255
112.073 3.93982 111.638 191 211 255
175.761 108.599 108.306 198 216 255
120.078 188.141 108.948 189 210 255
41.5697 144.733 111.742 186 208 255
145.453 93.6562 113.968 202 218 255
164.556 137.534 131.322 188 209 255
154.615 123.513 111.736 203 219 255
48.7028 147.978 112.361 198 216 255
112.146 111.382 104.538 199 217 255
111.679 33.2196 116.863 245 243 255
112.101 85.0345 107.968 222 230 255
87.1605 29.8905 112.846 233 236 255
50.5303 201.258 112.52 186 208 255
124.667 101.808 126.386 210 223 255
96.0475 174.461 108.592 230 235 255
73.0967 114.682 111.023 204 219 255
108.443 74.8681 113.537 223 231 255
77.3025 64.4118 111.61 191 211 255
17.0617 70.8842 118.55 185 208 255
107.915 113.135 126.816 202 218 255
94.4729 174.236 117.552 218 228 255
93.3159 173.945 110.389 210 223 255
78.0062 202.292 111.502 199 216 255
113.547 119.621 107.755 255 250 255
98.1511 25.4887 113.18 198 215 255
60.6597 168.452 111.2 228 234 255
141.723 137.159 79.5256 255 157 65
88.9283 102.211 109.308 232 236 255
93.2995 173.931 110.363 194 213 255
114.29 105.785 105.99 226 233 255
87.9006 72.5308 114.528 225 232 255
155.608 98.4953 103.384 240 241 255
94.6781 95.5168 117.397 218 228 255
114.831 125.881 105.35 255 237 222
152.935 94.0942 106.853 191 211 255
98.6517 170.616 112.546 197 215 255
115.203 12.5431 109.714 196 215 255
118.203 125.248 114.594 255 228 206
112.427 154.192 116.65 248 245 255
47.753 31.861 110.803 197 215 255
188.445 40.0959 111.86 187 209 255
148.257 157.751 109.726 185 208 255
118.042 102.973 112.261 226 233 255
93.6574 174.27 110.533 232 236 255
98.8835 66.0525 112.467 192 212 255
101.422 147.742 113.447 229 234 255
143.675 92.7565 109.524 208 221 255
153.213 94.9992 102.258 255 253 248
93.6671 169.313 100.032 253 248 255
143.512 74.1191 122.244 217 227 255
179.023 114.259 113.917 198 216 255
121.669 113.029 106.002 255 249 255
160.332 121.734 114.682 197 215 255
29.6889 122.827 115.66 205 220 255
155.072 6.2415 122.187 202 218 255
28.9799 98.3157 112.11 190 211 255
115.948 79.8091 114.903 255 207 169
93.3085 173.938 110.376 208 222 255
77.567 140.694 112.359 191 211 255
1.50637 144.011 108.557 180 204 255
135.13 87.1397 112.312 205 220 255
117.705 13.5147 114.861 207 221 255
20.1001 211.42 121.84 194 213 255
103.764 36.9633 113.983 233 237 255
30.8283 146.459 115.9 188 210 255
58.0668 101.359 106.766 197 215 255
42.145 162.643 111.507 202 218 255
218.022 69.4945 113.944 199 216 255
141.099 114.441 109.666 255 221 194
93.3059 173.931 110.372 225 232 255
61.0229 82.5248 103.595 208 222 255
117.474 122.532 104.009 255 210 174
103.934 216.236 108.248 195 214 255
115.223 123.784 104.801 248 245 255
87.6919 142.167 139.363 203 219 255
132.448 105.205 109.163 205 220 255
93.2837 173.922 110.331 255 247 239
92.9933 174.068 110.55 255 221 195
114.489 92.803 124.351 255 252 247
100.504 132.812 111.447 251 247 255
184.206 61.8685 111.28 255 250 243
93.2939 173.928 110.35 204 219 255
139.062 93.1189 113.926 220 229 255
131.896 97.7825 113.078 255 254 251
110.021 121.488 112.472 255 208 170
94.056 38.1932 112.335 200 217 255
93.3569 174.004 110.439 255 240 226
77.4926 138.197 121.482 225 232 255
193.95 92.7683 112.881 200 217 255
23.5391 197.464 117.2 196 214 255
108.086 112.297 115.107 231 235 255
111.588 126.975 109.826 202 218 255
149.341 117.862 112.157 255 236 220
111.063 97.8241 115.774 255 158 68
93.3154 173.944 110.388 255 238 223
190.512 158.137 117.37 181 205 255
104.203 119.088 110.482 255 241 228
60.0856 134.381 115.94 194 213 255
177.684 169.786 115.231 181 205 255
116.605 120.116 107.949 255 185 126
101.595 110.759 108.827 224 231 255
148.878 110.756 111.98 198 215 255
140.266 88.7043 109.324 255 248 240
149.563 122.352 111.479 204 220 255
74.9605 144.037 106.782 213 225 255
93.2992 173.932 110.36 209 222 255
78.5846 92.191 113.06 212 224 255
70.8882 63.4951 104.322 196 214 255
120.849 121.58 105.473 255 255 251
188.484 89.9157 111.308 187 209 255
155.79 44.0319 117.627 197 215 255
156.83 114.509 111.323 202 218 255
160.947 124.079 110.649 201 217 255
70.7418 159.409 111.184 188 210 255
77.731 150.774 113.528 204 219 255
111.625 101.698 116.537 255 251 255
93.3272 174.151 110.975 203 219 255
161.53 117.587 126.411 192 212 255
84.5582 107.518 110.616 198 216 255
137.548 172.778 112.139 255 252 246
98.6888 96.1518 121.302 196 214 255
63.3882 86.2413 110.233 226 233 255
171.998 86.4399 106.988 213 224 255
79.5275 82.3523 110.934 252 247 255
95.0872 11.8972 105.869 204 219 255
107.094 132.412 112.65 237 239 255
115.398 135.578 119.136 220 229 255
81.9039 149.179 121.125 219 228 255
106.075 101.802 103.966 255 244 233
97.4296 168.71 107.737 228 234 255
93.3187 173.947 110.394 215 226 255
137.1 43.6193 96.2292 191 211 255
142.647 167.256 121.98 194 213 255
50.3496 94.2977 109.903 203 218 255
113.102 172.279 108.21 193 213 255
52.9324 85.2649 101.853 206 220 255
70.9899 132.806 119.335 219 228 255
18.1565 158.503 107.908 189 210 255
102.701 115.715 122.13 215 226 255
105.772 174.44 126.308 255 242 230
199.751 167.908 112.975 189 210 255
93.6783 137.984 112.486 212 224 255
104.306 151.864 114.168 223 230 255
118.052 114.428 113.742 255 206 167
93.3372 173.982 110.427 187 209 255
163.272 114.202 102.529 213 225 255
106.503 102.431 108.747 255 234 216
110.84 133.452 120.399 250 246 255
105.26 91.3426 116.589 226 233 255
29.9028 46.0971 115.043 181 205 255
93.2094 174.078 110.139 255 250 255
129.266 162.933 108.723 186 208 255
100.829 104.745 112.942 210 223 255
67.4409 51.5441 102.911 209 222 255
66.8439 49.2649 119.697 198 215 255
113.865 114.359 120.116 255 237 221
42.9018 31.2702 114.709 186 208 255
48.6421 193.179 110.032 189 210 255
104.379 117.911 113.079 255 242 230
89.2275 107.935 109.51 209 222 255
12.0534 89.1944 108.087 189 210 255
110.979 56.5256 114.482 211 223 255
93.2579 173.833 110.255 215 226 255
142.745 182.119 118.058 192 212 255
127.106 85.9485 134.028 255 177 110
220.261 145.745 111.8 197 215 255
93.3186 173.947 110.394 197 215 255
64.8516 30.2969 71.4388 194 213 255
115.399 138.47 111.724 255 241 228
116.657 124.024 107.541 255 210 174
17.3101 95.2814 114.442 182 205 255
142.198 115.774 116.12 225 232 255
163.528 126.509 95.8962 224 231 255
112.173 112.241 112.541 247 244 255
58.4721 78.7924 105.944 200 217 255
120.476 72.5996 103.837 255 251 245
122.272 116.891 108.693 255 234 217
124.063 65.6371 117.603 206 220 255
136.68 80.566 114.747 226 233 255
82.319 95.4065 111.741 226 233 255
74.1556 21.0085 106.638 255 244 233
91.2081 167.621 111.829 253 248 255
159.316 134.278 111.575 206 220 255
165.011 129.128 112.246 245 243 255
170.996 202.108 129.931 184 207 255
74.607 145.808 108.751 202 218 255
152.81 90.5108 107.133 255 243 232
70.7553 173.926 115.889 198 216 255
92.5122 173.611 110.554 255 247 239
142.177 81.1649 97.1724 255 218 188
63.6135 23.518 114.507 188 209 255
93.3308 173.963 110.422 234 237 255
174.807 103.321 116.923 201 217 255
97.4039 132.169 112.347 255 245 235
134.74 84.444 113.297 237 239 255
93.3287 173.958 110.41 212 224 255
119.429 109.074 103.039 240 241 255
117.555 115.605 106.731 255 224 199
93.3494 174.045 110.344 205 220 255
102.341 79.3079 114.501 205 220 255
35.6304 133.426 113.276 194 213 255
81.0909 190.536 111.016 192 212 255
84.3581 165.758 123.355 227 233 255
123.372 80.7091 109.894 255 226 203
81.5793 24.8396 99.3586 188 210 255
25.2264 187.189 113.653 185 208 255
91.0793 151.353 110.731 207 221 255
111.197 152.293 119.955 242 242 255
116.881 103.488 113.492 255 212 178
155.451 105.595 112.868 227 233 255
109.741 125.281 108.271 255 246 236
101.178 116.002 112.638 255 230 210
54.4863 105.983 131.666 255 230 209
101.215 120.008 117.823 196 214 255
200.537 30.2851 112.059 192 212 255
95.0156 38.6595 111.899 247 244 255
93.3132 173.943 110.385 198 216 255
110.586 113.203 115.086 255 228 207
93.2636 173.916 110.309 246 244 255
135.357 111.857 112.636 187 209 255
102.777 94.6025 109.31 207 221 255
6.73165 125.223 110.985 184 207 255
28.7365 45.7843 119.825 183 206 255
67.4552 133.463 122.028 215 226 255
48.4151 80.4501 94.218 200 217 255
99.123 95.0935 120.437 239 240 255
148.515 140.206 113.224 198 216 255
66.0686 62.167 112.048 188 209 255
94.1552 27.1649 113.71 196 214 255
92.6962 174.43 110.621 255 227 204
33.0257 44.4804 111.251 210 223 255
57.8932 108.799 113.771 211 224 255
116.128 49.8409 113.164 208 222 255
126.454 63.5369 115.042 218 228 255
93.3188 173.962 110.399 255 240 228
110.515 152.889 119.733 204 219 255
151.821 87.9303 114.184 214 225 255
93.4636 50.6515 111.276 216 226 255
104.784 104.766 106.692 255 211 176
93.328 173.958 110.412 214 225 255
119.643 125.436 117.13 255 222 196
115.605 185.983 109.816 196 215 255
193.569 23.3484 110.987 188 209 255
93.3179 173.947 110.393 197 215 255
111.564 113.397 116.012 225 232 255
145.535 134.436 111.199 202 218 255
28.8657 52.5782 111.264 231 236 255
166.204 69.9876 117.491 255 230 210
110.166 107.286 109.086 196 215 255
222.457 133.143 107.433 188 209 255
108.121 212.53 120.09 193 212 255
72.6226 133.698 112.9 206 220 255
94.1014 175.729 113.453 248 245 255
157.971 135.95 109.226 184 207 255
98.7454 2.36114 75.6085 181 205 255
93.3051 173.936 110.371 210 223 255
184.662 116.197 111.43 243 242 255
111.323 193.113 112.272 192 212 255
160.207 191.914 113.264 190 211 255
172.1 141.623 131.022 195 214 255
115.571 205.821 86.1721 187 209 255
23.9193 51.083 109.663 195 214 255
93.3129 173.942 110.384 255 240 226
137.933 80.5058 104.531 255 232 213
103.789 35.6109 110.829 226 233 255
77.9453 68.0137 110.796 197 215 255
112.694 122.028 111.614 255 250 244
126.825 101.689 112.095 214 225 255
159.317 188.504 110.073 179 204 255
181.439 13.585 110.77 191 212 255
108.308 105.277 113.854 255 193 142
41.5527 88.5798 100.432 186 208 255
110.544 150.32 114.844 218 228 255
217.76 95.7398 109.024 202 218 255
35.6791 35.6528 105.405 186 208 255
60.835 105.452 106.188 211 224 255
97.8061 108.976 141.113 196 214 255
102.683 13.6676 96.4824 192 212 255
88.1998 143.663 113.195 212 224 255
93.2976 173.909 110.33 213 225 255
100.095 164.632 110.981 226 232 255
122.771 77.8734 111.025 255 184 124
109.655 125.683 108.339 255 200 155
90.0941 11.1654 137.565 191 211 255
112.792 118.597 106.872 231 235 255
46.3059 96.663 98.0326 255 240 227
127.066 6.36061 109.487 204 219 255
92.6709 110.173 110.421 217 227 255
135.299 63.9439 115.691 255 252 246
113.354 43.5441 115.793 217 227 255
106.364 108.267 106.469 232 236 255
110.38 120.768 105.605 246 244 255
93.3014 173.933 110.363 226 232 255
93.3255 173.953 110.41 211 223 255
84.7522 38.7568 106.956 185 207 255
103.403 11.5307 113.923 183 206 255
161.503 144.558 114.584 201 217 255
112.088 101.935 115.822 211 224 255
51.5015 144.966 109.892 188 210 255
143.315 57.3811 117.391 212 224 255
127.992 190.907 105.497 209 222 255
92.1406 98.4431 115.529 255 250 243
148.105 106.042 110.428 223 231 255
160.312 121.187 141.594 202 218 255
107.853 82.9509 113.455 255 255 252
143.014 175.72 114.944 189 210 255
71.1409 36.1038 98.5911 214 225 255
7.45456 92.0227 115.616 191 212 255
75.3819 178.64 113.623 204 219 255
93.3175 173.946 110.392 220 229 255
94.2761 128.226 113.223 226 232 255
153.321 103.947 109.566 216 226 255
107.038 90.8752 116.104 203 219 255
111.365 18.0486 113.144 229 234 255
125.61 78.5068 101.186 210 223 255
132.762 84.0226 131.067 200 217 255
133.961 194.351 112.515 194 213 255
72.2147 112.542 112.56 255 220 193
7.54961 83.4307 112.864 182 205 255
103.09 104.66 108.43 204 219 255
105.254 125.829 107.193 236 238 255
74.7215 126.628 110.429 255 219 190
76.6691 37.0233 113.666 203 219 255
20.0183 54.5669 117.481 182 206 255
107.628 111.197 123.074 203 219 255
61.5807 134.764 113.083 198 215 255
115.021 146.811 106.463 255 242 230
51.0502 35.8451 109.928 190 211 255
224.114 71.1617 114.85 197 215 255
18.1567 102.8 113.525 192 212 255
108.046 123.247 116.873 222 230 255
93.3542 174.016 110.536 235 237 255
93.3526 173.936 110.287 255 235 218
136.493 59.7631 118.23 211 223 255
96.5943 49.4645 110.498 186 208 255
9.33456 95.9767 114.846 187 209 255
106.424 160.301 113.691 255 237 222
220.853 106.668 109.441 183 206 255
11.9802 141.66 108.12 209 222 255
83.5496 153.58 122.828 209 222 255
93.3117 173.941 110.382 201 218 255
61.153 128.045 102.211 216 226 255
156.126 109.062 111.626 255 233 215
114.369 113.348 112.084 255 223 197
145.698 83.0895 107.112 212 224 255
104.874 117.064 112.44 217 227 255
98.5046 175.562 104.411 194 213 255
95.9179 126.658 112.067 192 212 255
112.523 85.0848 114.467 255 176 107
80.7882 81.3296 113.268 231 235 255
110.729 110.263 111.414 255 222 197
167.212 159.444 114.289 213 225 255
128.255 17.4878 110.699 181 205 255
56.3386 110.943 110.422 198 216 255
106.231 113.225 107.311 255 253 248
93.319 173.946 110.396 241 241 255
146.305 102.561 114.082 225 232 255
116.05 103.41 113.086 224 231 255
191.018 79.4697 114.019 183 206 255
77.1139 110.412 110.764 255 225 201
114.801 125.052 107.523 255 185 126
100.448 194.289 113.816 193 213 255
107.875 128.029 112.221 214 225 255
66.874 93.2919 114.162 217 227 255
53.0728 81.4008 111.502 199 216 255
10.1385 85.9799 110.343 200 217 255
136.347 182.252 115.518 197 215 255
10.274 77.0115 111.508 187 209 255
81.3085 140.527 114.238 255 237 222
143.218 8.8037 112.877 183 206 255
114.29 141.664 108.733 255 179 114
114.013 92.0045 112.942 255 226 203
108.327 103.189 106.928 255 241 228
100.656 203.071 101.473 185 207 255
93.3211 173.949 110.397 214 225 255
108.346 167.273 107.444 213 225 255
72.9006 123.626 110.591 255 232 214
93.3104 173.94 110.379 207 221 255
102.148 105.917 110.522 249 246 255
97.1386 22.4191 118.455 191 211 255
112.308 121.638 111.075 226 233 255
48.2651 182.9 111.221 212 224 255
124.004 178.528 112.962 182 205 255
93.3373 173.967 110.438 193 213 255
93.3252 173.954 110.407 204 219 255
140.659 115.089 111.802 201 218 255
108.411 90.0552 104.148 206 220 255
114.997 131.966 114.729 255 238 223
60.5168 79.4357 112.478 255 245 236
103.151 107.488 121.848 234 237 255
173.208 50.0455 112.456 211 224 255
93.3049 173.936 110.37 190 210 255
93.9246 174.559 110.775 207 221 255
115.033 59.2636 113.868 255 222 196
56.7627 188.493 145.874 197 215 255
115.411 113.485 107.319 207 221 255
93.5677 174.388 110.952 210 223 255
75.5596 214.056 116.042 212 224 255
53.6271 87.0396 116.978 213 225 255
106.785 106.199 110.081 255 127 0
182.653 14.7147 108.228 182 206 255
83.6123 16.3947 105.982 199 216 255
223.805 191.61 150.975 190 210 255
103.543 55.4757 113.945 211 224 255
101.679 105.705 107.036 217 227 255
44.915 126.616 113.195 197 215 255
38.8208 185.231 111.89 191 211 255
102.448 119.854 108.78 229 234 255
95.3004 172.797 113.569 255 250 244
69.6633 214.038 115.461 186 208 255
166.771 120.222 115.105 191 211 255
161.644 176.495 109.028 211 223 255
70.627 125.911 112.55 255 249 255
112.842 115.931 116.573 255 250 255
118.937 113.311 109.404 255 255 252
59.1873 187.68 110.753 200 217 255
145.319 78.4194 111.722 218 228 255
163.59 25.1362 115.158 186 208 255
102.843 120.585 116.674 218 227 255
165.139 93.9322 112.546 197 215 255
112.815 122.583 106.337 233 237 255
61.6843 109.266 107.839 255 234 217
95.6834 116.612 112.697 255 226 202
144.759 113.262 111.494 191 211 255
70.875 42.0951 115.993 188 209 255
99.0207 44.7688 112.884 222 230 255
172.559 116.661 104.717 210 223 255
154.324 24.9781 112.313 216 226 255
88.3948 175.619 115.462 217 227 255
121.24 7.7644 110.127 203 218 255
178.683 106.176 123.041 217 227 255
73.2775 138.941 132.118 211 223 255
162.683 158.564 134.101 196 214 255
32.8792 49.765 106.751 182 206 255
105.534 108.506 109.275 255 204 163
124.779 57.3283 114.932 251 247 255
125.267 78.5943 111.578 187 209 255
93.312 173.941 110.382 182 206 255
51.0415 140.869 113.235 200 217 255
173.267 111.955 111.624 237 238 255
203.64 21.9607 112.401 195 213 255
57.2933 126.087 137.221 193 212 255
34.324 67.1567 108.862 232 236 255
178.954 129.605 128.564 237 238 255
157.945 124.327 109.902 196 215 255
108.13 115.081 103.625 255 251 255
70.7443 130.178 118.862 193 213 255
107.844 121.755 115.422 237 239 255
68.3787 139.083 103.939 252 247 255
104.892 116.118 110.254 219 228 255
145.593 18.8586 107.202 185 207 255
122.196 184.496 106.334 181 205 255
103.227 97.3974 110.263 218 227 255
107.54 125.641 88.6263 255 209 172
106.106 90.3992 116.587 255 103 0
106.033 61.3946 112.958 192 212 255
137.302 63.8763 117.559 214 226 255
119.14 132.787 106.545 194 213 255
109.628 123.432 101.279 215 226 255
93.435 173.381 110.355 200 217 255
112.987 117.876 107.043 239 240 255
57.2302 126.151 106.024 193 212 255
92.5336 90.0046 112.054 221 229 255
101.286 114.219 113.117 225 232 255
93.2303 173.877 110.231 204 219 255
188.95 86.691 95.8241 204 219 255
91.4453 182.628 109.915 192 212 255
38.3639 113.596 120.176 201 218 255
115.536 140.414 107.701 223 231 255
113.02 105.634 114.891 255 231 212
157.739 69.5587 128.485 220 229 255
77.7028 34.2586 106.803 204 219 255
57.6725 120.939 102.869 255 249 255
101.987 88.5919 113.1 203 219 255
54.0825 60.3086 95.9576 192 212 255
114.256 124.567 118.611 255 243 233
104.79 105.083 114.37 247 245 255
124.112 82.599 123.679 255 245 235
93.336 173.965 110.424 255 239 225
156.509 98.2228 104.037 227 233 255
93.326 173.955 110.408 223 231 255
72.8284 84.3087 110.283 198 216 255
164.429 100.035 100.016 218 228 255
46.3663 115.425 89.6277 186 208 255
193.686 129.027 108.007 215 226 255
37.5011 150.996 114.706 188 209 255
160.135 181.612 125.752 207 221 255
77.7326 114.203 114.347 209 223 255
93.3498 173.983 110.436 203 219 255
111.14 106.295 115.169 211 223 255
161.056 129.281 111.921 218 228 255
113.314 129.882 102.824 200 217 255
108.688 38.9762 112.356 201 217 255
93.3317 173.968 110.403 191 211 255
54.0718 197.765 111.25 193 212 255
100.084 165.377 101.58 255 244 233
50.9934 49.348 103.85 192 212 255
53.7157 78.8683 100.247 200 217 255
184.73 179.03 136.904 190 210 255
107.843 142.963 103.545 236 238 255
130.255 101.714 113.811 218 228 255
93.2968 173.93 110.355 255 218 189
81.0669 85.5786 95.0437 247 244 255
181.594 112.403 114.505 190 210 255
93.3037 102.271 116.203 226 233 255
201.668 32.0231 111.486 191 211 255
122.028 82.4259 121.158 216 227 255
93.2632 173.918 110.302 255 235 218
195.673 110.074 111.038 211 224 255
93.3211 173.949 110.399 193 213 255
14.7594 120.543 113.606 193 212 255
48.0494 67.3661 92.5628 255 249 255
107.384 151.799 116.553 208 222 255
100.552 85.7136 108.628 255 245 235
204.669 96.6458 109.292 187 209 255
120.087 122.702 104.93 255 237 222
169.978 161.078 122.526 207 221 255
55.5057 102.979 101.89 206 221 255
108.365 130.05 112.888 255 221 193
119.902 84.6739 109.64 221 230 255
43.5918 93.3468 108.678 205 220 255
89.337 109.816 111.822 209 222 255
74.6198 92.709 113.593 236 238 255
105.392 159.499 98.6908 255 254 251
123.166 186.267 104.967 192 212 255
97.4489 110.43 109.939 233 236 255
132.342 9.30535 105.231 189 210 255
140.775 128.754 112.191 210 223 255
109.719 138.287 104.481 210 223 255
116.087 122.707 115.721 212 224 255
103.174 122.923 115.345 229 234 255
176.376 125.609 120.183 199 216 255
52.8402 98.5133 120.099 191 211 255
114.691 151.682 114.72 202 218 255
166.575 105.444 121.849 192 212 255
93.3166 173.945 110.391 219 228 255
113.73 112.317 104.92 226 232 255
212.265 133.601 117.795 198 216 255
93.3346 173.9 110.337 255 232 213
93.3181 173.348 110.571 255 247 238
154.038 143.018 114.469 197 215 255
54.5004 56.8151 111.971 191 211 255
117.82 110.151 115.111 255 233 215
44.0148 76.5752 114.17 198 216 255
93.3234 173.952 110.403 204 219 255
121.241 68.3385 115.678 201 217 255
119.974 110.825 113.117 232 236 255
130.84 16.7822 109.285 212 224 255
52.4489 131.407 106.853 196 215 255
156.385 117.638 113.344 201 217 255
91.0886 201.151 112.404 209 222 255
94.1772 41.3946 111.908 199 216 255
118.218 96.0366 109.234 197 215 255
157.156 36.4059 112.832 200 217 255
116.327 111.343 110.362 255 155 61
118.895 178.281 113.864 188 209 255
107.42 103.473 106.208 255 240 227
93.3217 173.95 110.4 255 250 244
93.318 173.946 110.393 207 221 255
109.889 112.044 117.94 255 215 183
144.092 112.993 112.774 255 248 240
113.543 122.122 105.499 233 236 255
169 119.127 107.122 209 222 255
158.487 142.895 115.076 219 228 255
109.877 104.01 102.975 227 233 255
70.3992 131.82 113.234 237 239 255
122.072 119.178 108.937 255 227 205
93.3035 173.935 110.368 224 231 255
22.4622 147.338 110.346 188 210 255
110.171 119.519 113.92 255 232 213
39.3955 184.999 110.86 192 212 255
194.5 152.488 119.175 185 207 255
85.9808 145.932 120.203 221 230 255
52.8092 110.157 108.928 202 218 255
71.6394 41.1802 117.081 197 215 255
177.517 109.808 90.8604 187 209 255
108.158 134.398 108.141 199 216 255
182.126 79.6165 100.986 255 249 242
115.35 123.503 95.5874 255 247 238
150.228 111.963 98.6264 220 229 255
61.3747 130.51 96.9825 203 219 255
130.283 25.2339 110.621 210 223 255
93.3133 173.942 110.384 236 238 255
70.7292 153.842 117.832 214 225 255
93.3467 173.979 110.44 255 209 172
133.29 78.2038 101.867 255 225 201
116.413 128.832 106.116 255 245 235
82.1745 69.8631 113.395 255 255 251
82.7141 139.886 110.753 255 212 179
141.616 78.5203 113.214 197 215 255
87.6879 87.4443 113.697 234 237 255
114.556 149.122 117.367 255 237 222
111.465 55.9015 109.948 255 249 242
121.878 114.633 111.809 202 218 255
176.196 177.602 113.78 199 216 255
186.366 100.908 99.0435 219 228 255
47.7899 74.2623 100.59 199 216 255
93.3032 173.935 110.367 215 226 255
157.355 99.7553 109.284 193 213 255
219.496 112.015 114.838 194 213 255
168.581 137.902 121.804 196 214 255
116.933 79.7521 118.155 206 221 255
93.1732 174.277 110.093 208 222 255
53.1578 23.6895 117.97 204 219 255
139.49 88.6469 116.174 255 250 244
117.83 81.2541 115.174 213 225 255
147.397 83.2793 109.066 196 215 255
193.715 29.8918 112.181 189 210 255
157.655 129.941 113.084 224 231 255
55.0935 71.8316 124.403 202 218 255
110.835 138.556 112.176 219 228 255
50.4857 53.2925 93.2838 194 213 255
43.6038 109.122 107.897 191 211 255
103.215 87.6857 116.629 228 233 255
118.863 136.254 114.998 255 254 250
191.214 32.3092 112.302 187 209 255
157.946 112.748 105.934 202 218 255
139.075 132.282 113.352 200 217 255
127.762 124.38 104.352 255 251 255
93.3112 173.941 110.381 197 215 255
155.053 109.097 104.642 196 214 255
127.2 77.3913 111.489 217 227 255
93.3258 173.955 110.408 205 220 255
121.87 81.5859 115.911 204 219 255
93.3893 51.8175 115.489 213 224 255
51.2396 63.7 78.5497 189 210 255
118.258 121.964 108.026 255 251 246
173.834 147.578 115.123 190 211 255
93.2811 173.922 110.328 190 211 255
106.891 122.831 116.838 255 224 199
123.117 29.2867 115.351 194 213 255
93.4781 174.12 110.461 225 232 255
172.244 170.574 110.573 193 212 255
123.125 77.5188 119.084 240 240 255
117.446 113.441 118.366 255 241 228
207.602 151.67 110.446 194 213 255
103.749 144.711 109.535 250 246 255
88.3862 146.433 111.774 199 216 255
93.1852 173.867 110.213 223 231 255
165.575 105.225 95.3024 196 215 255
99.6991 114.993 113.579 220 229 255
95.6854 48.7577 116.017 192 212 255
175.75 129.05 114.2 189 210 255
127.059 60.7316 113.256 197 215 255
21.061 102.584 117.193 211 223 255
93.7487 173.9 110.071 196 214 255
97.8532 142.565 112.166 235 237 255
172.741 135.852 111.619 194 213 255
110.914 118.855 109.518 255 226 203
152.073 111.599 95.147 222 230 255
1.78752 159.63 116.273 182 206 255
110.081 96.9404 115.521 255 245 235
105.404 100.256 107.363 205 220 255
113.745 188.954 110.776 191 211 255
153.042 179.32 109.256 195 214 255
80.8575 32.978 99.626 197 215 255
64.0064 139.526 123.879 219 228 255
113.285 120.577 105.975 255 237 222
132.339 83.9644 115.585 255 250 244
124.396 101.403 112.631 223 230 255
65.7294 139.788 115.12 204 219 255
106.649 136.178 109.734 197 215 255
155.301 37.7636 112.5 205 220 255
150.098 76.6029 132.877 201 217 255
50.486 124.547 94.5105 204 219 255
117.772 18.1054 111.13 202 218 255
138.232 149.736 111.513 222 230 255
78.2349 120.873 93.3357 223 231 255
107.056 103.689 107.32 255 250 244
57.6065 121.688 122.83 212 224 255
63.8161 180.212 112.672 189 210 255
92.787 174.11 110.429 191 211 255
61.1281 185.962 115.422 200 217 255
110.516 115.307 109.921 255 206 166
94.6315 162.959 124.249 227 233 255
144.789 93.3419 112.53 255 244 234
51.1141 75.284 119.267 200 217 255
113.002 113.851 103.731 231 235 255
83.7311 65.8269 104.152 202 218 255
90.9216 176.046 112.591 255 106 0
80.352 110.676 110.133 228 234 255
106.762 94.5565 115.425 255 242 231
158.737 107.387 105.297 196 214 255
44.9027 44.1653 122.44 192 212 255
111.697 126.761 105.647 255 234 216
94.606 175.01 111.688 198 215 255
60.8172 132.061 111.619 216 226 255
184.414 51.8639 116.176 197 215 255
92.9615 174.249 111.078 255 232 213
37.5852 211.014 120.269 185 208 255
210.781 45.9496 111.584 186 208 255
109.375 23.6536 109.214 189 210 255
93.9213 99.6432 108.385 255 228 206
118.354 77.5828 107.19 225 232 255
67.417 101.017 115.088 255 248 240
106.646 100.388 100.896 255 242 231
101.668 91.8195 117.201 255 251 255
93.9703 130.39 113.636 221 229 255
119.914 81.581 127.833 216 227 255
165.006 58.2766 109.277 210 223 255
139.994 124.439 112.693 194 213 255
124.33 186.644 110.541 228 234 255
211.058 109.201 116.122 188 209 255
93.3139 173.943 110.386 199 216 255
122.84 86.6216 112.053 190 211 255
125.683 79.1278 127.636 255 247 238
104.315 106.43 114.071 234 237 255
93.3257 173.957 110.456 255 251 255
83.3863 173.129 112.483 255 251 255
93.3087 173.939 110.376 255 204 163
113.958 105.885 117.084 232 236 255
93.2692 173.923 110.323 218 228 255
58.0192 78.2638 105.359 212 224 255
130.214 163.557 110.183 194 213 255
106.257 87.687 111.817 190 210 255
93.2932 173.929 110.381 233 236 255
126.175 83.566 121.021 250 246 255
168.628 117.113 105.783 221 229 255
102.931 106.632 116.891 217 227 255
40.9814 196.462 111.528 197 215 255
93.2633 173.925 110.255 255 235 219
149.703 92.4372 104.611 196 215 255
113.148 118.883 108.268 255 225 201
172.102 135.16 120.065 210 223 255
116.274 140.636 115.63 206 221 255
93.3113 173.941 110.381 203 219 255
105.114 160.207 101.519 253 248 255
81.6358 88.8759 110.762 201 217 255
64.1883 119.535 113.041 236 238 255
67.1853 102.305 86.1494 213 225 255
40.1442 110.104 109.545 193 212 255
7.69606 101.493 114.773 198 216 255
153.456 138.053 112.421 194 213 255
54.8359 122.336 102.862 198 216 255
93.3119 173.93 110.336 203 219 255
108.325 23.401 111.302 185 208 255
148.366 7.97074 108.539 189 210 255
148.607 91.9973 122.018 215 226 255
93.3287 173.956 110.413 213 225 255
169.574 43.3698 111.751 255 244 234
60.4887 86.0384 119.062 205 220 255
116.316 119.318 107.165 255 214 181
113.254 178.877 108.758 200 217 255
117.404 108.383 99.5644 255 188 132
116.848 143.978 108.069 255 254 251
115.776 148.334 110.848 201 218 255
135.748 14.9697 113.302 198 216 255
46.4263 33.7026 115.409 188 209 255
116.947 102.251 117.243 255 250 255
101.985 94.4208 112.094 215 226 255
115.909 120.204 109.448 255 220 193
94.8987 179.482 110.234 227 233 255
59.0062 113.964 129.096 208 222 255
109.649 169.48 112.359 196 215 255
136.904 74.7066 106.844 239 240 255
114.169 108.902 107.462 241 241 255
130.647 110.719 110.943 202 218 255
93.3217 173.95 110.399 224 231 255
128.025 137.287 112.291 232 236 255
110.919 112.841 105.977 255 241 228
93.2942 173.952 110.388 255 235 218
51.4175 110.075 113.114 192 212 255
220.392 89.0601 110.214 194 213 255
110.036 124.951 105.783 255 232 214
49.9705 136.857 109.207 192 212 255
172.477 184.636 112.961 195 214 255
116.736 109.502 108.945 210 223 255
125.468 97.6856 114.09 255 227 204
101.737 104.388 110.715 255 246 237
93.3148 173.944 110.387 220 229 255
102.019 172.794 104.444 252 247 255
66.9007 51.8507 91.8116 186 208 255
173.923 117.034 127.999 199 216 255
105.365 91.1396 111.353 216 227 255
150.165 67.3004 106.89 255 193 142
142.368 81.4355 106.141 215 226 255
110.674 82.4571 109.075 220 229 255
25.2321 109.562 117.091 204 219 255
82.1832 151.973 112.13 205 220 255
96.185 133.376 112.339 255 159 72
135.469 143.4 111.994 221 229 255
103.301 123.696 111.616 255 244 234
97.6889 121.631 109.093 255 141 27
72.8673 142.185 122.072 231 235 255
97.3969 114.584 113.108 247 244 255
115.173 124.36 110.151 240 241 255
114.601 107.774 113.507 255 247 239
