ply
format ascii 1.0
element vertex 1340
property float x
property float y
property float z
property uchar red
property uchar green
property uchar blue
end_header
75.2138 145.848 110.654 204 219 255
109.737 111.91 111.261 243 242 255
113.417 142.464 110.569 255 224 199
99.7818 115.784 111.031 255 244 233
127.544 182.441 110.711 190 210 255
135.929 152.421 115.351 195 214 255
150.8 97.2351 94.7181 220 229 255
64.3138 136.733 120.127 234 237 255
106.152 120.404 115.558 255 252 247
42.346 100.364 109.4 189 210 255
41.9351 148.01 113.243 186 208 255
128.781 98.2451 112.236 211 224 255
115.505 110.607 107.929 208 221 255
32.3021 128.484 109.391 190 211 255
127.342 75.2447 108.758 255 196 147
83.6339 102.829 113.795 212 224 255
110.206 113.267 112.594 255 253 249
134.674 31.3016 114.992 197 215 255
81.1823 56.167 113.012 206 221 255
86.0574 87.9959 110.78 220 229 255
58.8159 84.8311 101.089 203 219 255
148.701 154.189 113.725 223 231 255
107.806 119.122 111.376 213 225 255
89.7299 57.114 116.374 240 240 255
6.39014 117.565 116.718 181 205 255
98.9644 151.656 113.883 201 217 255
111.991 115.257 113.254 255 248 240
67.8688 201.373 112.905 183 206 255
115.732 140.622 109.714 211 223 255
63.7012 79.4264 114.856 217 227 255
96.6044 173.26 109.221 255 194 144
18.5366 172.22 110.294 178 203 255
127.327 139.435 111.907 215 226 255
86.3644 105.021 111.643 234 237 255
129.461 85.1413 123.4 216 227 255
61.9412 37.4429 110.025 185 208 255
109.039 111.16 116.799 220 229 255
103.001 169.429 117.004 255 240 227
104.811 148.352 110.75 198 216 255
166.589 144.064 111.699 199 216 255
71.615 74.0325 112.838 188 209 255
108.821 24.5538 117.286 192 212 255
214.56 78.5884 111.506 204 219 255
171.886 130.088 103.311 191 211 255
88.8258 170.074 105.942 216 226 255
103.857 108.046 115.815 226 232 255
136.473 62.8465 115.062 202 218 255
196.317 114.361 114.303 215 226 255
111.029 112.701 111.66 255 234 217
146.156 88.3942 112.706 255 228 206
68.9986 79.7066 112.123 221 229 255
153.064 90.2099 117.486 216 227 255
95.356 0.515733 98.5329 189 210 255
99.4363 97.6048 114.185 255 236 220
179.975 57.5906 109.681 195 213 255
50.01 112.928 104.777 255 254 250
102.503 72.2399 111.914 227 233 255
101.877 103.093 112.834 234 237 255
112.982 116.981 111.948 255 255 252
116.761 107.553 104.061 214 225 255
119.461 105.098 113.58 202 218 255
129.223 16.6572 111.719 191 211 255
85.445 163.211 112.291 238 239 255
168.977 123.74 110.341 194 213 255
117.054 102.465 112.865 219 228 255
48.5228 74.9172 112.197 185 207 255
94.4126 118.554 113.973 255 204 164
77.3751 144.886 112 255 249 241
60.9372 70.9921 112.741 202 218 255
157.824 42.5634 112.537 188 209 255
79.9241 148.484 121.083 210 223 255
58.2812 123.706 103.763 255 190 137
150.141 131.351 112.407 207 221 255
77.8589 90.2631 112.237 229 234 255
71.5157 136.414 111.666 255 244 233
88.735 42.799 112.008 183 206 255
110.839 178.118 105.664 202 218 255
103.039 79.5518 112.733 255 235 218
133.476 70.7094 115.994 196 214 255
168.239 73.7486 117.692 219 229 255
142.916 198.589 110.709 218 227 255
54.8508 109.243 120.762 227 233 255
137.79 82.9648 115.548 227 233 255
165.505 75.6728 113.42 228 233 255
115.114 173.065 110.542 251 247 255
94.4298 177.966 107.059 217 227 255
90.0947 162.593 111.266 215 226 255
79.5641 40.5005 112.668 193 213 255
14.2938 177.125 111.984 189 210 255
8.73015 115.045 112.917 187 209 255
74.0571 86.4495 111.432 255 232 213
132.325 33.1445 113.23 193 213 255
165.572 97.1737 112.802 255 232 213
166.532 103.753 110.598 255 251 245
111.531 111.241 114.802 255 240 227
67.1862 135.538 104.564 255 249 255
79.2745 88.4525 109.018 255 226 203
132.674 195.221 96.5713 175 201 255
130.115 70.2926 134.295 221 230 255
137.997 127.811 109.492 201 217 255
116.214 142.481 106.541 253 248 255
40.4212 153.253 110.878 196 214 255
99.7385 105.458 108.54 255 233 214
152.374 137.249 114.612 200 217 255
159.823 117.274 113.206 255 252 247
214.266 144.258 110.668 187 209 255
186.901 22.1555 109.886 191 211 255
79.2987 50.5499 113.407 198 215 255
115.397 113.447 112.732 255 133 5
164.828 192.775 112.378 182 206 255
138.414 176.777 119.835 189 210 255
150.344 131.626 115.469 205 220 255
121.546 122.68 109.559 255 235 219
93.5447 173.352 111.798 209 222 255
69.0226 119.221 113.429 186 208 255
63.7318 146.294 113.28 189 210 255
22.955 70.8211 111.673 182 206 255
132.086 7.40571 112.162 188 210 255
104.503 112.099 114.634 232 236 255
144.146 79.4726 119.872 255 248 241
113.881 108.931 105.779 214 226 255
93.5655 173.49 110.739 205 220 255
201.471 132.267 114.772 255 245 235
150.765 134.699 112.489 198 215 255
93.5747 173.528 110.755 202 218 255
116.08 130.3 111.962 255 212 177
79.378 136.53 111.903 228 234 255
128.099 70.2594 123.164 255 250 244
173.637 125.693 119.227 246 244 255
112.512 204.361 115.845 190 210 255
138.183 146.512 112.066 192 212 255
63.6075 121.385 111.135 199 216 255
118.164 218.669 99.3157 203 219 255
113.526 115.388 110.951 255 204 163
132.485 161.516 111.899 211 223 255
111.062 114.359 114.146 255 165 85
137.326 69.086 130.972 206 220 255
93.5624 173.478 110.734 200 217 255
152.065 24.7256 112.406 191 211 255
104.886 103.961 113.439 255 239 226
109.329 117.686 110.145 207 221 255
95.9177 120.69 107.138 198 216 255
125.665 210.121 124.027 199 216 255
34.0633 34.2486 113.435 188 209 255
50.3452 38.4977 119.445 210 223 255
81.0831 104.225 111.512 213 225 255
119.229 42.5331 109.063 199 216 255
112.628 115.993 116.533 213 225 255
180.949 11.5228 111.916 189 210 255
68.0492 122.287 111.559 191 211 255
93.204 173.58 110.619 186 208 255
111.925 123.329 117.414 255 220 193
114.591 118.106 110.373 201 218 255
103.111 121.095 108.231 255 255 251
116.97 74.1698 110.439 255 254 250
93.5979 173.542 110.78 199 216 255
162.402 79.86 110.446 237 239 255
56.8946 13.5742 109.779 186 208 255
118.871 175.502 110.742 213 225 255
103.077 209.022 116.118 181 205 255
143.442 80.781 119.792 196 214 255
55.8436 73.3661 112.414 219 228 255
164.968 180.259 128.705 187 209 255
64.8011 178.322 113.161 187 209 255
128.128 75.0523 115.286 200 217 255
153.35 49.3595 111.419 199 216 255
60.0761 67.5378 111.656 199 216 255
114.288 103.415 113.315 196 215 255
56.987 96.524 111.091 206 221 255
98.3979 167.51 130.996 220 229 255
202.472 92.822 110.909 199 216 255
93.5476 173.468 110.749 202 218 255
121.762 200.032 118.329 200 217 255
173.172 56.5158 115.228 185 207 255
93.1814 89.1536 111.673 240 241 255
76.87 72.8139 109.621 248 245 255
161.802 104.447 118.499 201 217 255
93.567 173.495 110.741 205 220 255
107.45 98.1878 115.769 255 194 144
9.74709 93.6819 112.221 204 220 255
170.855 114.324 107.579 218 228 255
169.425 104.205 109.381 187 209 255
37.0452 98.9849 113.317 187 209 255
49.7929 37.6035 139.265 205 220 255
61.4463 41.614 137.337 189 210 255
46.2789 73.7807 123.144 255 249 241
23.4004 174.347 113.379 197 215 255
112.619 135.873 110.906 242 242 255
190.315 124.035 120.104 255 234 217
171.288 87.0639 114.191 189 210 255
120.105 78.8903 111.378 255 249 242
111.381 113.639 113.602 255 239 225
170.385 154.506 119.843 212 224 255
96.6685 104.179 109.192 215 226 255
100.62 35.0716 111.821 191 211 255
139.74 75.7017 117.535 206 221 255
112.491 114.831 108.126 255 214 182
21.1829 119.925 110.653 195 214 255
159.078 115.917 113.004 240 240 255
72.2198 59.5706 114.007 195 214 255
156.91 89.1792 109.251 217 227 255
94.249 42.7082 113.369 255 251 245
119.178 21.155 96.6176 186 208 255
114.124 87.9406 102.006 194 213 255
149.717 88.3604 113.381 216 226 255
144.94 136.386 110.665 199 216 255
79.3899 98.4112 109.685 221 230 255
176.356 47.5559 111.544 198 216 255
13.4566 161.135 112.483 223 231 255
170.389 24.1191 111.007 193 213 255
100.947 111.557 113.168 241 241 255
59.199 107.969 111.805 188 210 255
184.126 186.566 116.562 181 205 255
183.143 185.664 115.361 184 207 255
97.6111 160.775 124.036 255 222 196
66.1304 77.2235 110.345 189 210 255
142.793 144.789 111.643 255 250 244
138.948 44.8002 113.695 199 216 255
116.667 128.361 114.733 214 226 255
94.998 92.4908 113.557 220 229 255
138.625 82.1868 129.932 197 215 255
109.711 113.928 113.042 255 219 191
48.951 48.9144 113.712 196 214 255
139.2 74.9252 114.214 219 229 255
128.485 68.894 104.873 255 244 234
93.4469 174.738 111.287 199 216 255
109.54 106.059 111.039 254 249 255
192.523 125.483 104.881 208 222 255
37.2677 95.1777 112.348 192 212 255
39.6788 69.5807 111.774 202 218 255
66.1892 162.069 112.163 179 204 255
172.109 136.116 111.548 203 219 255
98.2698 134.735 115.365 196 214 255
87.5156 172.648 110.959 195 214 255
129.332 78.6547 113.836 196 214 255
160.879 102.489 114.048 197 215 255
158.562 159.299 87.9699 255 246 237
101.449 91.3937 112.413 219 228 255
12.7509 75.3221 114.109 186 208 255
110.893 112.834 110.628 255 239 225
81.8459 143.247 113.669 255 247 238
95.55 154.696 110.21 216 226 255
145.319 118.242 113.326 225 232 255
102.917 108.915 110.049 196 215 255
95.9084 84.184 115.255 232 236 255
160.962 13.1959 109.962 179 204 255
145.681 168.712 114.323 203 219 255
56.1259 90.5438 111.423 197 215 255
108.795 110.434 112.787 255 202 159
90.4727 156.161 109.522 197 215 255
93.5626 173.476 110.734 225 232 255
82.5264 59.7196 110.311 194 213 255
178.854 29.6819 110.199 190 211 255
113.936 106.315 104.856 255 253 249
64.7547 32.0315 93.4202 187 208 255
22.7995 60.2643 114.669 193 212 255
106.001 143.953 111.469 191 211 255
93.6368 173.283 110.865 202 218 255
139.29 73.7438 122.487 195 214 255
89.4304 100.306 112.697 232 236 255
93.5644 173.486 110.737 204 219 255
73.4175 142.016 105.972 207 221 255
94.1915 173.547 110.99 238 239 255
201.084 142.124 126.268 202 218 255
143.634 189.11 110.825 189 210 255
104.285 48.5403 115.15 212 224 255
38.3788 200.577 116.705 194 213 255
109.786 62.6245 115.357 200 217 255
126.498 47.1616 109.925 193 212 255
115.029 111.438 113.348 255 130 0
114.544 115.526 106.515 201 217 255
50.9899 116.119 104.24 208 222 255
155.183 54.5651 92.6085 194 213 255
164.067 103.994 107.42 196 214 255
111.312 119.129 111.447 237 239 255
25.0516 112.899 109.3 228 234 255
106.959 70.3516 117.599 223 231 255
179.626 119.159 113.361 191 211 255
54.077 128.819 88.7379 191 211 255
113.57 140.939 108.692 255 248 240
146.422 94.7087 108.359 206 220 255
103.844 122.909 113.84 242 242 255
88.6779 58.8272 113.771 202 218 255
184.011 114.745 132.894 203 219 255
105.468 149.045 111.179 203 219 255
200.436 115.361 110.305 195 214 255
84.8633 16.4748 111.846 214 225 255
121.551 93.1427 114.439 255 157 66
93.5612 173.474 110.733 185 207 255
104.962 61.9462 113.095 192 212 255
109.538 139.426 111.755 204 220 255
110.972 147.864 113.688 227 233 255
54.3468 79.0406 109.34 188 209 255
107.394 112.344 119.574 255 246 238
194.19 43.2363 112.089 187 209 255
97.8379 105.969 112.911 205 220 255
93.5622 173.478 110.734 202 218 255
102.532 103.014 151.892 206 221 255
93.5622 173.478 110.734 217 227 255
26.7019 92.6449 114.008 221 230 255
155.749 84.906 114.424 212 224 255
87.8966 113.497 109.528 209 222 255
93.5634 173.482 110.736 194 213 255
93.6159 173.274 110.804 231 235 255
95.2282 89.9063 113.757 255 236 221
113.529 112.144 113.594 216 226 255
142.953 74.9684 120.231 255 247 238
81.0134 150.303 124.915 231 235 255
108.983 106.664 108.725 231 235 255
151.612 188.93 113.233 192 212 255
65.3835 27.1875 115.453 202 218 255
96.9748 170.928 108.536 218 228 255
38.9594 85.6644 114.507 205 220 255
109.033 155.112 104.949 255 224 199
188.649 108.58 137.601 255 244 233
93.5672 173.495 110.741 245 243 255
52.3254 143.889 113.225 196 215 255
76.5546 143.917 108.551 249 246 255
117.419 98.3997 114.111 206 221 255
181.159 51.7493 112.135 185 207 255
148.083 93.0809 118.514 201 217 255
74.0058 98.3645 88.3482 239 240 255
93.6182 173.528 111.488 200 217 255
76.0506 142.638 120.882 189 210 255
119.286 80.8399 107.8 255 243 231
109.814 126.898 110.937 224 231 255
52.6747 212.883 108.743 197 215 255
67.933 56.3226 112.368 229 234 255
210.087 96.213 111.392 190 211 255
100.203 28.1896 112.982 203 219 255
93.5832 173.521 110.763 208 222 255
109.876 125.22 113.222 220 229 255
44.4272 91.5926 107.998 204 219 255
118.716 138.675 111.51 255 228 207
124.411 78.6738 110.186 255 238 223
135.111 82.6207 113.101 224 231 255
79.4997 132.465 107.017 200 217 255
165.442 103.475 110.083 250 246 255
91.0385 110.804 116.367 227 233 255
79.8037 52.5975 112.193 229 234 255
57.3113 130.615 110.985 255 251 255
94.5954 173.949 109.981 255 234 217
93.668 173.512 110.925 202 218 255
215.149 125.018 111.281 194 213 255
146.724 147.843 112.261 199 216 255
207.864 57.6656 115.304 189 210 255
112.344 49.7195 110.855 217 227 255
114.813 116.182 107.917 255 236 221
115.448 102.024 110.323 255 224 199
104.243 139.692 114.933 194 213 255
96.3195 173.629 109.88 226 232 255
108.619 115.653 115.74 206 221 255
108.925 113.675 120.852 255 249 242
82.4327 88.6643 110.609 199 216 255
83.5254 21.9721 116.048 186 208 255
93.5664 173.499 110.743 203 218 255
107.74 120.294 108.893 255 244 234
106.255 83.2 118.181 255 239 225
75.6262 82.9274 112.973 199 216 255
82.6849 19.1182 99.9277 195 213 255
111.968 75.3063 114.111 214 225 255
96.9144 154.879 129.232 254 248 255
169.55 129.001 110.923 218 228 255
120.38 105.753 113.525 206 220 255
44.9713 94.934 122.958 216 226 255
95.0794 46.5365 118.312 199 216 255
93.6093 173.627 110.921 219 228 255
113.227 83.8481 103.151 201 218 255
211.744 125.381 115.128 195 214 255
197.507 56.6775 110.718 184 207 255
113.646 164.066 111.728 255 250 244
107.295 113.214 110.457 255 208 171
74.0885 87.0059 108.25 255 230 209
25.2175 82.2053 113.36 197 215 255
72.4254 140.743 118.754 186 208 255
146.116 122.456 116.66 247 244 255
109.325 111.315 114.992 255 235 218
147.532 179.636 110.358 218 227 255
107.759 107.659 110.767 223 230 255
86.0073 87.9055 113.07 208 222 255
115.769 209.005 103.55 178 203 255
103.93 108.973 113.54 251 247 255
92.5793 53.4441 113.484 196 214 255
109.509 114.101 118.569 246 244 255
143.001 1.67621 114.343 218 228 255
66.6223 147.486 121.53 214 225 255
187.892 86.0306 112.908 189 210 255
159.81 111.498 110.28 199 216 255
109.518 136.776 111.918 198 216 255
164.319 155.588 113.15 202 218 255
136.475 85.6455 112.204 219 228 255
197.743 82.5424 114.207 189 210 255
110.876 112.753 109.355 209 222 255
131.188 149.757 112.048 199 216 255
91.1982 129.6 116.967 246 244 255
93.5567 173.451 110.727 202 218 255
93.5642 173.485 110.737 255 225 201
112.385 114.073 110.117 218 228 255
118.159 135.137 110.265 255 127 0
87.3612 152.163 121.875 220 229 255
186.568 136.731 116.246 181 205 255
116.327 121.906 115.221 242 242 255
93.5533 173.413 110.721 229 234 255
117.476 143.69 114.456 255 247 239
111.031 131.03 111.566 255 231 211
130.889 194.879 111.788 194 213 255
156.708 163.439 111.598 213 225 255
31.6399 38.6058 116.374 185 207 255
67.8153 85.1994 113.413 193 213 255
152.43 134.787 108.782 213 224 255
57.8463 140.105 110.654 187 209 255
106.676 113.695 116.176 241 241 255
64.0143 55.452 104.13 194 213 255
99.9912 31.9873 112.266 192 212 255
147.39 72.6211 111.138 209 222 255
59.1871 94.0088 114.764 199 216 255
168.402 17.2408 112.72 188 210 255
93.5597 173.467 110.731 230 235 255
109.435 111.81 116.446 206 220 255
111.043 113.883 114.257 238 239 255
97.3378 104.791 112.579 255 247 238
122.123 44.9749 111.36 202 218 255
103.002 184.238 110.762 191 211 255
96.4575 210.021 111.338 206 221 255
93.566 173.492 110.74 187 209 255
32.1378 111.717 110.658 207 221 255
163.123 134.012 110.867 255 223 197
93.7663 114.953 107.503 255 251 246
93.5845 173.538 110.771 213 225 255
107.625 108.854 111.514 214 225 255
143.332 81.9639 126.143 213 225 255
101.934 119.548 111.882 255 251 245
160.107 123.62 113.444 255 248 241
124.608 80.824 115.475 213 225 255
114.29 116.084 119.665 255 211 175
162.739 144.866 108.635 228 233 255
52.6688 87.8908 113.274 192 212 255
138.548 156.832 114.027 197 215 255
135.118 24.1324 111.936 201 217 255
112.7 118.428 111.574 251 247 255
107.756 112.995 119.505 255 244 234
18.2599 97.8313 113.413 199 217 255
76.7438 39.037 117.291 207 221 255
66.0555 123.307 113.97 255 230 210
80.3886 106.193 111.927 224 231 255
34.7202 65.5708 108.695 184 207 255
127.269 148.203 111.211 211 224 255
107.877 73.3868 114.002 194 213 255
86.9982 98.5712 109.191 227 233 255
10.4513 152.348 113.385 183 206 255
99.1689 48.6781 110.403 204 219 255
117.066 88.6642 112.97 255 238 223
170.785 122.856 109.269 255 255 252
124.907 116.203 115.691 214 226 255
138.65 186.824 110.172 215 226 255
107.571 109.535 112.099 206 220 255
156.766 80.2987 115.416 198 216 255
28.5025 78.853 108.754 197 215 255
107.252 107.502 113.642 255 198 152
83.8261 140.23 111.467 255 251 245
104.528 94.7661 111.557 199 216 255
105.031 105.931 112.566 255 234 216
93.5776 173.517 110.754 200 217 255
154.754 125 111.874 202 218 255
144.904 116.65 110.179 229 234 255
115.366 113.147 110.839 224 231 255
152.97 166.84 113.228 248 245 255
107.411 118.261 109.955 232 236 255
116.871 115.514 111.63 255 211 175
157.123 149.577 111.395 182 206 255
127.934 76.2773 117.833 255 231 211
93.0465 175.25 111.008 211 224 255
123.021 92.3124 115.836 224 231 255
109.798 154.05 109.315 255 219 190
161.705 98.9823 115.726 224 231 255
135.751 75.5439 120.222 241 241 255
112.598 97.025 113.72 202 218 255
166.493 143.142 111.325 216 227 255
123.442 81.4518 112.398 211 223 255
155.263 121.387 113.743 255 203 161
7.28405 95.5291 109.806 182 206 255
93.564 173.485 110.737 192 212 255
199.441 103.354 108.063 191 211 255
163.224 126.924 107.685 189 210 255
98.0566 139.797 109.813 217 227 255
91.2065 133.921 117.714 255 182 121
21.0134 144.079 112.395 190 211 255
143.676 46.4998 115.188 185 207 255
84.6387 50.7894 116.977 239 240 255
28.8408 76.6138 110.25 216 226 255
90.2361 121.13 109.046 255 237 222
110.76 111.974 111.947 255 230 209
93.3939 173.461 110.57 201 218 255
101.867 99.5773 113.179 255 238 224
95.4788 220.696 104.502 184 207 255
77.0206 64.1215 115.133 194 213 255
152.113 120.952 117.587 211 223 255
122.677 85.6081 109.306 187 209 255
146.052 80.1541 123.146 225 232 255
103.586 152.757 113.046 225 232 255
73.834 54.4193 111.909 190 210 255
53.1568 98.9359 112.245 197 215 255
93.5614 173.475 110.733 198 215 255
104.32 115.283 117.154 209 222 255
118.656 140.652 108.858 255 242 229
110.729 113.824 113.093 255 245 235
129.006 76.7532 115.839 255 251 244
60.0739 98.3934 111.231 213 225 255
93.5557 173.444 110.729 195 213 255
115.593 149.872 113.08 255 247 239
182.013 98.1414 111.377 229 234 255
149.592 1.17754 112.955 203 219 255
77.1425 58.3114 125.389 210 223 255
108.624 122.764 99.2956 211 223 255
57.8815 137.479 112.098 223 231 255
110.425 114.718 115.977 255 234 217
103.098 147.844 112.591 231 235 255
101.145 87.2993 108.777 255 253 248
103.658 77.4916 112.967 204 219 255
77.1962 154.683 111.379 190 211 255
112.417 115.138 107.456 255 246 236
89.5336 29.9862 80.1909 189 210 255
118.637 151.53 110.736 213 224 255
93.5603 173.47 110.732 199 216 255
137.574 77.6555 116.968 255 182 121
192.422 184.715 112.345 198 216 255
91.5678 156.763 122.306 255 245 236
149.253 188.007 152.161 204 220 255
77.2986 149.11 108.983 213 225 255
155.885 117.627 114.049 237 239 255
115.745 85.5889 112.329 208 221 255
111.8 117.292 110.6 209 223 255
102.553 146.311 112.287 255 246 236
3.53465 129.519 111.045 182 206 255
151.475 170.07 111.824 192 212 255
186.288 10.0034 78.6734 191 211 255
147.774 169.236 121.171 202 218 255
110.141 114.85 115.132 225 232 255
101.662 106.209 111.741 224 231 255
171.495 116.333 118.782 188 209 255
68.5268 190.681 112.612 187 209 255
33.3399 121.384 112.348 191 211 255
61.8371 118.581 113.241 255 215 183
120.907 113.294 113.901 255 239 225
152.655 41.57 113.224 226 233 255
65.3813 69.5491 113.112 193 213 255
131.366 83.9483 114.694 255 247 239
181.048 121.225 115.43 196 214 255
76.9001 65.5036 111.559 197 215 255
0.162399 138.032 108.91 190 211 255
103.168 83.2458 110.691 221 229 255
33.7 48.9623 110.487 236 238 255
183.415 59.6853 112.986 191 211 255
150.337 43.2542 116.281 191 211 255
126.214 76.7055 115.142 242 242 255
132.296 73.1854 112.754 255 247 239
93.561 173.473 110.733 220 229 255
11.1522 165.817 110.862 255 245 236
64.1181 123.455 114.141 231 235 255
108.583 94.7264 111.781 255 241 228
161.108 106.134 126.03 212 224 255
84.4728 159.809 120.004 211 224 255
88.833 153.824 122.844 208 222 255
116.008 120.614 106.702 226 233 255
93.5719 173.508 110.748 255 253 248
169.445 121.709 120.493 207 221 255
93.573 173.341 110.81 255 245 236
108.563 88.7736 127.145 202 218 255
128.861 82.7058 116.325 255 215 184
108.079 122.23 108.933 242 242 255
125.634 95.9895 110.232 255 210 174
166.513 151.521 106.352 198 216 255
137.369 157.111 113.708 205 220 255
111.124 137.611 106.73 208 222 255
132.302 96.6527 117.658 255 249 255
162.457 145.231 111.229 222 230 255
120.653 115.533 111.987 255 244 233
134.935 71.8899 111.682 188 209 255
93.5567 173.404 110.72 222 230 255
103.582 77.3217 111.863 225 232 255
129.527 82.1205 112.043 193 213 255
86.3006 176.767 112.957 255 252 247
176.624 188.531 110.122 189 210 255
69.9996 136.21 112.312 214 225 255
43.0005 90.5241 114.348 202 218 255
57.7153 56.4301 116.109 209 222 255
57.3972 124.693 107.143 200 217 255
145.034 128.396 106.561 215 226 255
143.559 116.026 108.768 232 236 255
70.4445 165.8 111.178 255 250 243
54.7104 127.45 111.349 255 251 255
93.5727 173.51 110.751 192 212 255
93.5645 173.486 110.737 198 215 255
71.3725 133.305 106.082 217 227 255
134.573 126.527 113.422 255 204 163
99.7651 141.907 112.173 232 236 255
124.718 1.85205 105.324 191 211 255
88.8109 143.312 112.401 255 251 255
101.204 120.637 115.527 255 234 216
12.6342 73.3821 113.772 185 207 255
184.51 101.127 159.963 255 240 226
93.9043 130.612 113.306 223 230 255
114.138 111.625 113.092 255 241 229
90.5266 164.858 110.773 227 233 255
95.4779 122.984 118.684 197 215 255
210.708 126.488 109.518 191 211 255
100.66 162.19 111.732 255 231 212
128.629 19.5717 112.442 201 218 255
133.496 71.96 113.22 193 213 255
148.574 83.4331 90.0273 255 236 221
12.169 123.28 109.877 200 217 255
145.99 80.3063 112.492 204 219 255
106.205 34.8411 111.726 186 208 255
38.9858 100.711 121.642 207 221 255
109.178 110.846 113.087 237 239 255
106.913 162.341 106.238 255 254 251
184.234 171.579 114.073 193 213 255
65.565 114.148 110.617 221 230 255
141.199 81.1968 120.468 191 211 255
98.1044 54.8082 112.461 210 223 255
109.019 151.849 109.225 209 223 255
169.083 194.388 112.544 255 252 248
185.482 82.156 111.141 198 215 255
131.494 69.4144 117.316 197 215 255
108.782 116.456 111.571 255 205 165
109.036 107.038 111.463 230 235 255
165.16 113.101 111.932 204 219 255
120.501 73.0411 114.38 199 216 255
77.5482 114.546 113.111 221 229 255
138.523 144.247 115.481 194 213 255
95.5736 135.576 112.188 243 242 255
113.117 82.0848 121.491 255 219 190
88.2412 103.586 111.672 222 230 255
96.7088 28.7017 112.92 226 232 255
127.148 49.7455 113.622 207 221 255
97.7659 94.4603 117.054 227 233 255
174.266 122.387 116.812 198 216 255
76.6109 118.022 113.394 200 217 255
95.8562 168.221 107.871 212 224 255
93.5627 173.48 110.735 195 214 255
113.494 116.666 118.834 255 238 223
94.8264 32.1399 112.019 186 208 255
19.1126 78.0415 113.757 190 210 255
153.926 97.8354 112.165 215 226 255
109.983 126.296 110.389 224 231 255
146.013 99.2891 109.727 231 235 255
139.073 68.0138 123.304 218 228 255
214.653 128.239 112.596 182 206 255
117.637 137.236 114.601 255 238 223
150.028 132.949 114.676 219 228 255
108.928 154.855 119.581 237 238 255
101.317 46.0689 113.123 255 221 194
107.737 86.7787 102.89 212 224 255
137.059 176.047 110.024 189 210 255
150.497 87.3863 106.319 202 218 255
45.4603 84.7176 115.02 195 214 255
92.4601 173.919 110.173 200 217 255
76.3288 107.597 112.594 186 208 255
152.697 135.044 109.867 200 217 255
176.746 25.1439 111.748 191 211 255
77.6975 148.396 107.538 197 215 255
114.508 108.882 112.332 229 234 255
42.429 65.3614 111.759 204 219 255
76.7429 93.3874 111.799 222 230 255
79.0557 92.1896 111.201 215 226 255
119.119 126.253 113.792 231 235 255
113.475 90.0224 113.274 255 252 247
130.489 122.103 111.572 198 215 255
50.5142 192.544 111.591 187 209 255
90.7961 114.374 106.543 255 205 165
120.069 175.208 100.228 190 211 255
128.72 83.3155 120.408 220 229 255
79.4202 117.464 113.684 226 232 255
174.631 67.2234 111.005 196 215 255
146.991 65.4574 111.58 238 239 255
169.659 89.4351 113.622 230 235 255
68.1304 126.612 118.593 206 220 255
137.219 77.8682 111.241 230 235 255
169.185 189.417 110.534 187 209 255
102.447 147.126 111.191 218 228 255
75.0224 219.732 109.4 179 203 255
101.322 56.0746 111.126 195 214 255
133.669 127.323 109.811 221 229 255
115.685 115.981 108.368 246 244 255
108.522 129.028 102.85 199 216 255
156.741 116.086 112.747 203 218 255
93.5657 173.491 110.739 197 215 255
161.367 137.4 111.478 255 205 165
105.172 79.2904 130.301 255 248 240
130.232 97.6135 109.725 255 245 235
117.719 122.165 110.466 199 216 255
6.44264 151.797 113.874 184 207 255
165.823 23.1755 112.894 188 209 255
61.6118 51.0281 113.79 196 215 255
122.375 98.3671 112.816 255 248 240
104.435 113.366 116.04 223 231 255
182.309 50.7821 115.848 204 219 255
102.608 177.082 118.947 255 216 184
107.44 112.179 118.899 208 222 255
149.851 91.5524 120.65 223 231 255
44.1595 113.283 112.269 210 223 255
93.5663 172.952 111.041 206 221 255
58.5228 75.3295 111.554 255 249 242
147.593 135.274 107.572 225 232 255
111.262 112.283 116.592 229 234 255
156.315 85.5306 125.099 192 212 255
99.2045 168.319 121.042 199 216 255
84.9045 111.537 109.399 225 232 255
93.5657 173.488 110.737 255 247 238
79.2717 80.7975 111.448 199 216 255
112.384 107.252 109.912 217 227 255
104.742 113.442 113.798 234 237 255
87.9183 72.1425 110.167 214 226 255
27.1703 141.088 111.979 204 219 255
98.4919 101.793 109.298 219 229 255
109.78 112.538 111.972 255 157 65
37.0509 78.7503 109.363 191 211 255
179.119 137.898 101.384 215 226 255
224.926 115.957 109.999 204 219 255
128.768 75.0795 119.874 206 221 255
84.9925 132.056 115.497 204 219 255
150.572 92.4685 118.57 248 245 255
167.851 121.207 105.502 208 222 255
37.5793 111.413 112.514 192 212 255
110.47 122.669 110.219 219 228 255
162.483 154.193 111.861 191 211 255
125.627 85.0458 108.417 243 242 255
199.956 88.5284 110.156 194 213 255
95.1192 175.719 109.871 191 211 255
199.613 163.577 117.224 179 204 255
25.6756 98.2991 114.229 220 229 255
93.569 173.496 110.742 247 245 255
74.1051 60.0205 112.301 218 228 255
99.5906 144.696 110.17 218 228 255
83.0275 149.328 119.884 255 250 255
133.221 2.62577 123.656 185 208 255
104.648 142.353 110.23 231 236 255
150.515 112.456 113.085 213 225 255
110.203 113.517 117.602 255 225 202
113.107 117.971 107.846 255 239 226
106.349 122.546 115.235 212 224 255
51.1996 98.0209 117.482 206 220 255
89.6016 144.186 112.449 243 242 255
76.0676 169.284 114.967 207 221 255
103.245 56.0327 108.759 206 221 255
116.879 115.831 105.398 201 218 255
157.019 149.985 111.603 232 236 255
65.5935 142.294 110.296 222 230 255
87.6284 146.43 112.067 209 222 255
150.046 94.766 112.398 220 229 255
144.656 88.7456 111.693 186 208 255
115.656 116.357 109.976 223 231 255
110.73 113.367 111.495 223 231 255
65.7218 101.182 109.971 190 211 255
141.714 95.1943 113.056 219 228 255
113.104 149.249 106.992 234 237 255
115.583 115.408 110.556 255 213 179
26.9508 101.999 114.6 227 233 255
122.469 136.516 114.74 222 230 255
94.0961 174.346 109.897 255 234 217
168.009 169.223 115.498 194 213 255
88.8243 39.5249 113.304 253 248 255
86.2118 130.756 114.864 230 235 255
138.039 93.6352 118.934 255 251 245
110.493 113.501 111.668 255 199 154
164.015 137.664 116.786 216 226 255
49.7426 90.1476 113.565 193 212 255
149.44 143.692 112.158 196 214 255
160.269 198.637 110.481 185 208 255
195.911 130.986 117.886 195 214 255
81.4481 92.078 111.342 255 212 179
155.277 119.355 114.002 206 220 255
106.617 110.757 111.906 197 215 255
60.8401 156.664 120.705 255 222 197
101.768 108.367 111.319 231 235 255
168.765 31.5197 112.522 193 212 255
148.681 168.42 109.486 187 209 255
213.13 161.408 113.304 207 221 255
11.3352 73.2787 112.266 218 228 255
64.4232 68.3089 113.064 193 213 255
144.335 21.1555 111.69 189 210 255
135.994 75.206 114.519 197 215 255
109.537 178.907 111.581 182 206 255
107.57 117.029 110.732 255 177 110
93.5495 173.401 110.725 221 229 255
136.06 178.35 107.111 199 216 255
168.594 183.792 112.747 194 213 255
119.01 139.7 116.755 202 218 255
57.2591 81.5333 118.493 209 222 255
136.589 70.7325 117.041 236 238 255
86.2563 98.4185 111.899 218 228 255
168.319 109.072 111.441 203 218 255
115.422 102.64 114.064 255 201 158
153.663 104.947 115.573 223 231 255
94.1253 156.311 123.339 222 230 255
129.501 147.346 111.602 227 233 255
93.5699 173.498 110.741 191 211 255
168.637 127.37 108.685 192 212 255
104.45 156.521 121.392 255 252 248
126.617 104.021 116.882 224 231 255
103.839 111.579 112.164 255 229 209
83.6398 83.3498 113.652 255 251 245
78.8264 81.378 109.274 240 240 255
144.492 120.766 110.529 254 248 255
111.231 114.842 112.847 203 219 255
193.036 73.438 115.493 193 213 255
218.183 73.8504 107.582 182 206 255
145.709 154.317 113.645 224 231 255
84.4441 68.7849 108.675 225 232 255
144.098 107.13 108.203 217 227 255
73.1171 195.304 112.334 214 225 255
129.375 77.8227 115.385 255 237 221
169.037 103.315 110.467 200 217 255
112.052 115.717 111.408 255 144 35
36.7884 76.7323 111.681 195 214 255
142.056 134.971 108.948 222 230 255
156.077 73.6357 114.43 236 238 255
98.9003 96.3586 110.792 242 242 255
46.0627 166.819 115.01 186 208 255
19.7192 70.982 114.395 185 207 255
97.7743 101.622 109.552 194 213 255
167.89 115.436 110.279 255 235 218
99.4354 147.415 112.202 197 215 255
74.4079 142.068 112.349 226 232 255
92.6564 36.8269 123.268 186 208 255
140.728 67.7688 101.913 218 228 255
166.808 100.829 120.182 201 218 255
53.6838 61.4903 107.413 205 220 255
164.308 147.441 104.239 209 223 255
152.459 166.087 112.878 214 225 255
132.748 100.721 111.473 227 233 255
136.259 122.489 112.682 219 228 255
39.268 30.9475 107.088 189 210 255
4.33043 174.2 112.728 204 219 255
99.9547 85.1677 112.686 216 226 255
196.814 140.224 118.992 188 209 255
105.042 172.811 109.226 205 220 255
82.5325 146.53 107.765 255 233 214
108.327 64.8009 116.12 206 221 255
115.229 112.967 110.24 215 226 255
116.375 117.399 114.25 250 246 255
206.343 96.3664 111.978 193 213 255
111.692 163.659 109.619 255 226 203
151.058 86.4385 117.812 213 225 255
107.945 119.958 118.347 255 183 122
86.0631 113.417 109.796 224 231 255
143.411 128.65 113.307 215 226 255
65.3706 85.3221 118.219 196 214 255
91.9528 118.877 114.554 235 238 255
117.813 114.3 107.792 255 176 109
121.579 90 120.831 191 211 255
61.4654 51.2553 117.594 202 218 255
84.4839 108.947 112.366 255 187 130
124.73 133.594 114.155 255 153 56
44.2154 43.0464 114.593 208 222 255
73.4984 53.032 113.271 198 215 255
98.7144 53.8685 109.65 203 218 255
55.7689 97.4948 115.992 225 232 255
197.891 50.236 116.353 204 219 255
150.916 24.0883 117.249 183 206 255
93.5794 173.496 110.741 196 214 255
152.866 88.8089 114.703 255 248 240
68.8997 15.1503 107.768 192 212 255
115.744 117.978 109.508 255 213 179
109.011 113.081 111.347 255 217 187
86.141 17.8433 114.554 220 229 255
159.129 51.5223 116.427 197 215 255
136.046 97.1381 113.233 225 232 255
139.311 173.432 110.333 189 210 255
108.191 172.892 109.845 231 235 255
102.713 115.996 109.808 255 200 156
115.994 123.9 112.579 255 223 197
137.966 175.843 113.498 196 214 255
68.8756 138.96 105.655 255 246 236
66.703 77.0524 107.554 194 213 255
145.013 114.767 107.901 255 250 243
203.592 31.7575 113.134 189 210 255
111.092 114.446 117.075 255 189 135
93.5697 173.474 110.756 189 210 255
177.218 124.918 112.609 185 207 255
62.7236 191.336 113.427 197 215 255
87.6964 101.563 111.262 200 217 255
79.7295 207.856 110.872 194 213 255
77.8856 136.955 115.858 199 216 255
103.136 168.953 107.177 212 224 255
101.299 168.781 126.351 255 244 234
142.696 136.693 113.78 250 246 255
157.672 194.453 108.725 191 211 255
123.457 111.044 112.527 255 244 233
116.637 114.247 109.361 255 202 160
79.8567 42.5213 112.288 186 208 255
114.791 123.979 110.772 255 248 239
131.892 119.422 113.274 232 236 255
167.749 188.951 112.028 197 215 255
26.0234 127.622 113.35 190 211 255
73.8758 46.3769 112.57 197 215 255
105.616 77.0665 114.134 196 214 255
111.184 107.023 106.128 255 249 243
136.795 84.6762 109.659 225 232 255
124.261 133.739 109.98 237 239 255
9.99144 97.5511 110.622 186 208 255
58.1841 124.886 105.135 203 219 255
153.505 67.5436 114.741 203 218 255
4.82406 101.246 117.405 191 211 255
99.7932 173.333 111.521 196 214 255
95.287 103.584 115.382 255 214 181
93.4686 175.511 110.358 199 216 255
196.126 62.3538 115.846 194 213 255
110.361 115.204 106.891 210 223 255
148.953 61.9996 116.892 222 230 255
164.466 106.015 112.901 207 221 255
93.5625 173.479 110.735 211 223 255
30.4727 64.8907 111.158 198 216 255
3.98013 111.499 112.454 190 211 255
31.0422 96.817 110.626 196 214 255
92.9937 95.0637 108.489 200 217 255
116.845 141.782 117.051 225 232 255
93.5663 173.471 110.734 189 210 255
98.4766 147.086 112.949 222 230 255
111.253 109.387 113.082 215 226 255
138.178 130.214 109.91 205 220 255
93.7294 168.734 117.896 255 240 226
26.2951 65.3461 110.854 186 208 255
89.9494 159.976 108.145 193 213 255
166.806 128.268 105.752 206 221 255
121.389 107.815 120.363 255 234 216
72.9469 58.6991 90.4206 190 210 255
55.6327 128.229 97.5045 227 233 255
115.101 153.229 108.112 217 227 255
133.547 72.8022 117.46 222 230 255
27.0173 119.804 110.874 195 214 255
164.802 94.0037 105.375 210 223 255
114.81 150.396 117.09 255 235 219
130.281 67.5803 117.76 209 222 255
112.604 120.085 108.279 255 195 146
76.7327 97.6035 114.159 197 215 255
113.406 116.023 109.987 213 225 255
118.278 75.6509 114.398 217 227 255
150.277 110.531 110.942 203 219 255
114.31 152.395 113.452 210 223 255
131.096 75.3851 108.72 255 240 227
153.114 140.932 115.807 225 232 255
137.544 103.845 109.601 218 228 255
54.858 141.638 111.001 255 251 246
111.636 102.137 113.191 255 227 205
115.85 115.457 109.294 246 244 255
148.608 99.259 111.653 211 223 255
157.732 59.1464 111.894 212 224 255
40.6675 67.8471 111.563 198 216 255
103.251 108.548 110.103 255 225 201
110.587 114.674 111.935 255 253 249
111.367 80.8977 110.571 230 235 255
68.6546 122.033 108.712 247 244 255
111.296 117.868 108.823 255 243 232
54.4069 112.627 122.356 203 218 255
113.455 140.483 110.801 255 250 255
101.549 124.592 107.688 230 234 255
105.42 164.715 106.404 199 216 255
161.007 95.1446 115.793 255 249 241
83.2846 165.128 110.981 190 211 255
163.033 102.343 120.223 195 214 255
31.0951 137.971 112.319 213 225 255
96.846 176.975 113.49 196 214 255
110.758 114.675 119.362 225 232 255
139.926 177.824 112.406 202 218 255
112.144 113.912 107.999 255 224 200
80.6544 83.2285 107.534 212 224 255
171.376 121.865 121.955 192 212 255
130.465 49.7859 112.603 205 220 255
167.416 144.08 99.8825 192 212 255
93.5647 173.487 110.738 233 236 255
116.183 108.851 112.96 226 232 255
154.044 102.282 112.886 193 213 255
95.9923 176.804 108.576 232 236 255
108.052 170.986 110.712 208 222 255
45.21 168.737 118.101 189 210 255
115.133 8.1963 98.6118 186 208 255
154.389 18.3323 110.348 204 219 255
127.241 177.158 115.183 183 207 255
183.621 96.035 111.453 214 225 255
214.095 139.274 113.619 188 209 255
115.723 115.896 111.432 255 154 59
200.523 63.1767 110.368 182 206 255
93.2795 63.7526 118.636 213 225 255
110.19 112.682 115.239 224 232 255
93.5635 173.483 110.736 255 242 229
76.083 146.523 104.986 199 216 255
115.267 141.775 114.745 243 242 255
166.287 90.412 114.664 244 243 255
147.933 183.731 117.721 218 228 255
109.77 125.662 114.511 255 249 242
135.75 104.5 117.446 199 216 255
54.8568 80.2488 111.935 188 209 255
155.96 147.439 111.337 222 230 255
136.036 79.2152 120.342 201 217 255
78.4178 53.2366 101.22 194 213 255
165.569 133.321 110.009 193 213 255
120.215 163.196 112.977 189 210 255
43.7735 64.1565 113.962 202 218 255
117.514 111.646 105.13 209 222 255
44.1429 103.252 116.032 211 223 255
116.059 114.13 110.815 255 253 249
82.0273 41.1862 105.694 191 211 255
88.3027 35.4292 112.565 191 211 255
73.2659 193.796 111.927 190 211 255
66.4521 145.648 112.473 211 223 255
137.62 52.725 118.139 186 208 255
93.5599 173.468 110.731 191 211 255
112.433 116.786 116.223 229 234 255
168.823 108.072 103.117 201 217 255
87.8517 32.7602 113.265 189 210 255
124.687 77.0316 117.893 213 225 255
125.24 85.5073 114.331 255 247 239
65.7569 115.662 93.7649 220 229 255
165.988 125.617 117.148 203 219 255
58.7187 125.946 104.975 234 237 255
166.261 118.511 116.068 212 224 255
104.333 118.054 110.327 219 228 255
63.9038 58.8443 113.131 186 208 255
137.736 138.294 113.922 197 215 255
175.234 94.4645 110.305 207 221 255
222.403 136.172 111.511 198 216 255
131.295 82.8157 115.102 216 227 255
93.6089 173.622 110.719 255 253 249
64.8121 138.676 109.824 255 229 208
57.3699 144.435 117.527 203 219 255
115.8 124.226 107.724 255 228 206
180.712 191.216 108.387 188 210 255
84.4895 133.479 83.1214 203 219 255
93.5455 173.269 110.736 203 219 255
8.16944 72.11 108.869 188 210 255
148.241 130.771 110.776 185 207 255
90.2631 40.6084 113.043 195 214 255
62.6275 21.9795 118.895 189 210 255
93.0673 174.378 110.62 196 215 255
163.656 87.129 112.368 198 216 255
112.651 154.858 111.488 215 226 255
15.5929 156.36 111.516 199 216 255
116.406 90.4778 113.584 255 231 212
65.5 130.161 120.805 200 217 255
69.8991 80.6591 101.845 179 204 255
150.993 117.176 119.152 207 221 255
65.155 73.2083 125.452 231 236 255
110.169 123.469 109.491 255 199 154
78.3559 131.646 111.876 226 232 255
110.213 124.879 110.28 255 238 224
129.439 112.767 111.533 212 224 255
93.6838 173.578 110.881 248 245 255
111.753 109.078 105.923 255 234 217
114.88 208.736 113.58 184 207 255
209.646 131.488 117.433 222 230 255
107.638 111.168 117.405 214 226 255
160.797 87.958 112.032 224 232 255
220.113 95.0073 109.978 184 207 255
118.002 126.677 113.127 221 229 255
115.179 103.037 113.207 255 245 235
145.1 82.1276 118.697 255 250 244
104.922 151.93 122.474 250 246 255
193.561 119.998 113.241 180 204 255
81.9274 150.298 109.388 255 251 246
104.905 120.621 110.018 255 254 250
93.5606 173.305 110.74 225 232 255
116.591 117.267 113.993 255 223 198
162.672 4.21821 100.195 185 207 255
52.4587 93.6513 103.232 192 212 255
132.425 68.7035 114.953 199 216 255
119.339 133.2 112.687 255 236 221
54.3393 109.395 111.281 197 215 255
164.462 154.682 106.356 206 220 255
109.38 105.896 113.397 255 202 159
101.567 167.535 113.107 255 204 164
72.0273 80.9984 114.016 203 219 255
158.753 117.167 114.665 211 223 255
111.337 125.142 113.093 217 227 255
112.662 83.752 112.21 239 240 255
78.7827 142.86 115.121 224 231 255
145.982 70.7184 114.827 218 228 255
101.083 124.255 112.335 255 245 235
59.1746 123.198 107.208 198 216 255
165.074 165.077 115.759 190 210 255
115.195 120.17 108.065 255 172 100
165.644 100.251 112.231 204 219 255
136.877 83.3332 112.822 255 194 145
43.9004 120.923 112.972 189 210 255
92.3878 83.5808 109.092 255 232 214
117.259 156.349 109.845 208 222 255
170.186 42.607 116.428 186 208 255
105.064 119.789 109.597 255 232 214
105.647 154.107 111.728 227 233 255
94.7506 63.5742 110.605 228 234 255
132.795 123.008 113.145 255 234 217
110.263 112.414 114.626 255 224 199
168.618 125.181 119.136 204 220 255
137.049 62.8585 117.078 255 227 205
82.1756 57.5565 113.657 207 221 255
219.344 118.825 115.617 204 219 255
84.8252 101.12 114.259 211 223 255
93.5662 173.493 110.74 182 206 255
107.178 40.7415 110.167 204 219 255
194.456 66.5619 114.658 202 218 255
139.161 162.256 111.142 199 216 255
116.376 115.043 111.098 255 244 234
131.407 95.23 114.179 215 226 255
93.532 173.358 110.725 199 216 255
198.839 165.33 112.453 201 217 255
104.258 54.3978 107.03 212 224 255
40.2968 80.7834 157.814 181 205 255
93.2686 27.4348 112.406 191 211 255
161.813 204.21 113.719 206 221 255
36.5637 112.99 113.838 213 225 255
145.215 112.24 116.623 218 228 255
52.9599 79.9503 101.144 201 218 255
119.946 77.0673 112.597 255 252 247
150.268 188.796 110.657 200 217 255
153.052 145.408 111.29 255 208 170
107.386 109.662 114.594 255 241 229
109.437 114.332 119.136 233 237 255
152.462 197.426 99.9124 191 211 255
113.756 130.182 111.402 255 254 249
106.342 162.566 113.207 238 240 255
81.1839 152.752 126.127 255 242 231
133.302 71.0347 121.254 209 223 255
27.1159 177.058 117.373 189 210 255
68.1607 121.055 111.994 211 224 255
180.493 133.273 115.77 195 214 255
79.6342 191.104 111.541 198 216 255
58.4931 111.902 119.731 219 228 255
40.8381 128.579 111.758 191 211 255
159.941 116.067 120.598 201 217 255
88.9095 207.199 110.497 185 208 255
108.449 106.455 101.894 255 192 141
105.781 155.622 120.561 216 226 255
149.98 128.348 117.106 208 222 255
153.582 131.54 115.587 255 251 246
76.987 109.292 113.41 206 221 255
107.813 106.958 112.518 255 245 235
100.677 131.649 116.7 225 232 255
113.348 150.204 108.469 255 206 168
94.4978 204.947 110.516 211 223 255
190.063 65.7693 111.175 195 214 255
113.645 22.6005 113.506 205 220 255
99.5665 79.7728 112.465 233 236 255
193.503 134.261 115.625 197 215 255
93.5577 173.459 110.729 217 227 255
52.0179 173.184 116.567 212 224 255
168.566 35.3027 113.954 197 215 255
136.325 143.567 110.96 226 232 255
110.477 113.66 112.628 255 174 104
159.772 201.035 115.948 190 210 255
124.451 123.257 113.37 198 216 255
82.4642 108.072 114.209 245 243 255
184.758 29.4354 110.852 205 220 255
105.657 150.09 108.364 232 236 255
129.238 154.613 112.91 213 225 255
107.967 111.135 105.264 203 219 255
68.954 116.318 109.518 206 221 255
108.387 19.1109 116.248 203 218 255
57.7044 110.997 110.692 212 224 255
60.7875 96.4914 111.954 255 235 218
143.989 147.462 111.213 203 218 255
94.0722 179.788 112.108 189 210 255
83.0579 110.841 119.355 192 212 255
125.378 139.374 111.532 213 225 255
160.052 48.2342 113.977 192 212 255
102.232 94.3312 112.755 255 214 181
134.788 73.4304 114.042 188 210 255
180.596 138.68 117.076 198 215 255
156.903 173.749 108.372 209 223 255
151.298 104.379 117.486 255 222 196
143.029 106.889 108.47 189 210 255
139.271 78.6822 113.013 213 225 255
69.0647 129.276 118.518 197 215 255
167.785 113.326 117.1 207 221 255
158.074 101.569 96.7684 209 222 255
78.7338 213.34 125.29 188 209 255
14.9012 176.417 112.755 181 205 255
172.364 36.9618 114.617 180 204 255
106.998 84.3197 111.348 221 230 255
118.395 198.802 111.705 184 207 255
72.7932 130.875 112.667 202 218 255
149.062 165.125 115.49 188 210 255
57.5196 104.994 131.49 189 210 255
93.5609 173.473 110.733 255 211 176
114.926 121.045 109.938 255 228 207
191.391 82.6679 113.795 192 212 255
109.207 111.66 112.131 255 238 224
219.457 88.0667 106.672 194 213 255
62.4081 20.7648 111.61 200 217 255
93.5604 173.47 110.732 200 217 255
67.3659 165.91 110.388 202 218 255
110.807 81.0882 118.8 201 217 255
93.5725 173.255 110.821 200 217 255
111.576 113.494 111.243 213 225 255
158.198 96.5774 118.485 213 225 255
142.248 88.5416 118.266 249 245 255
51.4896 147.911 110.947 185 208 255
157.891 167.956 110.804 215 226 255
144.299 86.2821 110.949 255 236 220
98.3127 168.752 113.471 220 229 255
31.3015 129.082 109.753 209 222 255
100.911 63.2619 115.829 214 225 255
130.692 86.3491 113.94 255 231 211
179.683 131.819 96.4321 214 225 255
119.989 114.122 112.213 255 219 191
93.3831 175.801 110.989 192 212 255
115.824 117.09 107.737 245 243 255
180.951 85.8525 107.918 195 213 255
112.479 100.742 112.889 231 235 255
123.697 93.3502 114.426 221 230 255
115.33 91.4239 113.047 251 247 255
93.5647 173.487 110.738 214 225 255
56.1732 220.662 106.298 204 219 255
210.469 152.611 115.113 185 208 255
38.7435 219.035 114.428 215 226 255
93.5837 173.524 110.764 215 226 255
179.544 133.072 132.167 234 237 255
67.6307 215.389 113.749 187 209 255
107.192 152.355 103.317 255 239 226
118.756 183.778 112.667 188 209 255
66.9965 47.4769 152.432 255 248 240
110.671 115.19 118.738 225 232 255
93.5661 173.491 110.739 200 217 255
89.4718 94.4267 110.585 204 219 255
93.5675 173.495 110.741 192 212 255
116.792 173.656 109.703 197 215 255
207.36 171.507 117.714 182 205 255
61.7575 92.5297 113.781 202 218 255
219.94 90.7827 115.047 199 216 255
50.9638 187.152 112.893 219 228 255
63.5922 52.8102 111.421 198 216 255
138.904 78.5541 123.927 197 215 255
185.225 96.933 113.115 193 213 255
100.735 109.225 115.025 255 236 219
105.738 113.652 115.836 255 243 232
97.4066 86.0766 114.106 205 220 255
113.725 117.13 109 208 222 255
93.3326 173.784 110.761 190 211 255
107.406 111.261 111.637 255 222 196
109.307 108.666 109.117 213 225 255
176.347 192.754 115.232 190 210 255
98.9634 171.179 111.683 205 220 255
220.461 45.3326 110.529 185 207 255
112.477 112.779 111.228 226 232 255
68.9322 161.28 111.425 198 216 255
157.964 94.941 112.277 255 233 214
66.2425 165.668 112.533 213 225 255
108.168 107.133 112.174 245 243 255
136.427 170.217 95.6591 194 213 255
93.567 173.494 110.741 190 211 255
215.481 97.2391 116.326 184 207 255
26.4268 111.048 110.548 191 211 255
47.1821 106.273 115.413 225 232 255
107.87 107.149 112.586 214 225 255
70.2951 119.985 117.193 199 216 255
109.937 104.149 113.619 232 236 255
89.3215 36.6323 121.087 200 217 255
109.463 210.045 107.549 186 208 255
99.2441 80.5677 111.661 255 228 206
120.683 128.169 110.835 208 222 255
60.6108 123.602 120.411 213 225 255
178.689 88.0357 111.762 206 221 255
128.984 75.2514 121.235 214 225 255
52.8626 84.0713 113.273 199 216 255
61.9989 43.4848 100.157 193 212 255
148.953 34.7044 117.389 213 225 255
47.7574 75.5147 112.48 193 212 255
62.1578 130.435 113.769 220 229 255
64.9126 143.249 111.663 195 214 255
108.632 113.636 112.613 239 240 255
113.086 119.644 108.472 234 237 255
9.00568 159.936 115.735 195 214 255
195.995 183.923 105.535 177 202 255
31.5349 134.482 112.515 193 212 255
161.314 80.1596 110.74 206 220 255
88.1092 67.433 107.241 212 224 255
110.644 118.782 107.912 255 210 174
147.027 18.3828 111.617 194 213 255
160.923 112.118 115.788 240 240 255
164.443 65.8315 118.226 185 208 255
109.699 118.725 104.801 255 234 216
52.6592 166.174 111.66 199 216 255
96.9606 93.7906 106.907 255 219 190
160.171 106.127 110.109 255 241 228
157.457 174.066 104.769 199 216 255
113.97 118.044 108.266 255 234 217
65.424 199.906 112.271 250 246 255
108.965 76.9686 112.568 242 242 255
107.511 110.157 113.933 219 229 255
43.6694 171.27 109.686 189 210 255
76.1112 40.7229 115.982 188 209 255
85.431 164.491 113.365 205 220 255
13.6914 86.4803 106.109 197 215 255
93.3146 173.914 110.877 255 245 236
116.547 142.932 112.269 255 192 140
10.9999 144.486 110.605 192 212 255
55.2882 101.484 111.629 254 248 255
93.5201 173.38 110.662 219 228 255
113.547 103.555 104.347 207 221 255
66.3376 167.195 111.534 194 213 255
121.407 199.664 116.121 189 210 255
129.259 133.241 111.364 255 249 241
117.17 64.3477 115.881 255 253 249
95.3385 174.198 110.89 210 223 255
78.5502 182.465 109.823 199 217 255
109.632 208.953 103.179 191 211 255
91.7811 72.877 111.877 192 212 255
67.4605 89.1165 114.954 220 229 255
65.344 126.482 118.403 222 230 255
57.2045 71.3866 116.732 198 216 255
93.5659 173.491 110.739 189 210 255
122.034 103.377 112.243 214 225 255
198.184 66.4697 115.025 202 218 255
93.5759 173.512 110.753 198 216 255
93.4582 173.518 111.036 206 220 255
113.335 116.211 116.908 241 241 255
95.8208 89.9497 114.36 237 239 255
110.324 113.699 110.868 215 226 255
99.1489 32.6756 113.526 191 211 255
30.6405 120.153 141.87 238 239 255
108.164 97.3238 112.532 255 195 147
97.7542 162.774 116.735 216 227 255
116.951 93.6269 113.157 225 232 255
95.4282 155.164 97.9213 227 233 255
74.5221 62.9306 109.475 206 220 255
80.6959 117.549 111.608 192 212 255
93.6253 36.561 110.574 195 214 255
118.498 109.762 114.644 255 249 255
105.526 116.262 90.92 255 240 227
126.72 81.7559 123.991 255 229 208
162.252 150.31 109.262 185 207 255
98.2433 97.7633 117.048 255 239 225
44.3186 216.964 108.042 185 207 255
25.0649 170.897 116.804 195 214 255
168.297 52.727 115.126 202 218 255
116.381 61.2502 114.581 203 218 255
111.448 151.795 107.569 255 254 251
93.5915 173.498 110.735 239 240 255
113.265 75.5309 114.24 202 218 255
93.0404 173.472 110.6 216 227 255
104.746 106.596 112.956 224 231 255
