ply
format ascii 1.0
element vertex 1341
property float x
property float y
property float z
property uchar red
property uchar green
property uchar blue
end_header
160.539 176.312 105.432 185 207 255
155.733 115.724 109.774 210 223 255
63.2238 154.314 111.226 195 214 255
102.603 24.2351 112.833 183 206 255
110.957 111.145 115.218 255 250 243
113.865 119.188 107.732 255 245 236
82.8618 131.408 116.917 255 246 236
141.114 194.583 114.364 201 218 255
46.1773 98.3488 113.56 204 219 255
28.7152 65.6375 107.964 188 209 255
108.777 62.5031 114.248 215 226 255
108.178 145.444 113.383 231 235 255
114.392 119.317 112.454 255 240 226
204.64 98.2164 110.67 192 212 255
55.6389 114.693 111.641 232 236 255
181.346 54.1434 111.657 210 223 255
15.2677 183.194 113.146 180 204 255
94.535 172.715 112.298 214 225 255
100.915 204.506 109.684 189 210 255
65.7898 114.228 110.149 201 217 255
93.7321 173.156 111.232 205 220 255
128.937 188.35 112.046 206 220 255
93.7513 173.121 111.723 207 221 255
97.785 158.122 110.798 228 234 255
46.7729 67.4406 138.273 201 218 255
73.1386 117.803 113.118 255 244 233
107.853 165.796 109.793 255 236 220
93.4475 173.463 110.934 217 227 255
93.4719 173.491 110.747 189 210 255
130.099 91.8099 126.974 200 217 255
104.407 83.727 112.087 210 223 255
91.9072 140.607 108.916 255 235 219
180.426 67.5719 111.945 190 211 255
111.979 117.962 114.672 223 231 255
92.3374 177.623 111.639 236 238 255
149.877 194.508 112.014 187 209 255
153.568 85.8466 115.539 223 230 255
114.558 119.383 113.025 255 226 202
135.099 75.7444 117.562 202 218 255
93.4288 173.476 110.896 215 226 255
146.958 189.82 110.8 242 241 255
86.2159 82.7284 115.828 208 222 255
50.875 117.385 110.941 215 226 255
93.421 173.476 110.87 216 227 255
175.959 147.893 108.372 194 213 255
116.793 184.682 109.019 196 215 255
114.074 113.241 110.413 250 246 255
42.2188 110.177 97.5878 235 238 255
167.061 82.4808 110.548 206 221 255
95.5571 94.4247 114.641 255 240 226
154.333 103.108 115.909 236 238 255
106.045 64.4509 116.881 255 212 178
117.27 181.975 108.782 184 207 255
14.1463 120.582 112.113 181 205 255
120.372 51.4207 118.84 255 223 197
32.8904 164.439 109.755 223 231 255
162.687 64.8214 111.105 193 213 255
93.5235 173.534 110.779 255 242 231
109.175 164.662 112 189 210 255
91.1642 171.127 109.158 255 225 202
100.368 85.4613 114.696 216 226 255
111.614 112.893 112.804 255 213 179
104.398 102.367 113.352 236 238 255
134.068 150.041 117.522 210 223 255
114.394 109.473 113.392 255 250 255
106.292 63.0366 116.053 197 215 255
132.508 176.008 112.305 184 207 255
96.908 140.043 110.086 199 216 255
115.165 117.726 109.194 248 245 255
106.833 108.939 113.582 255 225 200
223.657 95.0905 112.455 194 213 255
97.0231 124.147 112.613 252 247 255
117.597 152.352 112.167 251 246 255
117.439 201.328 124.506 188 209 255
111.553 116.164 111.575 255 235 219
105.041 145.207 111.389 255 211 177
74.8971 106.223 119.708 230 235 255
139.544 173.006 135.345 207 221 255
100.696 72.6299 112.814 210 223 255
162.605 105.627 123.572 194 213 255
56.2787 45.8037 103.831 249 246 255
75.0533 9.87292 116.152 202 218 255
49.9429 10.5953 136.186 187 209 255
141.309 27.3139 112.18 198 215 255
116.546 83.5426 103.965 255 96 0
125.017 117.658 110.495 198 215 255
56.2795 70.6515 112.756 198 216 255
113.043 114.141 110.792 255 254 250
161.423 164.604 124.176 186 208 255
131.344 116.288 119.266 208 222 255
133.017 88.6069 113.756 196 214 255
49.7494 85.3591 108.752 255 252 247
109.426 90.517 129.674 207 221 255
93.4497 173.461 110.939 187 209 255
83.1621 81.7192 109.227 192 212 255
57.7243 51.5578 110.23 200 217 255
120.119 86.7073 112.466 200 217 255
130.605 103.998 114.448 197 215 255
93.4444 173.466 110.925 200 217 255
56.4083 116.134 110.82 255 246 238
161.822 102.576 113.14 255 239 226
141.981 195.674 123.829 196 215 255
169.344 50.3044 112.356 255 235 218
114.475 126.853 110.357 225 232 255
93.5095 173.227 111.379 255 206 168
52.3388 110.931 113.538 247 244 255
151.807 82.3705 114.832 202 218 255
146.26 126.187 110.241 216 226 255
93.3409 173.624 110.917 250 246 255
93.4868 173.416 111.052 206 220 255
117.884 107.668 111.855 211 224 255
49.8295 76.8052 122.146 200 217 255
82.0734 41.2203 113.733 199 216 255
57.6059 139.615 111.057 200 217 255
112.664 115.459 116.178 213 225 255
78.574 68.9622 110.347 211 224 255
122.216 74.8969 113.729 205 220 255
77.4352 96.1143 114.657 201 218 255
61.2403 48.3991 114.557 219 228 255
112.568 111.858 111.393 242 241 255
110.965 118.828 110.084 255 252 246
180.578 43.3115 109.343 182 206 255
63.8272 125.506 117.42 218 228 255
119.848 139.25 109.566 210 223 255
190.511 86.0271 116.283 184 207 255
163.576 107.638 112.851 255 247 238
103.415 94.7559 107.065 255 229 208
113.634 116.649 100.981 255 0 0
93.4523 173.459 110.946 197 215 255
18.876 60.5407 113.031 183 206 255
74.7078 140.651 115.828 212 224 255
72.7763 145.099 110.254 247 245 255
93.4331 173.473 110.898 213 225 255
93.612 75.8353 113.363 241 241 255
73.6951 139.958 111.47 215 226 255
70.5979 133.688 121.735 225 232 255
65.601 54.7003 111.655 221 229 255
119.357 152.425 111.694 255 245 235
15.7062 99.5061 110.117 192 212 255
126.543 162.977 108.62 218 228 255
124.45 104.046 114.661 211 223 255
134.383 64.9106 114.237 206 220 255
115.602 80.8349 112.843 255 146 39
151.442 95.6442 111.62 245 243 255
111.305 111.839 114.351 255 236 220
53.2376 117.909 124.734 217 227 255
93.4396 173.479 110.908 255 255 251
180.567 102.763 110.545 209 222 255
194.579 103.319 110.72 193 212 255
97.3016 109.843 111.299 255 255 252
81.4161 39.6469 118.757 255 251 245
152.112 47.3144 112.486 201 217 255
120.859 150.77 112.086 214 225 255
201.304 166.693 109.122 180 204 255
141.96 46.6343 116.76 190 211 255
36.4987 156.729 113.778 187 209 255
111.87 106.218 115.875 241 241 255
97.1418 159.022 108.359 255 250 244
122.482 140.636 110.081 242 242 255
101.189 160.419 116.526 255 240 227
152.933 34.4471 110.089 183 206 255
108.559 111.03 116.029 255 207 168
118.976 142.215 113.317 227 233 255
164.231 143.471 113.912 194 213 255
149.757 159.293 107.908 205 220 255
102.254 49.158 108.407 188 209 255
100.263 58.2905 116.908 225 232 255
124.41 45.3821 113.718 235 237 255
62.5617 24.049 116.739 178 203 255
57.2956 59.8697 103.51 179 204 255
112.814 119.862 109.4 255 239 225
80.5932 180.9 111.77 207 221 255
98.0379 112.872 111.113 211 223 255
93.9414 173.157 111.582 243 242 255
109.701 84.5223 109.978 230 235 255
100.313 100.378 105.946 245 243 255
176.335 127.308 113.204 196 214 255
139.313 129.502 117.419 227 233 255
94.193 173.451 111.259 219 228 255
99.712 91.8638 112.582 255 250 255
117.001 143.507 111.335 255 225 201
93.7696 173.408 110.861 215 226 255
89.4392 62.1959 118.017 229 234 255
166.422 142.663 106.754 214 225 255
113.877 131.52 111.484 204 219 255
93.4223 173.453 110.956 195 214 255
93.4589 173.452 110.963 200 217 255
74.27 117.401 108.544 255 234 217
130.898 124.833 116.112 195 214 255
30.3901 192.046 112.415 209 223 255
98.4695 153.798 112.047 210 223 255
109.502 60.8401 114.654 195 214 255
103.001 157.831 112.794 215 226 255
165.876 100.13 117.766 255 237 221
148.524 146.446 111.736 196 214 255
135.344 121.085 110.486 255 218 189
157.731 142.057 106.825 203 219 255
155.877 156.648 114.339 192 212 255
111.074 112.582 112.215 238 239 255
101.055 111.967 115.715 255 215 182
136.994 76.2866 118.427 255 234 216
95.5494 50.8815 107.052 199 216 255
117.95 124.106 110.566 255 212 178
109.021 124.705 109.83 219 229 255
48.8433 82.7462 106.805 198 216 255
93.3387 173.737 109.979 203 219 255
166.705 148.001 109.871 195 214 255
46.2128 198.738 110.433 191 211 255
105.959 82.4833 117.104 209 222 255
174.76 20.4731 109.437 255 249 255
70.6423 151.527 111.921 190 210 255
184.03 57.1664 111.354 187 209 255
86.3469 154.084 120.735 219 228 255
161.228 50.2714 111.657 191 211 255
63.776 126.856 115.412 215 226 255
89.2412 105.852 110.475 255 202 160
70.92 35.8486 115.612 197 215 255
113.492 115.641 112.574 255 126 0
107.566 172.36 111.441 215 226 255
98.9371 94.1256 110.673 255 250 243
93.4444 173.467 110.913 198 215 255
96.7289 138.819 108.261 255 248 239
69.8063 101.598 109.491 255 247 238
110.289 103.591 109.528 193 212 255
82.8766 152.267 118.418 206 220 255
139.668 87.8068 112.239 233 236 255
157.773 164.072 114.064 200 217 255
93.4673 173.443 110.986 255 202 159
189.454 68.7019 110.851 200 217 255
91.1668 156.111 111.555 248 245 255
91.988 29.8959 112.758 191 212 255
72.4175 113.812 113.683 255 252 246
8.81436 71.3448 116.901 197 215 255
20.0904 179.147 114.38 191 211 255
87.7938 128.56 115.558 255 241 229
120.405 53.4494 112.503 192 212 255
93.3149 173.758 110.348 201 217 255
119.511 84.6468 114.928 255 254 250
163.202 97.5423 124.788 224 231 255
95.8582 121.386 113.743 255 239 225
2.74652 126.118 114.197 205 220 255
113.376 94.5193 112.208 218 227 255
181.944 110.445 109.606 211 224 255
66.6084 110.938 114.972 200 217 255
129.727 158.287 111.366 219 228 255
94.3467 93.3248 111.4 199 216 255
165.744 56.8837 113.371 189 210 255
174.337 92.2071 108.431 185 207 255
184.874 126.594 108.231 222 230 255
105.994 113.566 110.271 252 247 255
167.156 160.246 118.45 197 215 255
100.731 116.648 107.825 217 227 255
89.1049 80.6554 112.204 193 213 255
133.611 113.72 114.517 255 206 167
73.9203 72.7469 113.543 255 202 159
122.266 104.872 113.079 219 228 255
65.8771 49.245 109.698 189 210 255
109.177 113.893 110.888 222 230 255
89.5122 49.6816 110.589 192 212 255
92.362 101.342 112.885 255 244 234
97.9816 137.92 107.597 208 222 255
45.2921 107.483 93.3905 212 224 255
133.101 145.929 115.144 233 236 255
93.4451 173.465 110.928 186 208 255
129.339 129.816 109.82 255 250 243
38.7236 122.433 112.024 190 211 255
109.193 18.1872 87.134 207 221 255
67.4043 135.302 110.987 202 218 255
162.984 139.372 109.349 212 224 255
103.658 114.161 117.583 212 224 255
143.5 176.391 109.114 183 206 255
122.003 104.933 112.474 255 245 236
114.516 65.306 112.728 215 226 255
93.4431 173.467 110.922 234 237 255
93.2031 173.458 110.502 214 225 255
109.36 40.5479 111.267 242 241 255
184.914 168.247 118.635 193 213 255
43.875 46.7414 110.667 194 213 255
120.272 131.785 119.091 255 233 215
81.2864 109.38 106.407 255 254 250
92.2543 46.2669 108.678 233 236 255
76.7142 132.192 117.926 203 218 255
46.493 82.1144 122.974 179 204 255
150.996 124.248 118.705 188 209 255
177.776 79.3851 112.909 191 211 255
149.723 113.976 112.014 203 219 255
98.4197 173.333 109.124 215 226 255
129.533 135.99 112.514 234 237 255
83.8224 117.728 107.224 255 245 235
104.496 160.913 114.922 231 235 255
86.7538 0.24303 110.374 205 220 255
44.5081 113.648 121.814 190 210 255
89.1239 143.93 118.463 185 207 255
109.675 112.294 114.093 255 239 226
93.3871 105.627 111.137 242 241 255
210.241 144.054 112.14 189 210 255
65.476 171.106 112.551 193 213 255
100.956 47.5525 111.564 205 220 255
76.1538 39.472 113.704 186 208 255
184.256 86.2959 118.032 203 219 255
161.153 144.161 113.202 201 218 255
106.525 108.534 110.575 255 193 142
101.712 186.983 111.098 204 219 255
143.06 79.6918 116.079 235 237 255
61.2657 77.1612 113.828 239 240 255
114.43 112.805 110.358 227 233 255
54.3385 24.8955 114.715 180 204 255
125.983 110.151 113.057 224 231 255
61.8853 96.0584 109.427 253 248 255
50.9138 107.708 113.773 203 219 255
140.017 141.382 118.228 255 249 243
98.736 105.388 111.958 255 250 255
172.402 148.759 110.344 211 223 255
135.662 87.753 113.377 207 221 255
120.115 112.612 111.329 255 220 192
107.102 112.698 116.494 251 246 255
41.6765 166.508 111.694 200 217 255
93.8192 175.677 110.768 186 208 255
93.4165 173.47 110.854 200 217 255
112.244 106.894 112.124 210 223 255
163.513 99.9646 113.792 218 227 255
198.426 145.802 114.984 181 205 255
93.1869 173.526 111.294 220 229 255
111.359 111.817 114.734 255 236 219
183.491 123.607 107.512 201 218 255
114.664 105.672 111.644 255 246 236
93.4495 173.461 110.939 197 215 255
75.8087 76.2464 112.486 212 224 255
115.594 120.539 113.244 234 237 255
93.4415 173.468 110.919 187 208 255
107.552 170.622 110.306 186 208 255
97.1441 160.011 113.641 255 245 235
93.4214 173.469 110.848 217 227 255
104.784 184.888 110.704 193 213 255
183.822 92.0407 111.986 215 226 255
165.352 17.9248 109.167 215 226 255
148.92 92.7171 114.322 196 214 255
99.6773 138.889 108.224 218 228 255
107.014 113.731 115.327 221 230 255
137.919 111.705 127.412 255 233 215
52.489 80.7277 113.118 206 221 255
161.741 97.2428 109.298 198 215 255
106.989 112.69 110.975 220 229 255
96.0798 105.576 112.524 255 220 192
78.9893 45.0723 110.406 195 214 255
113.467 112.796 113.44 229 234 255
82.4252 95.7632 110.715 206 221 255
98.9738 25.3214 110.749 222 230 255
78.5115 23.6215 105.628 189 210 255
116.497 121.846 110.543 255 200 155
111.943 113.026 114.787 255 207 168
93.4489 173.471 110.908 205 220 255
84.7047 90.2185 111.631 205 220 255
64.9952 136.204 118.108 251 247 255
93.4326 173.501 110.891 197 215 255
177.111 109.149 112.89 228 233 255
141.162 80.3638 120.685 218 228 255
69.8451 19.4384 111.414 204 220 255
179.246 68.8734 113.004 196 215 255
146.785 96.6462 116.256 203 218 255
134.652 45.6995 111.259 214 225 255
178.16 186.512 116.685 187 209 255
128.694 75.0166 110.143 213 225 255
151.803 90.0093 114.224 186 208 255
110.868 78.3775 114.332 255 245 235
65.6522 128.152 111.583 225 232 255
30.321 123.453 104.955 213 225 255
156.068 121.153 114.469 203 219 255
93.4504 173.461 110.941 200 217 255
58.333 110.892 116.883 213 225 255
173.608 116.33 115.411 188 209 255
163.518 142.186 117 204 219 255
50.1152 53.4663 111.061 190 210 255
95.8145 175.419 108.149 217 227 255
196.672 139.016 117.21 204 219 255
126.763 123.423 109.889 255 158 69
111.194 118.586 116.154 255 253 249
93.4418 173.468 110.92 209 222 255
115.812 102.548 111.32 211 224 255
95.2806 146.287 110.741 224 231 255
106.493 113.277 108.673 255 224 199
108.264 133.14 113.799 199 216 255
99.1079 148.03 112.418 255 229 208
156.596 80.8303 110.588 208 222 255
144.056 199.444 112.53 208 221 255
114.099 105.868 113.448 255 224 199
93.2432 174.424 109.003 219 228 255
175.366 122.171 121.982 197 215 255
55.6378 113.411 109.993 205 220 255
157.444 154.374 109.435 207 221 255
90.0071 125.578 112.927 213 225 255
105.494 116.282 117.615 246 244 255
93.4305 173.475 110.894 233 236 255
144.88 183.529 108.665 188 210 255
52.8212 93.2413 112.71 232 236 255
76.1729 44.4525 113.257 203 218 255
171.256 121.854 107.438 255 223 198
111.21 111.614 112.624 209 222 255
135.666 107.036 110.779 255 124 0
121.468 124.76 109.174 255 212 178
90.2881 32.3049 113.333 183 206 255
194.676 130.689 112.594 197 215 255
119.733 79.8376 117.034 239 240 255
133.498 85.7635 123.057 214 225 255
142.779 174.479 111.355 220 229 255
115.379 130.596 111.996 224 231 255
48.201 210.538 110.393 186 208 255
95.1206 156.971 116.417 213 225 255
108.156 94.9975 114.84 255 251 255
110.457 109.941 112.63 254 248 255
93.4497 173.461 110.939 225 232 255
163.177 128.642 113.158 203 219 255
96.9715 169.463 108.646 201 217 255
107.809 119.498 117.508 208 222 255
110.248 112.523 114.999 253 248 255
69.2885 85.265 110.314 206 220 255
137.223 88.0894 108.54 248 245 255
107.46 114.373 112.499 248 245 255
170.644 40.7445 113.091 196 214 255
123.429 30.6923 111.684 182 206 255
32.7076 101.677 113.255 208 222 255
166.847 116.49 105.77 201 218 255
136.563 75.0788 107.791 189 210 255
105.792 152.6 121.681 255 0 0
90.9259 95.2556 110.343 255 250 243
47.1912 96.8589 121.966 219 228 255
108.213 133.003 114.717 255 238 223
181.72 83.2916 112.258 211 224 255
166.934 113.737 113.061 229 234 255
105.016 110.002 115.271 190 211 255
107.841 114.735 116.045 255 145 36
105.271 10.9229 108.127 209 223 255
106.155 116.02 109.385 255 250 244
73.3958 11.7559 100.095 203 218 255
128.758 135.398 112.222 255 200 156
93.4619 173.449 110.97 193 213 255
101.221 71.6504 116.443 255 241 228
53.8825 69.7283 106.019 211 224 255
102.086 115.158 117.852 255 255 252
110.353 116.564 109.408 251 247 255
167.551 103.893 135.408 200 217 255
93.8382 173.292 111.146 198 215 255
93.4588 173.452 110.963 193 212 255
128.821 75.2916 112.719 229 234 255
37.4055 177.361 111.131 199 216 255
141.619 46.8558 116.49 220 229 255
112.162 110.997 111.581 255 200 155
26.4448 170.779 110.361 204 219 255
108.166 55.4153 123.353 187 209 255
151.333 85.0815 117.444 226 233 255
115.764 115.364 112.914 255 220 192
163.88 160.096 108.664 199 216 255
53.699 103.032 109.554 212 224 255
112.981 119.28 107.81 255 247 238
48.2053 161.841 117.041 214 225 255
109.817 105.199 115.017 237 239 255
187.203 119.347 111.965 196 214 255
93.4043 173.483 110.846 255 253 249
68.3718 137.647 106.546 207 221 255
74.5569 147.622 110.198 206 221 255
100.384 196.566 113.993 223 231 255
101.917 69.9924 114.142 231 235 255
76.0017 66.7761 110.316 229 234 255
111.693 113.086 111.805 255 239 225
190.853 100.842 114.756 196 214 255
94.3908 153.231 116.435 255 251 255
218.313 72.8866 111.339 185 208 255
49.4607 94.9131 104.036 205 220 255
48.5411 96.5025 110.578 194 213 255
148.816 81.8904 109.37 255 74 0
146.733 82.1747 104.146 213 225 255
90.4048 74.1871 114.833 207 221 255
100.001 95.7925 112.534 255 254 251
52.6293 132.136 110.245 198 216 255
93.433 173.475 110.9 186 208 255
111.202 112.584 114.805 234 237 255
18.8873 182.692 113.696 182 205 255
63.24 74.1241 110.408 227 233 255
67.7415 130.052 105.929 212 224 255
93.1596 155.06 116.833 221 229 255
121.37 138.983 109.108 194 213 255
164.777 127.97 105.984 194 213 255
111.34 112.527 108.46 255 250 255
107.968 51.8819 106.697 214 225 255
90.7648 80.1548 111.334 224 231 255
90.6272 144.616 117.481 197 215 255
54.3975 58.3972 115.849 222 230 255
80.9423 59.8696 114.948 204 219 255
13.6824 170.592 111.429 188 209 255
48.4651 114.732 121.112 196 214 255
93.0261 173.245 113.263 203 219 255
93.4483 173.467 110.912 202 218 255
39.9255 129.064 111.7 210 223 255
103.938 139.538 109.65 246 244 255
62.6249 78.6052 112.582 212 224 255
99.4181 158.861 111.413 189 210 255
162.677 93.6796 113.89 215 226 255
57.4658 168.677 113.766 196 214 255
102.553 61.2883 115.618 191 211 255
204.693 82.7094 114.508 198 215 255
102.569 78.801 110.9 205 220 255
25.8787 153.992 116.846 203 219 255
92.965 174.712 110.155 204 219 255
23.845 180.635 113.578 199 217 255
154.493 134.222 112.855 213 224 255
171.767 118.563 115.096 183 206 255
134.848 131.41 113.497 255 217 187
48.4992 93.0174 106.542 198 216 255
36.1558 95.3984 111.695 193 212 255
109.114 115.183 118.279 255 240 227
161.682 93.858 110.102 197 215 255
59.6689 83.1856 111.796 201 217 255
130.809 44.4751 114.813 194 213 255
75.4966 55.0582 115.404 197 215 255
112.246 114.873 115.297 255 221 194
9.64663 140.288 117.412 210 223 255
108.843 151.695 111.351 203 219 255
108.164 126.326 112.565 255 239 225
149.073 93.3694 112.645 193 213 255
60.9407 53.2744 109.566 211 224 255
112.882 151.168 106.834 207 221 255
81.0215 206.04 111.348 185 208 255
118.573 71.6867 114.108 193 212 255
108.873 106.853 112.972 202 218 255
58.252 108.131 114.446 255 241 229
92.2611 24.1078 111.113 202 218 255
102.69 81.6589 107.168 208 222 255
69.3201 55.9572 111.879 233 236 255
88.1567 96.1215 108.308 255 248 241
42.0821 201.686 114.478 188 209 255
95.3238 92.6097 113.932 255 232 213
93.3458 173.541 110.784 232 236 255
62.8643 26.6337 107.878 226 233 255
134.059 183.445 109.797 203 219 255
121.668 84.554 117.794 213 225 255
93.4958 173.016 111.829 205 220 255
115.931 148.185 117.167 255 255 251
118.67 29.7658 112.977 197 215 255
104.667 119.718 108.451 255 255 252
112.492 150.626 109.755 201 217 255
93.4282 173.465 110.88 208 221 255
60.1054 124.858 112.991 224 231 255
132.555 128.618 113.554 255 201 158
168.632 67.5782 111.617 195 214 255
213.497 73.0576 113.716 190 211 255
168.373 140.505 116.463 197 215 255
94.6064 173.865 110.097 211 223 255
100.271 87.8364 117.559 201 217 255
171.465 110.105 111.771 201 217 255
91.2616 104.432 110.175 255 212 178
16.6221 179.038 111.168 192 212 255
169.151 146.309 112.893 189 210 255
57.1275 167.017 114.266 207 221 255
107.662 110.742 113.764 255 242 230
111.648 111.81 114.698 255 242 229
149.029 125.343 114.643 216 226 255
77.2198 147.465 114.785 255 220 192
52.3272 115.79 129.698 203 219 255
59.4646 103.938 113.473 192 212 255
113.329 111.567 110.075 255 237 222
135.106 18.179 111.406 188 210 255
192.107 78.4372 117.608 192 212 255
107.167 145.102 111.75 191 211 255
11.1151 77.0841 108.206 187 209 255
71.7744 97.142 115.018 219 228 255
93.4684 173.441 110.988 197 215 255
76.1726 145.83 107.252 196 214 255
75.1968 133.28 111.7 255 249 241
52.4999 50.7546 111.102 231 235 255
94.1168 173.177 111.457 198 216 255
63.5319 72.2286 112.358 191 212 255
130.486 139.999 109.978 255 252 247
104.885 81.7752 114.314 255 250 243
9.26718 160.62 114.979 197 215 255
118.337 86.1018 109.503 226 232 255
123.378 165.765 113.022 193 212 255
55.0851 195.691 113.318 190 211 255
130.84 105.656 110.295 255 217 186
20.8951 137.71 111.794 191 211 255
131.849 137.862 112.19 216 226 255
119.632 38.8435 110.922 255 248 240
133.342 186.391 106.26 209 223 255
127.467 114.906 114.31 218 228 255
89.2749 67.5901 111.665 222 230 255
18.5887 166.187 111.664 210 223 255
118.934 72.943 104.191 204 219 255
66.4227 100.814 124.581 203 219 255
182.711 92.7987 113.487 199 216 255
129.107 64.8241 113.174 230 235 255
93.3933 173.508 110.821 219 228 255
93.4308 173.472 110.903 255 253 249
192.906 160.198 115.627 196 214 255
112.486 199.34 113.305 184 207 255
39.8626 103.586 126.745 202 218 255
49.4841 117.206 111.383 204 219 255
140.546 84.004 119.114 211 223 255
93.4402 173.469 110.916 223 231 255
93.4598 173.564 111.121 197 215 255
111.931 112.936 112.448 255 230 209
129.218 73.3256 115.804 255 240 227
161.999 166.119 126.002 206 221 255
72.0925 46.3089 110.328 195 214 255
144.165 84.0517 115.309 229 234 255
221.589 127.432 116.061 177 202 255
29.6416 124.373 113.689 187 209 255
56.2824 108.202 110.687 255 253 249
37.5067 148.929 110.243 228 233 255
106.156 111.365 111.944 228 234 255
162.207 94.4943 108.798 230 235 255
117.272 140.353 109.953 233 237 255
154.257 52.8108 115.916 186 208 255
47.2541 105.12 108.286 255 249 255
55.0406 133.393 117.056 218 228 255
119.466 141.707 111.25 206 221 255
169.976 166.067 114.094 197 215 255
53.7346 110.386 111.249 196 214 255
59.454 69.15 116.895 188 209 255
94.106 173.676 111.229 188 209 255
72.1761 67.0922 110.919 255 250 255
95.2292 92.6548 114.5 218 228 255
43.0517 139.184 107.782 216 227 255
164.167 94.7411 108.545 255 221 194
84.3589 179.562 112.329 202 218 255
134.703 74.7571 117.021 255 249 241
129.463 107.794 116.303 225 232 255
114.268 120.295 109.591 206 221 255
214.127 98.8313 117.864 196 215 255
102.069 100.605 110.94 255 224 199
100.996 105.723 111.916 247 245 255
55.6548 26.9843 109.78 173 200 255
175.661 123.223 108.217 244 242 255
91.716 40.4621 112.8 206 220 255
165.845 86.7692 123.028 254 248 255
106.361 80.9219 113.11 202 218 255
93.4408 173.468 110.918 207 221 255
111.841 112.408 114.482 215 226 255
144.347 175.927 117.394 193 213 255
106.161 91.7032 112.802 255 202 159
113.913 117.034 108.348 254 248 255
81.9858 58.0257 109.833 207 221 255
89.4129 135.864 111.687 213 225 255
151.41 134.787 112.49 206 220 255
111.763 115.664 115.123 255 236 219
200.338 129.525 116.527 205 220 255
47.549 223.109 109.38 184 207 255
169.99 127.033 85.4653 229 234 255
102.536 164.901 115.433 212 224 255
165.492 170.762 114.08 218 228 255
80.96 136.514 110.66 213 224 255
71.8499 113.215 113.392 225 232 255
123.898 153.67 113.947 242 241 255
88.3239 143.217 110.822 255 227 204
113.234 115.486 110.506 255 237 222
131.455 114.609 108.421 255 246 236
99.3418 73.7302 107.424 255 228 206
69.9499 11.8193 119.015 187 209 255
81.286 134.159 112.33 228 234 255
221.326 134.413 117.813 188 209 255
162.622 86.7713 111.355 195 214 255
55.3865 123.921 110.174 197 215 255
97.0459 38.6968 115.396 223 231 255
153.246 153.082 113.739 208 222 255
54.374 100.49 112.42 237 239 255
143.075 55.2073 112.837 207 221 255
116.898 211.284 113.488 217 227 255
156.741 86.058 101.904 203 219 255
156.644 53.5965 113.324 237 239 255
150.239 94.7779 113.14 201 218 255
100.755 150.692 112.837 217 227 255
111.03 17.9345 111.458 197 215 255
103.164 99.561 116.927 224 231 255
114.972 104.762 111.556 255 252 247
15.59 84.3018 112.855 224 231 255
215.895 130.915 110.382 180 204 255
103.543 205.922 110.805 204 220 255
76.3121 24.7865 132.132 185 207 255
103.803 51.9596 115.836 228 234 255
95.6446 169.061 110.874 199 216 255
108.059 109.606 110.437 239 240 255
192.344 62.5799 108.774 190 211 255
123.191 136.117 107.869 255 209 172
170.906 142.119 106.483 201 217 255
18.2087 81.2836 108.233 179 204 255
115.659 115.358 109.33 196 215 255
145.331 167.238 112.857 255 234 217
127.525 41.8351 118.757 199 216 255
36.7567 40.072 112.407 198 216 255
62.3853 114.296 109.48 255 251 245
93.8402 29.7706 115.683 186 208 255
175.054 184.058 113.616 194 213 255
152.28 109.702 107.705 196 215 255
91.926 144.119 111.076 228 234 255
123.534 134.12 104.733 255 248 240
103.934 87.7061 112.355 211 223 255
118.8 104.52 112.929 255 242 231
78.8171 61.5323 107.835 204 219 255
78.2082 35.7368 112.733 195 214 255
114.949 117.209 108.517 244 243 255
93.8858 162.032 110.971 200 217 255
108.866 122.708 115.126 208 222 255
97.465 88.2762 112.647 200 217 255
78.9789 109.319 106.551 211 223 255
93.4306 173.47 110.909 222 230 255
111.329 113.832 112.72 236 238 255
168.678 110.214 110.77 188 210 255
107.208 124.127 108.799 255 242 230
107.657 21.7649 120.945 198 216 255
146.661 169.38 109.633 184 207 255
165.663 165.086 123.342 197 215 255
110.021 140.526 119.004 219 228 255
90.6538 29.3127 112.324 191 211 255
57.2528 116.956 106.948 233 236 255
24.1969 75.7561 111.061 185 208 255
135.128 53.6139 115.483 199 216 255
189.498 133.732 115.959 187 209 255
129.445 99.4024 116.31 255 246 236
67.5263 124.554 122.956 247 244 255
71.8872 79.8262 113.951 197 215 255
106.177 164.256 107.45 255 226 203
43.4021 203.746 114.623 184 207 255
44.3743 112.426 112.536 200 217 255
64.0618 103.445 114.323 253 248 255
130.569 79.9378 113.384 255 222 196
93.4646 173.447 110.977 203 219 255
130.851 66.6068 113.874 196 215 255
160.684 59.5616 114.039 203 219 255
93.6449 174.975 110.338 217 227 255
101.241 100.504 117.415 255 163 79
142.25 118.942 106.875 255 236 219
144.732 71.9647 120.995 211 223 255
94.9953 97.896 111.663 255 208 171
69.7671 64.8509 116.068 227 233 255
103.626 119.581 108.434 212 224 255
134.763 166.215 109.424 200 217 255
99.5775 179.03 115.163 221 229 255
11.6371 158.312 110.06 183 206 255
189.9 71.7095 112.166 188 209 255
111.729 75.8129 112.581 218 228 255
68.1601 116.71 113.194 217 227 255
162.725 153.259 111.94 191 211 255
104.654 95.3251 111.128 236 238 255
131.389 154.024 111.096 189 210 255
101.489 175.871 110.685 199 216 255
113.434 120.056 108.364 255 231 211
94.3412 88.2388 113.571 225 232 255
101.431 77.8361 113.2 225 232 255
77.5839 129.754 114.672 214 225 255
114.609 122.962 95.7053 216 226 255
119.95 70.817 111.924 222 230 255
128.592 95.9914 108.367 194 213 255
161.899 162.617 111.19 200 217 255
150.056 144.776 106.748 212 224 255
15.1634 177.555 111.047 191 211 255
159.754 55.4401 112.118 194 213 255
114.439 113.237 110.962 255 247 238
109.379 111.503 113.96 208 222 255
132.355 90.5011 113.17 190 211 255
50.5684 142.217 111.981 186 208 255
26.7559 74.7275 112.384 195 214 255
83.2969 89.2023 108.874 214 225 255
120.29 15.7647 108.502 187 209 255
110.803 106.581 111.372 239 240 255
116.934 11.3707 114.308 200 217 255
114.954 100.047 111.097 218 228 255
93.5064 173.394 111.112 243 242 255
152.581 52.9227 118.343 201 218 255
51.2222 108.403 105.914 202 218 255
56.5842 121.605 113.906 207 221 255
111.959 25.0084 112.391 183 206 255
134.541 86.1039 110.087 221 230 255
97.9223 8.76426 107.816 196 214 255
61.7153 107.905 112.072 202 218 255
107.198 110.665 112.268 255 252 247
52.7004 111.241 105.774 201 217 255
54.1162 112.858 113.624 201 217 255
114.964 152.935 110.601 255 252 247
140.516 140.829 114.064 206 220 255
113.946 114.315 110.217 214 225 255
35.3688 114.619 112.291 191 211 255
109.017 123.262 109.919 255 210 173
55.2127 106.671 111.112 226 232 255
134.089 16.4759 111.392 201 217 255
112.92 79.5073 112.313 192 212 255
111.102 112.243 111.476 255 202 159
139.417 77.6105 110.024 217 227 255
112.968 75.2847 111.569 217 227 255
70.8114 89.848 113.172 217 227 255
120.017 77.7801 110.352 221 229 255
101.842 95.3571 111.658 212 224 255
67.0453 59.325 114.33 200 217 255
159.88 147.925 119.546 191 211 255
108.707 132.777 111.054 255 220 193
121.258 84.5101 109.654 255 236 220
81.4144 36.9946 109.014 179 203 255
131.87 63.4427 118.377 203 219 255
104.111 101.066 111.56 189 210 255
112.343 133.245 111.359 232 236 255
112.758 113.698 112.574 255 252 247
106.216 108.2 111.761 255 230 210
67.5323 118.463 114.779 255 251 245
107.094 95.4243 108.558 214 225 255
127.036 154.232 113.028 255 220 193
117.352 108.294 113.546 255 211 176
138.584 139.84 116.08 213 225 255
113.456 152.709 114.644 207 221 255
48.7457 47.0376 111.364 202 218 255
94.8581 174.867 110.377 247 245 255
98.4346 138.444 117.653 255 253 249
189.933 89.7913 114.967 196 214 255
92.9648 139.14 111.929 253 248 255
195.559 88.2797 111.356 201 217 255
98.9934 170.408 110.07 203 219 255
119.686 218.88 100.588 202 218 255
93.409 173.486 110.852 207 221 255
95.0083 120.644 108.088 255 245 235
102.512 95.2365 114.315 234 237 255
108.655 123.626 109.526 226 232 255
186.953 114.848 109.445 217 227 255
143.28 179.167 112.101 213 225 255
126.047 156.926 111.168 217 227 255
115.639 146.308 109.103 255 238 223
217.37 99.0696 113.278 180 204 255
106.033 113.051 107.228 231 235 255
113.732 112.078 110.49 255 209 172
48.5904 79.9523 114.305 194 213 255
76.0743 96.1339 112.957 231 235 255
114.636 114.303 109.997 255 254 251
82.9756 157.273 116.35 194 213 255
102.873 99.6361 117.164 255 227 205
148.865 44.0179 114.648 196 215 255
100.533 127.637 113.637 255 234 217
201.293 33.3404 111.557 185 208 255
112.155 111.252 112.592 255 166 86
112.258 109.532 113.656 243 242 255
124.845 151.233 112.422 202 218 255
67.661 138.099 124.439 212 224 255
32.9432 178.503 114.899 191 211 255
140.507 86.4992 114.465 199 216 255
88.0962 211.319 109.392 176 202 255
146.299 174.545 111.359 190 211 255
132.947 44.8793 117.556 198 215 255
128.278 71.896 117.666 212 224 255
93.6189 173.461 111.346 255 253 249
18.2564 152.246 115.282 183 206 255
142.275 71.7472 123.449 193 212 255
138.699 125.21 112.959 255 245 236
56.3589 92.0351 110.232 201 218 255
135.678 33.3841 113.03 199 216 255
137.656 110.573 110.12 216 227 255
172.334 26.1273 108.635 201 217 255
85.5569 81.6177 113.593 255 243 232
168.059 131.544 123.976 208 221 255
50.251 98.2698 126.495 192 212 255
105.791 96.6421 121.014 255 245 234
79.6237 120.133 106.936 205 220 255
137.732 130.604 114.805 207 221 255
93.8986 173.361 111.036 255 231 212
109.047 161.709 110.23 201 217 255
34.0857 111.516 111.445 189 210 255
197.047 112.838 117.063 190 211 255
93.4616 173.449 110.971 221 230 255
106.108 108.166 113.859 197 215 255
155.411 119.03 116.7 255 253 249
63.1613 127.951 115.419 199 216 255
93.4485 173.462 110.936 212 224 255
140.358 169.144 112.347 196 214 255
142.088 76.6927 112.965 224 231 255
53.6636 106.096 118.043 195 214 255
99.8107 73.5118 115.52 255 209 173
99.7449 127.202 108.442 255 230 210
93.4222 173.478 110.877 237 239 255
127.101 162.643 112.324 255 251 246
190.881 145.628 113.422 204 219 255
180.566 127.812 116.149 193 212 255
168.913 133.423 107.054 209 223 255
82.0436 72.4295 115.518 234 237 255
203.992 38.3245 111.624 182 206 255
158.907 83.9189 114.569 201 218 255
81.8423 64.5569 112.748 217 227 255
169.029 111.235 85.7911 209 222 255
153.979 51.7435 117.522 226 232 255
110.765 120.042 109.709 255 162 77
33.6116 46.6007 114.186 194 213 255
93.6172 179.334 108.479 255 241 229
24.2229 62.2481 114.917 205 220 255
88.4849 137.044 114.697 255 238 223
123.312 158.62 112.962 226 232 255
158.899 52.8287 114.508 200 217 255
91.3673 223.988 107.818 194 213 255
156.119 89.9511 107.303 193 213 255
110.988 173.155 109.958 181 205 255
21.9211 176.712 110.128 192 212 255
87.9919 101.439 112.346 255 178 113
134.04 142.365 115.673 255 250 243
85.1366 39.4517 115.183 196 214 255
112.906 116.283 109.502 255 246 237
206.113 102.253 111.813 191 211 255
45.5412 91.4864 112.853 181 205 255
163.005 129.839 110.733 209 222 255
150.451 74.5768 114.822 212 224 255
45.1438 208.415 110.914 192 212 255
97.2222 171.992 112.005 255 253 249
167.036 13.1232 110.408 189 210 255
103.909 159.597 110.864 255 183 123
76.9636 126.738 113.68 212 224 255
145.043 88.7821 107.238 199 216 255
129.846 137.986 111.421 207 221 255
82.2387 185.138 113.602 201 217 255
103.771 49.9285 116.885 217 227 255
121.563 132.678 108.486 243 242 255
125.861 99.585 107.093 255 217 186
178.506 64.9194 110.461 198 216 255
107.467 167.348 108.812 192 212 255
137.654 159.967 112.36 255 242 230
127.129 65.9838 104.499 218 228 255
86.3787 38.9799 115.319 199 216 255
92.9052 175.408 110.73 221 230 255
129.514 121.731 115.444 206 221 255
127.298 156.264 111.495 209 222 255
157.177 37.9915 116.192 196 214 255
131.805 80.8141 114.457 238 239 255
112.923 199.511 106.303 193 212 255
127.375 91.2528 118.026 230 235 255
152.575 154.455 110.189 188 209 255
142.934 43.1322 112.801 226 232 255
109.677 154.105 116.603 243 242 255
132.135 122.291 113.205 255 237 222
96.4432 162.441 110.302 182 206 255
93.4658 173.444 110.984 207 221 255
49.3152 32.8639 142.88 189 210 255
92.3539 156.648 109.781 198 216 255
60.3477 138.531 113.459 197 215 255
71.9918 89.2264 109.403 217 227 255
118.871 52.9806 113.48 187 209 255
110.732 111.726 114.635 255 231 212
60.0246 128.198 108.638 217 227 255
122.595 137.65 120.274 255 253 249
55.1142 126.55 107.519 193 212 255
2.19147 92.2056 109.795 190 211 255
106.159 174.564 108.95 208 222 255
133.835 100.209 108.087 255 207 169
93.4411 59.5358 107.65 255 254 251
138.375 75.5034 114.902 255 231 211
35.2383 147.498 116.608 186 208 255
160.559 104.989 105.098 201 217 255
48.2813 146.867 112.017 191 211 255
92.963 157.096 115.245 217 227 255
107.587 118.476 112.926 214 225 255
104.563 204.279 98.3727 198 215 255
102.828 117.79 108.761 233 237 255
169.666 132.954 127.464 197 215 255
176.155 74.9717 114.7 189 210 255
82.4654 107.58 104.299 255 247 239
105.642 111.747 108.9 255 202 159
93.4406 173.469 110.918 189 210 255
111.255 41.9008 110.095 202 218 255
52.46 74.3431 109.141 200 217 255
95.2675 132.79 116.745 255 235 219
92.5854 125.683 115.029 255 254 250
103.659 108.448 114.392 207 221 255
109.129 156.387 108.647 255 246 237
172.194 203.538 131.398 186 208 255
146.649 87.5646 127.773 194 213 255
169.509 107.13 99.6517 204 219 255
120.361 97.5906 110.345 192 212 255
53.2716 70.5679 112.708 195 214 255
206.997 130.742 115.373 183 206 255
119.804 85.8216 113.668 211 223 255
108.774 109.929 112.051 255 239 225
30.7376 183.751 109.249 181 205 255
119.582 71.1758 112.921 255 232 214
78.0868 190.298 111.274 195 214 255
148.491 147.33 115.348 255 239 226
146.308 144.307 110.188 222 230 255
69.6444 63.169 114.045 255 250 244
93.3997 173.492 110.998 203 219 255
109.735 124.594 109.667 255 209 172
112.041 113.707 113.138 255 241 229
139.506 146.986 108.903 255 245 235
62.8783 154.266 120.223 212 224 255
93.8637 173.317 110.64 255 251 246
95.5802 111.119 108.422 255 254 250
136.287 72.148 113.065 202 218 255
100.787 131.503 114.257 255 239 225
46.2754 112.412 113.42 220 229 255
12.0207 93.4491 111.58 203 219 255
18.9929 182.781 111.052 192 212 255
89.7267 108.907 111.072 252 247 255
23.8436 130.169 112.644 194 213 255
93.4665 173.444 110.983 211 224 255
106.51 164.092 115.878 255 184 125
163.052 186.33 112.191 194 213 255
139.742 108.3 111.445 255 118 0
72.4286 176.448 113.314 214 225 255
47.9112 155.802 110.987 198 215 255
42.3913 130.712 110.506 203 219 255
136.42 17.8247 115.968 255 248 240
91.8544 205.166 119.565 187 209 255
161.641 143.436 90.9176 199 216 255
113.672 79.3396 115.16 255 254 251
4.70154 117.476 115.344 190 210 255
106.012 108.584 114.136 207 221 255
43.7183 148.122 114.499 191 211 255
153.541 92.5835 108.475 210 223 255
92.2009 153.748 126.581 223 231 255
164.004 92.2652 112.28 206 221 255
206.173 56.2426 110.573 199 216 255
66.0902 27.7759 108.11 191 211 255
121.678 154.338 113.127 245 243 255
99.3512 81.5658 111.989 204 219 255
65.7746 146.849 100.894 203 219 255
49.2273 107.417 121.271 227 233 255
111.289 111.888 115.461 225 232 255
113.744 107.764 111.342 205 220 255
110.628 111.258 109.601 238 239 255
66.1976 99.4891 116.085 196 214 255
88.0922 132.511 114.693 216 227 255
111.139 124.318 110.452 212 224 255
90.5721 124.707 111.127 255 255 251
111.344 125.65 117.379 255 192 140
109.741 110.402 116.962 255 236 220
26.5052 200.958 102.236 203 218 255
103.918 86.3916 118.868 190 211 255
158.291 91.0671 111.401 198 216 255
165.608 100.266 105.894 181 205 255
77.5333 93.2656 109.225 203 219 255
98.496 79.0985 113.512 209 222 255
100.533 129.9 112.024 255 217 188
151.084 169.306 110.913 199 216 255
93.3308 173.561 110.843 255 248 240
129.213 129.519 112.115 210 223 255
195.577 9.25526 112.945 179 203 255
77.9436 193.163 113.969 193 213 255
168.325 118.791 106.901 206 220 255
107.117 82.777 105.245 255 252 247
144.855 90.1429 111.038 223 231 255
111.339 112.416 114.734 255 231 211
103.683 110.07 101.691 225 232 255
93.4405 173.474 110.879 214 225 255
139.9 35.514 111.148 221 230 255
93.4247 173.454 111.119 226 232 255
162.063 57.5267 113.608 222 230 255
163.701 120.397 113.368 209 222 255
212.773 98.9814 111.083 195 214 255
140.226 180.822 129.266 184 207 255
116.71 159.056 112.579 240 240 255
108.877 95.6494 112.851 238 240 255
166.72 159.569 107.711 221 229 255
108.682 122.305 106.158 255 242 230
70.8454 141.65 107.613 222 230 255
95.6557 174.404 111.025 209 223 255
94.5173 85.9054 114.214 192 212 255
99.6876 50.7299 113.225 186 208 255
174.647 162.609 117.039 195 214 255
116.3 127.026 112.434 209 222 255
200.651 42.9241 111.059 189 210 255
14.3443 150.384 115.793 204 219 255
97.1328 119.306 118.328 255 95 0
111.965 119.594 116.555 255 216 185
70.2058 60.6453 114.893 210 223 255
111.403 113.344 113.79 255 242 230
110.365 145.413 114.994 190 210 255
51.02 81.3561 111.797 200 217 255
112.769 115.306 105.677 255 203 161
111.17 111.616 112.498 255 240 226
99.1463 174.019 112.438 255 240 227
101.896 84.8498 118.83 255 239 225
116.121 115.882 112.056 255 239 226
112.495 77.4371 114.684 252 247 255
76.8369 116.076 114.909 199 216 255
112.861 113.197 112.574 223 231 255
105.609 108.081 113.566 235 237 255
141.373 201.283 113.093 185 207 255
164.111 125.592 115.283 184 207 255
166.682 135.917 111.359 241 241 255
111.113 111.373 113.283 255 244 233
84.7902 138.454 108.962 198 216 255
40.6196 150.142 115.453 184 207 255
98.3262 146.688 112.027 255 195 146
102.059 173.695 117.546 200 217 255
168.299 151.125 108.497 227 233 255
94.1236 173.822 111.158 191 211 255
135.392 137.56 111.988 206 220 255
108.245 153.782 121.393 227 233 255
93.3828 173.501 110.894 195 214 255
197.418 106.997 110.982 204 219 255
128.422 59.6849 113.489 207 221 255
88.1393 145.623 113.327 202 218 255
110.208 112.664 114.944 233 237 255
145.521 103.88 115.493 210 223 255
176.824 105.922 114.234 179 203 255
169.54 128.87 110.852 206 220 255
104.185 129.461 112.619 222 230 255
60.3939 82.8524 115.123 203 218 255
171.573 120.56 110.676 205 220 255
157.856 129.658 116.341 219 228 255
115.449 128.624 112.928 227 233 255
163.513 179.186 114.295 177 202 255
131.622 123.986 114.348 229 234 255
84.4908 130.005 113.916 255 247 239
163.741 43.6196 113.884 218 228 255
114.611 119.125 108.206 255 237 222
110.927 110.894 112.737 255 249 255
139.27 123.485 111.021 240 240 255
92.7178 202.593 110.769 180 204 255
163.506 141.227 123.145 204 219 255
115.933 130.051 111.649 216 227 255
172.168 121.744 109.08 200 217 255
101.486 112.568 111.259 214 225 255
213.89 123.491 115.814 203 219 255
90.0764 119.717 107.03 208 222 255
92.8679 113.836 118.211 255 254 251
19.7365 77.2152 116.318 182 205 255
111.169 113.052 114.309 255 253 248
74.7855 158.576 114.817 255 242 231
114.041 43.2116 114.632 196 214 255
37.8053 151.102 109.622 198 215 255
94.5024 100.609 113.42 255 242 231
148.192 220.244 112.754 201 218 255
205.778 154.252 115.886 191 211 255
155.235 157.878 111.562 198 216 255
75.502 101.858 106.066 255 246 238
93.46 173.46 110.94 255 253 248
153.427 40.1375 111.021 187 208 255
172.429 142.092 111.276 183 206 255
112.005 112.139 114.528 255 238 223
106.691 62.8263 111.602 196 214 255
116.517 92.9801 110.835 217 227 255
89.7013 104.272 111.897 223 231 255
108.909 87.1021 112.008 243 242 255
195.366 32.9939 110.118 183 206 255
71.9703 93.6467 109.679 233 236 255
126.057 122.717 112.645 255 244 234
212.723 53.2289 113.153 191 211 255
172.103 133.432 105.87 207 221 255
94.6335 127.673 119.747 255 187 131
106.424 133.212 110.54 220 229 255
114.534 99.1456 108.875 255 245 235
93.4563 173.455 110.956 255 242 231
83.9518 27.4625 111.838 200 217 255
76.9709 148.411 120.538 209 222 255
114.706 105.025 113.299 255 233 214
56.8057 111.655 104.378 196 214 255
65.7927 194.956 111.711 181 205 255
164.753 120.766 110.396 223 231 255
13.503 120.64 110.25 188 209 255
91.2757 114.876 114.621 244 243 255
64.3625 30.9573 107.938 195 214 255
108.593 111.136 111.293 211 224 255
130.927 111.667 108.552 243 242 255
22.7785 89.6053 111.996 183 206 255
75.809 109.79 106.15 241 241 255
107.646 46.9591 113.853 215 226 255
113.982 108.264 113.25 214 225 255
152.422 121.733 117.363 210 223 255
83.2673 18.9785 104.677 191 211 255
150.342 155.299 111.015 204 219 255
108.684 96.2861 114.177 255 248 241
162.235 104.058 119.371 201 217 255
108.768 112.992 114.541 255 225 200
109.478 115.055 113.81 207 221 255
47.3627 162.812 114.749 189 210 255
48.8479 77.909 117.85 196 215 255
142.882 82.5745 107.198 195 213 255
120.576 125.44 110.02 255 252 246
149.591 108.268 116.263 192 212 255
72.1654 123.85 109.755 215 226 255
171.714 122.549 105.44 202 218 255
134.974 113.073 115.865 226 233 255
119.143 72.8127 110.138 211 224 255
145.588 65.2181 116.861 197 215 255
99.2433 81.151 112.208 255 206 167
172.955 123.479 119.743 229 234 255
116.579 76.0756 106.259 254 248 255
89.5119 95.294 119.256 233 236 255
122.93 105.398 102.904 209 223 255
160.059 99.9618 112.181 224 231 255
84.4851 190.382 110.483 185 207 255
139.305 50.0633 114.29 255 251 245
114.361 132.143 111.71 215 226 255
142.305 82.005 112.872 255 220 192
218.823 115.142 111.862 185 207 255
154.183 93.0746 105.632 209 222 255
111.453 113.365 115.013 255 251 255
30.844 120.966 116.92 195 214 255
98.2917 169.357 110.697 199 217 255
79.0928 69.199 110.069 205 220 255
124.51 120.41 131.942 255 250 255
156.691 132.531 126.214 220 229 255
57.8167 82.1767 111.131 196 214 255
76.9501 87.5866 112.975 236 238 255
102.674 114.833 110.568 243 242 255
93.4255 173.481 110.856 200 217 255
95.3603 160.147 111.046 255 158 68
70.1473 121.469 109.509 216 227 255
26.0763 155.956 113.491 178 203 255
137.487 116.838 117.67 203 219 255
149.379 44.5034 113.386 192 212 255
112.266 113.047 112.963 230 235 255
127.596 172.032 112.775 207 221 255
114.128 99.2096 113.512 255 180 117
93.4113 173.427 110.891 196 214 255
100.576 151.793 113.809 255 218 189
159.46 45.9882 112.027 190 210 255
167.54 118.513 119.126 233 237 255
181.094 181.607 111.945 192 212 255
69.1675 76.8635 108.379 255 215 183
167.179 97.2577 112.534 194 213 255
170.804 92.6625 108.228 203 219 255
120.199 83.0677 112.599 255 234 216
80.9363 145.382 119.613 225 232 255
100.76 152.167 122.569 219 228 255
84.2638 38.5149 112.468 189 210 255
173.571 75.6521 112.117 244 243 255
47.5002 159.746 115.724 201 217 255
67.49 122.371 115.03 199 216 255
30.2964 119.109 110.392 185 207 255
93.4529 173.458 110.947 209 222 255
54.1292 99.0899 113.251 212 224 255
114.62 108.117 113.155 255 235 218
94.1462 173.594 111.6 192 212 255
34.3913 139.251 110.928 195 213 255
104.632 88.8066 112.962 255 250 244
102.392 9.02529 114.783 197 215 255
75.5912 29.8036 125.391 187 209 255
159.882 145.817 111.16 201 217 255
42.7981 122.916 113.572 255 210 174
172.108 108.276 108.884 226 232 255
99.1545 126.6 113.27 246 244 255
93.3632 173.911 111.243 254 248 255
29.7145 182.047 114.393 185 208 255
130.586 164.842 112.88 199 216 255
103.511 143.643 111.976 255 230 209
88.3818 129.487 112.202 225 232 255
99.231 162.944 114.131 255 232 214
93.3024 173.459 111.306 255 245 235
116.166 64.8463 114.136 229 234 255
54.6952 77.631 106.605 190 211 255
142.274 153.931 114.544 212 224 255
223.916 103.919 116.616 189 210 255
113.134 121.553 110.642 255 225 200
78.5426 98.9149 114.968 230 234 255
93.3854 173.504 110.818 255 220 192
77.4972 171.971 112.167 202 218 255
90.0561 110.546 109.383 205 220 255
93.5224 93.1958 110.286 226 233 255
160.921 39.1556 115.016 199 216 255
93.6156 36.8114 111.275 194 213 255
104.649 88.6465 111.677 233 237 255
93.1273 174.364 109.909 216 226 255
100.102 179.302 110.992 192 212 255
97.5149 156.641 117.45 185 208 255
113.958 156.355 110.963 248 245 255
79.7291 112.707 109.588 255 136 13
97.9041 121.123 112.061 225 232 255
95.4219 174.138 109.221 250 246 255
70.1269 141.627 108.591 204 219 255
87.1308 70.8424 111.943 230 235 255
47.2994 50.0534 110.488 186 208 255
100.626 134.829 114.195 255 248 241
80.5669 130.17 113.029 198 216 255
59.2146 205.126 95.848 255 207 169
69.3647 52.9602 102.257 204 220 255
106.973 34.3367 114.655 209 222 255
178.352 144.599 113.77 255 244 234
181.506 58.0529 111.481 210 223 255
117.7 80.2491 110.183 255 246 237
15.4461 123.331 116.005 200 217 255
104.722 129.545 117.103 255 239 226
121.533 93.1606 111.491 255 160 72
57.7114 83.4516 109.5 243 242 255
189.331 181.706 115.505 184 207 255
120.054 85.4215 114.022 188 209 255
69.3229 165.687 113.275 189 210 255
120.606 126.667 111.467 255 212 177
199.256 103.197 115.173 212 224 255
93.4456 173.465 110.929 196 214 255
110.544 113.46 113.262 255 250 243
132.423 81.2885 113.624 211 223 255
120.828 9.41176 117.689 191 211 255
120.948 82.1245 104.335 255 251 255
93.3412 173.561 110.806 198 215 255
115.691 38.5658 112.273 205 220 255
81.4531 216.788 124.139 196 214 255
27.2979 162.382 116.632 190 211 255
132.247 175.888 115.262 178 203 255
163.066 163.495 113.053 231 235 255
142.591 143.644 115.649 248 245 255
113.305 111.503 114.142 255 253 249
215.788 65.3108 110.228 179 204 255
88.4087 160.677 117.335 198 215 255
55.6548 95.8291 106.645 190 210 255
144.626 137.226 114.36 201 217 255
101.165 25.9106 112.641 207 221 255
77.7326 192.346 112.53 196 214 255
118.608 94.3452 108.693 255 220 192
84.5713 119.791 117.026 201 218 255
64.9322 65.3559 108.545 255 245 236
76.1309 116.173 120.34 213 225 255
93.4971 173.39 111.226 210 223 255
101.434 88.509 111.405 210 223 255
115.244 79.248 98.2299 200 217 255
111.193 110.975 113.098 255 163 80
61.4504 72.9358 103.189 207 221 255
163.725 28.8472 108.674 195 214 255
125.375 185.87 110.191 189 210 255
118.144 140.095 110.377 244 243 255
145.907 40.5503 115.168 190 211 255
57.7831 114.616 121.688 223 230 255
201.715 95.3942 112.822 190 211 255
137.671 111.289 110.982 255 241 229
172.384 48.3383 108.238 191 212 255
106.988 68.2584 109.537 191 211 255
93.4408 173.469 110.917 197 215 255
67.2642 135.716 120.202 218 228 255
140.425 55.5784 115.626 201 218 255
116.47 202.799 100.561 198 216 255
77.929 172.408 109.653 217 227 255
164.074 121.691 114.622 241 241 255
138.967 123.309 114.285 214 225 255
140.565 68.4072 126.731 245 243 255
93.3903 173.495 110.84 199 216 255
109.061 140.618 97.2122 211 224 255
117.921 146.989 111.219 219 228 255
93.4529 173.458 110.948 193 213 255
56.2218 203.857 113.517 194 213 255
204.58 64.4355 115.63 191 211 255
29.9192 95.5436 111.489 195 214 255
194.327 118.151 113.133 193 213 255
31.6706 188.884 108.592 180 204 255
118.244 166.57 110.316 200 217 255
40.8866 202.403 120.331 185 207 255
138.043 103.772 117.72 201 217 255
81.4046 77.5718 114.651 197 215 255
81.6705 113.464 113.139 255 253 248
218.248 135.649 118.452 212 224 255
116.106 62.9159 111.149 235 238 255
61.8178 162.571 114.558 181 205 255
26.0812 147.374 115.358 204 220 255
116.218 112.775 107.932 255 64 0
74.2769 66.9829 113.184 207 221 255
