ply
format ascii 1.0
element vertex 1342
property float x
property float y
property float z
property uchar red
property uchar green
property uchar blue
end_header
93.6256 173.873 110.256 200 217 255
178.408 159.186 113.974 193 212 255
110.032 214.865 119.011 193 212 255
102.609 167.07 119.826 209 222 255
93.6402 173.895 110.329 192 212 255
110.388 68.4607 115.236 205 220 255
113.557 87.2944 110.845 255 247 239
159.607 71.76 110.181 209 222 255
69.1571 42.5042 68.3931 194 213 255
84.3067 98.6476 112.003 251 246 255
147.089 177.941 110.31 192 212 255
79.2675 26.9561 119.094 203 219 255
104.15 59.1798 113.879 196 214 255
115.839 123.265 108.744 255 231 211
81.5414 161.085 117.405 217 227 255
113.001 138.773 119.357 210 223 255
100.002 82.5343 115.852 250 246 255
111.672 110.829 101.162 255 249 255
154.354 100.476 118.513 191 211 255
46.0534 74.4016 85.6325 206 220 255
93.6301 173.879 110.291 198 216 255
173.823 118.021 99.5684 203 219 255
93.6447 173.901 110.344 208 222 255
134.688 112.28 112.501 231 235 255
165.361 129.883 105.582 191 211 255
117.875 83.7756 122.575 230 235 255
162.527 66.9478 116.105 203 218 255
114.498 160.323 111.128 188 209 255
54.0542 120.172 103.709 195 214 255
155.119 34.37 116.119 193 212 255
60.9419 31.98 69.859 191 211 255
61.7331 114.832 115.566 206 220 255
118.41 87.6252 110.768 255 229 209
136.997 74.6379 110.06 186 208 255
59.6603 48.4233 107.5 184 207 255
145.946 171.868 110.214 194 213 255
109.072 101.868 104.018 255 220 193
105.428 90.1068 108.099 204 219 255
154.913 82.2195 111.586 220 229 255
111.726 100.951 114.939 255 229 208
119.55 127.419 119.233 255 217 188
105.015 158.596 117.28 255 219 190
130.708 77.7883 119.819 221 229 255
78.5444 160.642 109.299 240 240 255
112.833 124.544 111.205 255 250 255
109.546 109.325 129.984 242 242 255
93.6359 173.878 110.301 195 214 255
97.2138 127.566 112.292 200 217 255
93.8627 17.1143 142.615 218 228 255
132.465 67.5652 119.572 201 217 255
93.637 173.891 110.317 255 245 236
79.2493 146.836 120.191 233 236 255
113.778 108.019 112.108 255 249 242
79.2597 55.4836 112.918 190 210 255
90.3838 123.09 113.334 242 242 255
76.4174 144.51 118.866 204 219 255
129.185 82.0532 123.761 245 243 255
86.5539 121.223 113.113 255 227 205
121.544 109.933 120.383 255 252 247
69.7472 55.8913 103.342 194 213 255
108.267 105.406 122.346 202 218 255
102.446 82.476 111.56 255 251 246
117.678 115.06 109.615 227 233 255
134.107 70.8166 118.151 218 228 255
92.7793 171.794 110.847 255 223 198
75.9843 223.179 104.678 228 234 255
98.4178 47.9156 113.168 198 216 255
93.7646 173.953 110.506 219 229 255
95.218 142.714 112.669 255 248 241
123.854 181.321 114.22 226 232 255
108.522 29.5231 112.24 194 213 255
122.236 118.457 112.473 255 234 216
107.489 101.002 114.356 255 212 178
87.531 219.772 103.699 201 217 255
104.419 116.629 116.93 255 236 221
110.225 86.5022 111.895 207 221 255
93.6277 173.876 110.283 182 205 255
118.065 108.22 116.238 255 192 140
104.7 70.8266 115.991 255 252 247
130.304 19.4222 110.397 199 216 255
126.927 74.6122 118.473 255 235 218
80.7555 184.538 111.84 211 223 255
117.691 120.598 115.945 201 217 255
206.763 45.9584 114.433 201 218 255
121.162 112.325 111.946 255 245 236
149.803 70.0293 112.725 193 212 255
210.391 91.2912 113.468 208 222 255
93.6395 173.894 110.325 255 231 212
102.367 171.425 109.209 202 218 255
108.307 113.6 109.993 201 217 255
111.015 122.763 108.736 224 231 255
93.6409 173.896 110.331 219 228 255
99.313 177.727 109.429 214 225 255
110.097 112.801 114.82 255 252 246
95.3295 175.205 105.017 208 222 255
149.62 192.215 95.244 212 224 255
153.775 32.7801 109.215 207 221 255
100.75 97.0989 121.834 211 223 255
116.995 110.427 99.2109 255 249 242
77.2029 104.127 112.151 223 230 255
123.333 81.7519 110.423 210 223 255
117.496 111.646 113.224 255 227 205
113.105 117.059 111.85 213 225 255
0.575324 125.972 109.657 213 224 255
187.519 121.613 116.862 186 208 255
105.355 118.935 110.224 214 226 255
93.1038 202.064 113.703 211 224 255
100.048 121.825 114.496 255 225 201
109.227 104.976 105.532 209 222 255
108.525 162.111 110.817 188 210 255
128.955 90.7269 115.446 195 214 255
213.818 43.1777 113.844 189 210 255
116.871 123.784 105.949 226 232 255
115.68 123.912 118.833 255 240 227
155.073 107.548 116.887 253 248 255
119.697 115.299 105.389 255 109 0
167.505 0.660247 92.9806 189 210 255
117.061 123.324 111.093 232 236 255
116.609 46.4287 111.694 197 215 255
111.225 121.628 106.053 255 171 97
93.3889 173.607 109.857 218 228 255
9.80723 177.985 111.543 179 204 255
107.989 148.636 110.894 191 211 255
76.3571 113.169 111.562 221 229 255
88.3611 154.673 109.035 194 213 255
86.8835 136.623 111.001 239 240 255
156.888 127.095 108.915 186 208 255
205.867 103.298 111.807 184 207 255
61.2446 83.6073 126.376 255 249 255
94.1097 174.283 111.709 199 216 255
136.14 54.362 116.665 199 216 255
103.992 101.912 109.081 255 251 246
31.4475 185.437 110.331 202 218 255
105.034 89.9596 114.991 255 146 38
104.759 87.3615 108.447 202 218 255
164.147 103.26 90.9546 255 254 250
111.678 108.342 116.686 255 237 222
152.631 85.3343 114.015 200 217 255
68.1773 142.449 114.444 187 209 255
125.579 78.4643 116.435 204 219 255
106.671 170.099 119.674 214 226 255
120.859 77.933 113.043 222 230 255
110.541 124.139 115.643 255 196 149
47.532 105.537 108.81 198 215 255
93.6403 173.896 110.332 214 225 255
115.403 129.1 116.392 255 187 130
128.129 78.1815 110.103 198 216 255
108.561 129.591 110.493 255 244 233
113.547 115.659 110.09 224 231 255
81.3771 94.2931 113.288 233 236 255
178.014 95.1281 94.4809 206 221 255
105.015 118.938 117.879 216 227 255
93.6355 173.888 110.325 250 246 255
102.183 126.774 117.707 211 224 255
154.106 98.3049 112.986 208 221 255
84.0715 169.141 116.317 192 212 255
141.597 83.0392 117.328 188 209 255
99.8639 135.017 112.074 198 216 255
87.569 11.9273 118.775 192 212 255
146.04 188.619 114.672 200 217 255
178.794 119.276 120.989 213 225 255
93.6393 173.894 110.324 210 223 255
127.285 77.3352 109.407 226 232 255
103.158 160.507 128.393 214 226 255
36.2605 63.7884 112.615 202 218 255
145.522 49.1613 114.804 205 220 255
129.536 104.521 112.146 231 235 255
115.353 131.372 103.23 187 209 255
93.6395 173.893 110.329 254 248 255
165.254 129.583 109.876 192 212 255
106.683 123.669 109.544 227 233 255
99.5706 35.7921 129.374 180 204 255
191.794 77.6025 116.656 194 213 255
92.6696 116.425 110.086 255 254 251
123.914 114.747 115.256 204 219 255
88.159 162.185 119.47 255 228 206
114.333 96.3359 111.36 201 218 255
4.62011 109.343 114.043 190 211 255
102.314 107.884 118.711 255 213 179
123.892 47.7176 112.397 194 213 255
40.6984 80.1162 90.4765 198 216 255
109.876 100.21 111.79 210 223 255
103.112 26.3078 113.26 203 218 255
159.88 55.9105 111.059 213 225 255
91.9878 191.067 111.616 197 215 255
147.189 31.1368 109.397 210 223 255
117.415 117.999 110.271 255 225 202
159.862 149.677 103.682 193 212 255
115.679 89.0723 114.504 204 219 255
104.299 27.0235 112.777 208 222 255
163.685 79.7228 112.58 213 225 255
92.8195 174.24 110.644 189 210 255
93.7085 173.97 110.369 185 207 255
151.784 132.736 113.086 255 250 255
124.848 115.704 116.392 239 240 255
163.549 137.374 112.569 198 216 255
32.1408 61.5621 114.219 177 202 255
6.06982 97.7146 106.729 193 212 255
102.769 9.70253 122.115 208 222 255
108.553 114.298 127.746 255 187 130
106.078 112.599 126.795 222 230 255
105.516 107.224 103.307 200 217 255
93.8236 4.58252 109.329 195 213 255
49.1931 147.331 121.864 194 213 255
50.1226 70.4482 91.5234 255 244 233
77.0239 132.543 112.816 255 241 229
93.6338 173.885 110.303 197 215 255
119.614 122.163 102.226 247 244 255
99.8957 60.2136 114.945 201 217 255
80.8456 45.0827 106.481 218 228 255
76.0627 18.5975 106.678 211 223 255
93.6481 173.903 110.354 233 236 255
117.378 133.612 106.333 218 228 255
127.935 91.1664 114.668 255 179 114
154.44 88.0491 111.249 255 253 248
150.109 123.945 112.729 207 221 255
105.094 147.564 108.919 229 234 255
97.215 178.572 107.907 255 225 202
167.569 94.236 111.89 223 231 255
100.991 171.152 114.539 199 217 255
102.697 92.9731 100.297 212 224 255
169.734 103.273 120.358 245 243 255
136.166 9.6013 109.191 177 202 255
93.6123 173.882 110.516 255 236 221
62.5737 74.6159 76.4539 225 232 255
107.963 118.789 126.977 251 247 255
129.464 74.632 108.284 226 232 255
146.675 85.5348 116.252 209 222 255
93.6347 173.887 110.308 204 219 255
93.6457 173.902 110.347 200 217 255
185.587 172.067 119.282 194 213 255
129.034 135.423 110.901 214 225 255
137.852 88.0972 112.587 255 252 247
116.051 118.066 104.598 206 220 255
77.6058 106.582 113.817 194 213 255
93.642 173.897 110.334 210 223 255
129.799 8.04857 111.176 175 201 255
99.9198 129.313 110.754 224 231 255
188.967 126.187 127.194 204 219 255
166.091 145.656 116.104 184 207 255
124.314 186.148 111.887 190 211 255
88.9921 90.8748 113.34 230 235 255
138.233 72.6458 122.47 193 212 255
104.874 203.233 113.75 185 207 255
61.6894 88.8779 112.877 239 240 255
103.454 79.657 116.08 221 229 255
52.8628 67.7965 97.6724 207 221 255
57.8746 78.4919 113.172 195 213 255
85.2557 140.482 112.168 255 235 218
68.7767 99.5826 103.253 255 254 250
133.754 66.956 127.314 205 220 255
50.8317 86.1619 94.9045 201 218 255
110.584 116.897 111.291 255 236 220
63.8933 61.1543 112.694 223 231 255
113.622 109.902 116.594 255 243 231
74.6045 103.274 111.486 210 223 255
62.6761 114.21 106.739 192 212 255
71.4469 203.451 115.815 179 204 255
152.361 105.068 117.967 202 218 255
86.6209 122.139 113.165 255 238 223
131.37 61.0484 119.685 191 211 255
73.2192 49.802 111.634 188 209 255
93.6613 52.3644 109.216 198 216 255
117.765 145.353 109.642 255 220 192
74.5714 99.5409 93.2547 255 205 164
106.695 138.781 98.696 255 243 232
147.346 91.2113 122.063 198 216 255
78.3659 153.347 123.243 197 215 255
93.6312 173.883 110.319 255 221 195
133.831 113.495 111.186 190 211 255
89.783 166.714 113.479 232 236 255
93.645 173.9 110.345 221 229 255
55.8499 68.6959 108.226 206 220 255
146.16 104.101 113.299 199 216 255
68.325 135.806 103.259 209 222 255
105.005 111.228 119.611 226 233 255
177.73 91.7524 112.121 230 235 255
113.988 123.391 104.306 255 213 179
90.0865 91.5547 112.004 239 240 255
137.026 102.767 114.672 255 208 170
173.546 28.8185 112.04 202 218 255
46.5207 1.27861 56.6787 196 214 255
144.702 84.1594 70.3832 198 215 255
112.785 113.566 109.761 255 226 203
105.349 113.194 105.914 255 249 243
165.918 6.828 114.262 194 213 255
93.665 173.925 110.413 235 238 255
60.078 99.7305 119.217 210 223 255
53.541 43.4558 100.564 187 209 255
103.616 115.419 116.694 255 237 222
61.2682 129.152 103.08 208 222 255
93.6459 173.902 110.348 220 229 255
145.179 113.345 111.816 202 218 255
107.266 41.9368 112.22 183 206 255
60.0276 75.8459 111.622 211 224 255
125.928 79.378 121.987 207 221 255
67.3229 69.4227 111.978 243 242 255
51.0038 31.465 114.113 179 203 255
126.6 115.023 107.925 200 217 255
109.258 126.962 114.989 255 207 169
14.3576 161.396 113.271 181 205 255
112.196 109.984 109.205 255 108 0
6.23619 165.965 111.814 185 208 255
100.136 64.6762 113.891 211 223 255
93.6447 173.901 110.344 216 226 255
192.839 84.6596 110.933 190 210 255
93.6437 173.899 110.34 217 227 255
111.426 195.743 107.505 189 210 255
100.066 150.163 113.431 255 253 248
167.598 14.8236 110.49 192 212 255
159.706 120.058 111.801 220 229 255
95.6404 112.057 109.342 227 233 255
93.6418 173.897 110.333 187 208 255
93.636 173.865 110.518 197 215 255
161.49 87.8731 122.567 202 218 255
119.716 109.72 102.502 237 239 255
122.614 63.1915 113.627 236 238 255
99.6015 100.245 111.74 223 231 255
82.0648 59.6205 112.969 216 227 255
148.59 112.97 109.348 239 240 255
110.426 90.6107 106.34 206 221 255
142.171 93.5203 113.752 255 254 250
133.31 78.1042 111.417 209 223 255
94.5027 87.2936 110.408 211 223 255
51.9941 76.7583 117.14 215 226 255
132.547 94.9379 113.162 209 223 255
115.792 134.55 107.687 255 93 0
56.0106 111.464 103.077 214 225 255
107.605 105.977 109.844 218 228 255
106.037 178.634 118.442 251 247 255
121.548 125.803 107.934 219 228 255
64.5953 145.622 97.9338 204 219 255
133.664 78.6495 121.392 236 238 255
112.144 107.938 111.074 206 221 255
93.6301 173.884 110.305 215 226 255
90.2988 110.81 111.987 255 254 250
115.641 109.381 116.91 255 251 245
101.614 40.6389 112.221 195 214 255
92.188 143.519 113.051 201 217 255
69.9328 79.9277 113.891 190 210 255
76.3585 88.4955 112.525 238 240 255
158.797 188.801 108.034 184 207 255
120.792 62.5632 120.401 193 213 255
141.407 70.5586 121.369 194 213 255
112.407 121.629 118.435 224 231 255
110.399 121.24 121.892 208 222 255
90.7805 141.955 113.444 204 219 255
61.5283 133.127 112.698 229 234 255
107.659 102.3 114.136 255 244 234
93.561 173.586 110.193 229 234 255
112.828 110.14 118.129 255 151 52
112.683 123.035 109.999 255 226 203
52.711 98.3411 105 218 228 255
57.7486 101.383 91.9946 255 241 228
93.6358 173.889 110.312 255 245 235
112.263 105.861 115.699 255 241 228
112.689 135.255 109.907 255 252 247
111.248 107.306 109.435 215 226 255
31.2315 128.869 109.078 235 237 255
94.1003 174.734 111.44 255 205 165
130.915 119.032 112.55 211 223 255
63.8484 59.0094 124.59 229 234 255
102.739 102.879 106.797 255 249 255
118.442 159.169 113.951 251 247 255
37.6919 167.557 109.563 204 220 255
105.948 24.0109 113.317 200 217 255
132.874 168.218 108.907 188 209 255
133.367 12.243 125.552 188 209 255
88.4702 178.016 113.287 197 215 255
56.9906 124.437 119.272 202 218 255
39.1342 150.535 110.099 187 209 255
115.215 75.5544 113.444 196 214 255
121.756 118.164 114.444 255 35 0
17.2019 58.6481 111.195 189 210 255
116.448 87.6098 111.809 255 240 226
78.3249 142.91 102.961 202 218 255
87.1646 210.865 100.925 199 216 255
141.227 124.145 113.875 207 221 255
136.206 68.5424 119.072 255 225 201
45.0298 131.696 108.982 199 216 255
136.083 17.7494 112.653 186 208 255
138.36 84.1036 110.003 255 248 240
71.955 96.1591 114.539 255 250 243
109.412 122.522 113.786 232 236 255
158.883 122.928 111.041 233 237 255
111.563 103.624 119.998 255 250 243
101.474 162.99 101.167 214 225 255
159.711 102.967 110.736 211 224 255
140.058 68.8046 124.739 209 222 255
121.69 121.706 114.79 208 222 255
153.379 111.902 110.558 194 213 255
46.1634 58.7808 121.829 194 213 255
111.401 92.0482 114.764 224 231 255
97.8195 130.723 99.7924 229 234 255
99.3952 64.8205 113.07 235 238 255
92.3156 175.404 112.948 225 232 255
123.375 71.9645 123.295 203 219 255
173.963 88.1198 112.549 187 209 255
109.214 125.063 108.792 246 244 255
82.5647 76.9671 110.148 255 184 124
77.709 94.396 111.065 212 224 255
109.47 112.392 106.091 255 189 134
139.19 128.897 113.31 187 209 255
202.268 69.7455 108.39 201 217 255
117.059 121.235 125.182 240 240 255
52.3876 101.848 117.293 210 223 255
63.1195 101.8 112.503 199 216 255
107.103 112.754 121.534 230 235 255
102.304 182.857 109.653 196 214 255
91.9074 150.898 114.144 218 228 255
76.0107 121.404 108.031 255 236 220
65.8208 139.659 104.939 205 220 255
150.091 120.312 111.08 227 233 255
79.823 53.8618 112.722 199 216 255
124.452 36.2413 111.191 205 220 255
61.0436 73.4683 112.848 191 211 255
120.824 103.14 111.478 255 231 211
151.884 79.7471 109.526 204 219 255
109.468 113.366 109.764 214 225 255
125.258 42.7076 116.632 194 213 255
63.6942 62.344 141.608 199 216 255
96.8535 173.018 107.619 255 248 241
70.2655 50.7661 113.622 211 224 255
55.5911 209.442 120.015 181 205 255
153.746 115.038 111.365 192 212 255
79.4928 141.117 112.788 255 184 125
109.572 99.0424 109.922 234 237 255
93.6052 173.844 110.227 198 216 255
121.021 120.737 115.41 203 219 255
126.156 177.411 121.829 202 218 255
148.336 97.4068 112.062 228 233 255
83.5596 163.84 110.28 255 236 220
176.638 109.293 114.175 198 216 255
123.16 117.79 119.956 255 246 236
164.461 134.764 107.743 220 229 255
155.29 126.446 105.774 220 229 255
36.2311 104.645 101.601 220 229 255
127.116 56.4916 119.788 255 246 237
137.631 49.814 112.872 195 214 255
140.333 120.98 111.832 254 248 255
93.6403 173.895 110.329 203 218 255
41.1698 107.974 116.06 224 231 255
89.1114 161.171 122.446 202 218 255
93.6392 173.894 110.324 207 221 255
26.9365 128.644 113.804 217 227 255
142.333 79.4954 127.162 195 214 255
74.9241 26.2384 107.571 193 212 255
189.431 93.8059 107.211 203 219 255
116.381 116.436 115.982 210 223 255
108.452 104.715 110.721 255 187 130
97.9446 219.627 67.5488 187 209 255
143.997 82.2673 120.749 255 237 222
170.177 55.4837 111.863 182 206 255
114.869 124.4 110.459 222 230 255
108.779 121.638 104.657 255 205 166
132.174 82.6587 112.033 245 243 255
92.6544 28.0674 113.292 199 216 255
97.3276 114.863 114.052 202 218 255
96.9689 7.09433 108.882 180 204 255
104.292 109.059 118.008 249 245 255
113.963 101.934 108.443 243 242 255
83.9534 126.511 112.71 255 239 224
117.81 120.195 107.658 234 237 255
173.217 129.346 110.387 191 211 255
92.6576 174.085 110.051 186 208 255
118.559 124.732 105.209 255 245 235
102.206 113.125 111.733 216 227 255
93.6396 173.894 110.326 204 219 255
113.85 116.863 108.87 255 246 237
126.313 150.764 110.997 226 233 255
68.0358 131.267 102.31 206 221 255
37.3891 101.718 113.283 217 227 255
118.755 30.7131 113.002 201 218 255
88.1053 200.422 113.373 195 214 255
93.5463 173.837 110.31 202 218 255
164.403 82.8669 109.46 209 223 255
162.108 91.5035 100.183 255 254 251
166.165 116.414 119.006 216 227 255
50.0413 125.9 96.9963 255 248 241
93.6408 173.896 110.33 209 222 255
145.035 125.822 112.852 200 217 255
146.807 99.1195 113.81 193 212 255
79.9892 91.7244 111.618 197 215 255
59.5042 89.7862 114.474 202 218 255
95.6006 168.404 122.154 231 235 255
128.327 64.4893 116.014 205 220 255
149.974 183.817 110.86 177 202 255
35.2602 148.146 116.619 229 234 255
201.059 60.0084 117.704 188 209 255
168.572 86.3382 114.562 212 224 255
157.846 114.354 111.252 243 242 255
91.5686 92.7759 114.959 200 217 255
169.943 165.858 96.662 197 215 255
169.925 152.51 106.232 207 221 255
113.872 113.781 111.882 255 229 207
157.663 105.187 102.646 192 212 255
108.305 106.045 113.953 255 249 255
164.736 43.7179 112.539 255 254 250
176.656 55.015 108.356 193 213 255
125.771 16.1752 122.571 192 212 255
132.926 127.836 106.179 241 241 255
186.982 116.799 122.525 255 250 255
83.7862 57.3141 115.468 206 221 255
124.13 26.0771 111.768 202 218 255
74.3071 130.011 110.873 255 253 248
131.224 169.699 110.874 229 234 255
45.4068 115 102.089 195 214 255
152.332 104.066 112.258 198 216 255
92.8874 172.921 111.833 202 218 255
114.023 113.071 113.129 191 211 255
93.6176 173.876 110.317 200 217 255
81.609 32.3369 104.176 220 229 255
93.6409 173.896 110.33 200 217 255
102.62 117.108 112.09 242 242 255
144.352 50.6491 113.438 196 214 255
133.78 39.4328 109.919 231 235 255
110.634 194.916 111.976 182 206 255
102.577 117.553 120.1 228 233 255
118.637 28.8365 113.056 220 229 255
122.094 114.97 120.913 255 225 202
57.8355 74.2862 98.7184 200 217 255
88.5659 65.1928 111.22 209 223 255
70.2756 127.694 112.173 246 244 255
78.3489 56.4649 113.753 192 212 255
93.6529 173.768 110.061 197 215 255
106.172 104.23 107.254 233 236 255
177.214 2.29816 109.688 193 213 255
121.036 104.497 103.787 255 207 168
93.6295 173.746 110.4 255 254 250
121.346 77.3136 112.35 255 234 217
115.748 119.152 116.959 229 234 255
63.7826 88.8171 112.793 200 217 255
110.061 155.963 120.495 223 231 255
93.2756 173.487 112.454 255 250 255
150.48 146.413 116.45 200 217 255
151.684 165.313 111.541 200 217 255
192.707 178.325 106.319 196 215 255
104.45 163.666 114.757 238 239 255
56.713 210.691 106.581 185 207 255
191.408 85.1331 114.032 184 207 255
169.14 70.58 114.211 193 212 255
108.621 103.774 112.055 227 233 255
109.012 124.817 116.707 221 229 255
125.185 184.231 109.763 187 209 255
76.0642 120.065 112.884 199 216 255
141.938 120.65 114.059 255 230 210
167.59 19.913 112.592 200 217 255
120.783 130.236 120.614 255 250 255
93.8047 173.94 111.096 211 223 255
160.553 154.513 97.7406 190 211 255
101.864 85.6947 112.639 232 236 255
154.112 141.79 114.946 196 215 255
108.656 86.8798 94.8041 249 246 255
113.944 87.2548 118.216 200 217 255
28.9248 180.362 109.497 197 215 255
95.4843 152.812 112.736 235 238 255
93.6393 173.894 110.324 215 226 255
72.3121 24.5411 114.232 185 207 255
71.8007 116.595 113.516 198 216 255
100.845 110.952 120.606 255 239 224
139.347 85.1449 104.71 214 225 255
26.1562 109.642 112.457 201 217 255
169.204 150.424 109.922 215 226 255
89.7715 188.142 89.3489 206 221 255
114.934 91.5001 120.232 226 232 255
112.08 100.431 109.418 212 224 255
173.536 148.27 115.752 192 212 255
98.9031 99.8444 118.685 255 254 251
49.6729 101.137 105.451 187 209 255
93.7506 173.945 110.514 215 226 255
174.126 66.7533 113.063 197 215 255
106.823 57.2836 112.923 255 248 240
137.444 66.0333 120.208 214 225 255
134.792 138.062 113.769 197 215 255
102.617 48.9505 109.261 200 217 255
113.189 93.183 110.151 206 221 255
107.471 103.994 112.164 255 227 204
136.227 77.0553 119.921 195 214 255
193.513 72.5594 116.733 184 207 255
101.576 102.905 108.455 255 250 255
101.474 64.343 114.288 195 214 255
124.162 89.5767 115.169 224 231 255
17.0252 92.0226 114.166 194 213 255
71.262 60.1831 111.901 220 229 255
121.652 106.038 104.682 210 223 255
68.591 131.576 110.621 217 227 255
121.502 112.601 117.334 255 234 217
126.629 188.201 111.481 191 211 255
106.298 156.322 130.51 203 219 255
60.252 102.693 112.062 212 224 255
93.6393 173.887 110.305 240 241 255
59.4754 153.792 115.033 231 235 255
3.85228 150.155 112.71 180 205 255
105.476 116.338 107.16 255 196 147
107.677 135.793 106.04 225 232 255
47.4238 65.093 94.3615 195 214 255
115.501 142.499 115.291 218 228 255
98.1332 113.151 115.3 255 172 99
110.272 99.5708 114.446 247 244 255
93.6446 173.9 110.343 193 213 255
75.5276 59.9813 112.9 194 213 255
104.223 15.6747 103.674 188 209 255
118.492 140.264 114.805 218 227 255
117.901 68.5327 116.577 200 217 255
141.301 124.689 105.287 185 207 255
114.258 97.7652 113.444 255 235 218
7.83915 172.478 100.834 203 218 255
101.218 120.284 118.197 255 209 173
93.6287 173.877 110.287 209 222 255
35.1461 88.1212 114.735 195 214 255
119.826 120.911 114.082 255 230 210
123.339 117.423 106.911 255 162 78
67.0834 149.872 121.681 205 220 255
126.652 159.091 111.672 186 208 255
128.202 78.8095 111.812 233 236 255
63.7562 158.518 114.743 217 227 255
68.058 15.1786 111.309 190 211 255
94.6877 120.712 112.763 255 230 210
138.252 93.9364 113.919 231 235 255
41.5213 70.4458 116.346 192 212 255
193.518 155.655 114.947 191 211 255
112.625 110.885 105.528 255 198 152
44.4514 107.224 122.289 228 233 255
108.546 119.254 110.578 255 242 229
133.918 110.559 112.647 218 228 255
93.6412 173.896 110.331 203 219 255
49.0563 164.746 127.447 212 224 255
78.304 186.64 111.579 191 212 255
170.226 155.08 103.627 191 212 255
103.702 130.383 110.291 208 222 255
14.0996 79.6757 112.519 194 213 255
143.986 97.7905 138.086 199 216 255
176.147 177.033 111.422 191 212 255
127.19 112.879 112.456 217 227 255
88.0286 142.318 118.075 209 222 255
104.045 118.584 114.098 215 226 255
93.6459 173.901 110.347 228 234 255
58.9702 35.7779 107.93 180 205 255
123.429 111.221 108.243 255 230 210
222.429 82.4442 113.463 184 207 255
94.6134 148.928 109.683 202 218 255
93.6459 173.904 110.35 227 233 255
155.89 44.9388 117.61 203 219 255
63.5775 53.3874 110.571 227 233 255
105.143 160.388 104.357 209 222 255
67.7245 219.514 116.001 183 206 255
94.7688 188.653 112.064 187 209 255
98.0166 220.719 112.98 184 207 255
51.9903 101.479 122.514 199 216 255
197.483 75.3093 112.707 197 215 255
117.746 144.985 112.788 234 237 255
32.5826 54.2431 114.576 188 209 255
121.382 21.1914 115.443 207 221 255
89.5081 44.6924 114.291 223 231 255
53.5543 146.18 123.984 252 247 255
155.857 98.6004 112.396 235 238 255
69.074 62.3196 110.109 184 207 255
142.49 91.2111 112.149 213 225 255
29.7868 69.4701 113.351 191 211 255
93.6241 173.851 110.239 203 219 255
121.66 120.671 115.901 255 252 247
204.922 96.0687 111.91 190 211 255
108.226 109.359 115.465 255 250 244
93.2099 173.845 110.403 233 237 255
102.944 105.218 111.755 225 232 255
79.7238 198.73 111.946 197 215 255
93.6413 173.898 110.335 193 212 255
123.191 165.428 112.886 195 214 255
115.509 109.94 118.375 255 210 174
118.887 165.382 109.782 201 217 255
93.6433 173.899 110.339 212 224 255
85.3097 43.7825 102.371 203 219 255
101.57 70.4183 113.094 209 222 255
112.235 106.102 115.169 255 240 227
138.455 84.714 113.941 215 226 255
113.473 147.684 119.59 255 230 210
115.394 119.386 105.343 255 250 255
93.6429 173.898 110.338 198 215 255
117.636 112.854 108.723 255 255 251
43.131 95.4271 110.57 200 217 255
120.066 114.862 113.888 231 235 255
132.106 188.311 138.878 204 219 255
93.6415 173.897 110.333 197 215 255
114.883 109.121 111.526 238 239 255
90.4566 113.504 110.208 228 233 255
199.911 83.9379 115.667 185 207 255
93.6422 173.898 110.335 189 210 255
107.633 76.0125 120.528 218 228 255
112.202 136.815 107.767 214 225 255
30.5786 77.3824 103.523 203 218 255
125.434 116.436 115.195 255 99 0
34.0684 84.3364 113.122 185 207 255
130.786 93.9365 112.525 247 244 255
93.7688 174.161 110.717 255 249 255
93.6327 173.884 110.301 255 252 247
35.0532 161.031 117.046 188 209 255
107.615 124.702 111.38 255 210 175
123.428 113.738 118.896 255 243 232
104.721 111.313 108.652 255 242 230
123.255 118.442 115.995 255 220 192
93.5168 173.2 110.54 211 223 255
108.721 125.213 113.015 209 222 255
116.754 123.967 123.009 255 231 211
65.6584 158.07 83.3017 222 230 255
118.688 117.084 113.878 222 230 255
139.296 11.3906 108.409 191 212 255
93.6487 173.905 110.357 218 228 255
120.474 114.583 103.863 221 229 255
190.169 180.307 128.198 205 220 255
114.648 114.941 105.026 213 225 255
105.173 18.0978 117.244 211 223 255
52.055 46.6602 105.821 195 213 255
79.2957 141.074 99.5671 210 223 255
101.376 155.671 122.104 193 212 255
148.194 9.302 120.176 184 207 255
217.115 156.537 112.023 181 205 255
93.8838 173.772 111.703 215 226 255
93.5783 174.046 110.35 225 232 255
169.34 96.6397 114.11 222 230 255
123.769 120.028 103.076 219 228 255
166.132 133.666 111.325 242 241 255
79.1072 147.813 119.007 233 236 255
93.6316 173.882 110.285 255 244 233
193.098 111.066 113.24 200 217 255
116.32 136.756 110.738 255 253 248
184.618 109.302 119.922 209 222 255
145.05 18.8554 111.849 198 215 255
146.164 83.3428 106.841 197 215 255
122.996 94.4101 113.172 232 236 255
93.6475 173.904 110.352 214 225 255
102.314 54.6386 113.591 220 229 255
117.281 17.0107 114.466 179 204 255
102.013 78.414 114.933 214 225 255
109.424 114.387 124.187 255 236 220
50.0637 161.777 113.604 206 220 255
80.781 145.655 112.43 208 222 255
128.045 79.3433 126.393 210 223 255
146.389 147.074 112.322 211 224 255
53.9448 22.3089 91.0448 195 214 255
114.702 117.955 108.765 255 248 240
102.996 115.651 120.534 255 242 230
138.735 78.546 126.535 255 211 176
98.6666 135.316 113.015 199 216 255
129.691 77.843 123.663 222 230 255
94.3971 170.86 111.191 210 223 255
170.773 126.734 91.4085 250 246 255
116.106 119.09 115.35 217 227 255
117.07 113.598 96.3764 250 246 255
134.019 137.215 112.915 242 242 255
156.355 114.536 123.605 184 207 255
70.7646 74.9833 110.287 199 216 255
152.18 155.036 112.127 214 225 255
93.6377 173.892 110.319 201 218 255
191.489 80.4346 113.032 217 227 255
103.217 104.527 110.065 226 232 255
92.0879 112.917 108.71 255 252 247
110.84 114.843 100.24 255 248 240
194.983 137.105 116.852 184 207 255
113.815 115.3 109.368 255 227 204
153.251 101.155 115.466 255 190 137
57.6881 104.382 120.951 251 247 255
100.237 117.34 110.027 206 220 255
188.46 106.595 111.772 199 216 255
101.982 138.638 112.82 198 216 255
113.335 125.865 112.068 255 245 236
156.16 89.5788 123.07 195 214 255
191.004 80.9521 112.356 196 214 255
109.505 106.425 104.192 236 238 255
72.9055 61.3336 112.118 240 241 255
126.827 102.762 114.005 255 250 244
78.0356 11.3586 113.642 217 227 255
72.5735 93.3302 113.784 203 219 255
53.4988 51.4561 116.513 177 202 255
96.33 135.879 112.472 231 236 255
120.046 223.642 136.679 185 207 255
54.2925 68.3443 110.534 200 217 255
220.142 118.75 113.129 202 218 255
81.1978 212.431 111.722 196 214 255
111.143 103.981 106.973 255 149 47
91.8699 85.0497 112.893 200 217 255
104.961 152.796 115.648 209 223 255
76.7558 161.603 116.421 255 250 243
196.475 116.63 116.916 186 208 255
51.9421 116.188 125.732 198 216 255
115.599 37.2536 113.575 194 213 255
119.558 122.283 108.371 255 206 166
134.697 68.064 116.084 247 244 255
113.09 123.008 113.154 227 233 255
105.75 149.776 109.219 244 243 255
56.6788 195.388 113.686 179 204 255
77.6667 7.66368 113.472 199 216 255
46.8133 116.314 122.215 189 210 255
72.2418 59.3649 111.055 197 215 255
117.579 108.837 103.315 255 250 243
123.117 53.0432 118.47 200 217 255
106.061 159.379 122.487 255 244 233
68.9439 194.913 110.048 187 209 255
120.482 113.938 118.347 252 247 255
218.953 106.77 115.344 191 211 255
121.348 83.9404 108.801 255 193 142
113.317 138.757 114.782 249 246 255
122.972 176.419 113.147 186 208 255
169.517 161.001 115.816 194 213 255
128.229 191.205 113.283 193 212 255
93.6425 173.908 110.29 255 249 242
113.092 145.716 104.467 198 215 255
59.0742 98.471 109.688 209 222 255
126.937 167.62 112.489 183 206 255
93.6279 173.878 110.282 208 222 255
93.6478 173.904 110.344 206 221 255
106.775 160.904 121.615 255 239 225
164.121 117.709 125.97 217 227 255
102.515 30.5684 109.554 190 211 255
92.8298 67.8695 114.064 193 212 255
133.4 162.39 113.673 192 212 255
130.802 149.344 113.246 207 221 255
122.195 113.124 114.907 255 243 232
203.868 104.624 111.377 189 210 255
163.067 97.228 116.208 201 218 255
119.537 94.5993 114.431 190 211 255
142.287 168.982 112.748 222 230 255
84.1721 139.424 111.924 227 233 255
125.989 178.746 112.652 225 232 255
42.0835 104.565 133.925 211 224 255
93.6335 173.86 110.257 206 220 255
118.557 177.019 111.053 187 209 255
112.384 84.9157 116.614 255 193 142
61.1369 136.411 118.128 216 226 255
95.6006 157.738 120.695 215 226 255
92.1178 127.598 111.561 204 219 255
79.8147 13.7913 115.28 183 206 255
93.0785 69.14 111.116 192 212 255
164.764 115.682 111.373 214 225 255
104.559 118.133 120.316 217 227 255
59.0643 86.0792 101.811 203 219 255
100.017 163.323 96.7861 228 233 255
149.787 114.285 106.792 190 211 255
115.214 126.291 113.799 255 198 152
223.236 112.704 110.386 187 209 255
138.974 76.9184 110.898 211 223 255
114.733 127.914 103.333 246 244 255
74.6139 132.495 106.761 193 213 255
114.724 142.091 121.252 255 246 237
126.859 72.4036 128.833 242 241 255
105.416 129.877 112.524 215 226 255
182.838 187.928 112.75 192 212 255
22.2167 199.78 96.9939 186 208 255
162.152 122.333 113.954 211 224 255
151.24 155.164 117.21 183 206 255
104.982 205.352 123.629 184 207 255
97.5396 160.488 94.2148 255 232 212
115.824 165.765 111.697 180 204 255
166.192 116.453 108.467 189 210 255
209.51 135.333 110.236 182 205 255
39.3706 156.172 110.778 202 218 255
180.698 61.9356 112.556 190 211 255
93.9453 107.432 117.795 199 216 255
93.6202 173.858 110.252 246 244 255
73.4627 13.6734 93.9013 197 215 255
193.279 111.621 115.577 195 214 255
86.2118 149.461 109.72 203 219 255
81.4209 214.656 104.873 192 212 255
145.595 193.3 132.51 197 215 255
123.645 43.7527 115.48 195 214 255
126.348 77.9914 124.759 212 224 255
164.65 123.551 103.821 194 213 255
93.6303 173.878 110.279 239 240 255
117.011 120.275 105.264 255 245 235
135.088 157.506 115.113 186 208 255
131.842 75.1441 108.019 241 241 255
114.449 101.251 112.523 255 252 247
42.7992 217.632 111.347 181 205 255
115.448 112.987 110.52 255 243 233
130.151 69.8745 122.206 212 224 255
66.2596 63.5606 110.746 195 214 255
132.835 170.675 117.631 190 210 255
62.5027 45.1738 105.649 189 210 255
96.4437 197.559 111.414 199 216 255
180.093 60.4645 114.784 204 220 255
88.2197 177.591 110.406 255 240 227
96.1638 179.754 114.291 220 229 255
65.6682 135.154 121.638 207 221 255
165.083 15.3176 104.04 180 204 255
112.355 169.529 111.596 234 237 255
181.255 7.63557 107.515 191 212 255
88.3379 57.4332 114.762 203 219 255
116.732 98.0778 112.641 255 253 248
91.003 160.95 105.189 255 249 242
93.4742 174.673 110.915 191 211 255
67.672 71.4453 110.004 203 218 255
114.542 125.718 125.386 209 222 255
73.7601 143.011 119.523 198 215 255
82.3284 127.588 112.082 201 217 255
136.363 158.222 111.731 199 216 255
111.335 127.398 107.126 255 253 249
9.13664 184.539 111.361 195 214 255
93.6437 173.897 110.34 196 214 255
144.286 90.4029 99.9652 200 217 255
124.253 141.474 111.068 235 238 255
72.4532 208.358 128.524 194 213 255
120.163 75.0954 117.505 209 223 255
154.345 117.977 111.453 255 220 191
105.124 113.06 108.428 255 243 232
105.007 105.945 111.269 255 240 227
93.6523 135.66 112.764 184 207 255
94.0978 174.112 110.726 244 242 255
117.082 40.454 113.275 239 240 255
116.383 73.4201 115.628 195 214 255
93.6509 173.906 110.364 201 218 255
118.734 56.5002 114.055 192 212 255
110.111 124.257 107.191 195 214 255
114.254 141.71 106.141 245 244 255
86.9269 54.2456 114.096 188 209 255
192.935 94.0312 112.385 214 226 255
69.2704 196.315 110.686 179 204 255
88.1674 29.1381 95.0891 192 212 255
134.782 26.8557 109.442 193 213 255
100.065 95.3711 100.788 255 222 196
107.778 106.792 110.967 255 228 206
124.916 114.512 106.575 255 236 220
110.521 120.113 108.95 255 205 165
125.95 113.889 112.612 255 220 192
112.096 119.086 110.776 255 183 122
64.7312 52.0127 108.434 203 219 255
102.992 117.397 117.941 255 244 234
117.446 126.152 117.244 255 248 240
128.063 3.9299 113.984 188 209 255
101.928 132.62 114.694 215 226 255
120.971 83.5451 115.855 224 231 255
115.886 121.25 122.257 213 225 255
112.792 136.396 111.437 255 227 205
62.687 143.834 128.969 211 223 255
174.205 67.2069 113.288 200 217 255
111.572 163.154 112.451 193 213 255
119.274 85.5429 106.159 232 236 255
93.7289 173.946 110.537 223 231 255
107.855 110.173 112.177 221 230 255
110.385 133.378 121.183 255 255 251
114.482 124.434 113.96 255 186 128
123.745 76.2879 120.873 224 231 255
224.408 112.992 113.378 189 210 255
162.304 109.148 115.781 255 232 213
93.6681 173.927 110.494 207 221 255
173.675 96.7378 123.003 196 214 255
58.99 86.4447 112.116 255 253 249
88.2208 76.4344 111.959 202 218 255
93.6498 173.906 110.36 191 211 255
73.6339 47.5602 111.348 189 210 255
106.584 162.643 106.43 232 236 255
79.0032 153.949 124.079 217 227 255
100.995 164.18 109.819 250 246 255
105.456 108.805 116.066 255 212 178
78.0684 75.612 110.73 195 214 255
30.2944 41.0369 109.31 186 208 255
73.6321 140.244 131.744 194 213 255
93.5996 173.868 110.269 255 246 237
181.328 144.517 122.496 255 251 245
115.002 110.105 110.294 246 244 255
191.827 19.0219 112.275 181 205 255
134.177 70.1371 114.046 236 238 255
169.483 107.742 94.5052 208 222 255
107.781 58.0007 113.589 239 240 255
62.9665 76.0432 112.134 215 226 255
93.8014 172.587 116.694 255 233 215
116.488 179.16 114.114 195 214 255
78.8924 89.6315 112.467 189 210 255
105.056 100.696 106.186 213 225 255
31.549 51.4788 115.611 191 211 255
93.6356 173.888 110.311 186 208 255
115.508 120.946 111.399 229 234 255
93.5925 173.777 110.144 217 227 255
115.174 131.282 102.715 222 230 255
118.258 101.586 109.023 190 211 255
142.621 67.5874 115.868 197 215 255
76.5679 22.2007 107.496 188 209 255
165.24 126.923 111.466 218 228 255
101.041 106.784 108.295 255 245 235
186.901 74.2199 112.357 232 236 255
96.8731 126.214 112.545 194 213 255
93.6444 173.901 110.344 194 213 255
116.505 167.366 108.446 188 209 255
93.6232 173.871 110.266 219 228 255
99.7884 126.053 105.638 199 216 255
135.254 72.7021 115.786 195 214 255
156.027 90.0999 96.542 255 219 190
140.389 176.763 111.649 187 208 255
117.887 82.6502 113.688 202 218 255
108.427 118.626 112.114 250 246 255
107.48 104.251 111.191 255 217 186
101.773 171.861 119.771 196 214 255
186.363 150.455 115.459 200 217 255
107.828 105.609 112.927 249 245 255
114.104 121.974 113.404 238 239 255
113.919 101.439 118.351 243 242 255
76.5721 147.627 108.06 210 223 255
133.939 167.253 127.555 255 149 47
107.121 132.232 110.202 255 192 141
92.188 97.9284 114.441 255 247 238
121.471 88.9123 105.02 214 225 255
162.513 105.057 110.153 206 221 255
62.0245 78.412 111.949 198 216 255
134.455 3.24022 124.233 197 215 255
95.8749 52.4564 115.244 199 216 255
106.654 121.418 120.597 220 229 255
128.446 83.9893 111.008 221 229 255
63.3085 108.368 113.128 210 223 255
91.9981 105.826 116.112 255 251 245
141.41 115.269 112.288 192 212 255
103.399 63.3143 112.555 201 218 255
149.812 97.0183 107.264 222 230 255
105.323 157.699 103.249 255 187 131
82.4247 47.0937 111.996 199 217 255
152.535 90.9216 129.388 200 217 255
153.89 96.4367 124.204 216 227 255
139.36 179.652 110.234 184 207 255
160.868 63.4711 115.277 226 232 255
103.276 101.276 109.039 219 228 255
93.2533 173.815 110.295 201 217 255
135.807 65.3755 119.132 254 249 255
96.4182 105.011 104.323 255 249 242
165.148 144.655 108.896 211 223 255
161.618 142.702 103.194 255 189 134
93.6473 173.903 110.352 195 213 255
151.521 73.4959 111.542 193 213 255
93.6357 173.889 110.312 203 219 255
70.9955 68.3311 18.0196 193 213 255
93.6653 175.111 112.285 218 227 255
5.55716 88.3068 112.758 186 208 255
113.852 85.5183 116.676 215 226 255
93.6188 173.842 110.201 214 226 255
117.152 108.645 96.3013 255 183 123
93.6362 173.889 110.313 206 221 255
73.5844 135.836 111.338 199 216 255
104.851 134.877 120.683 205 220 255
162.842 156.272 116.721 175 201 255
117.501 114.377 110.711 255 248 241
115.082 128.127 105.217 255 240 227
93.6228 173.867 110.262 195 214 255
36.7909 214.594 108.164 193 213 255
98.4315 107.321 117.493 255 255 252
148.964 10.8892 106.654 184 207 255
102.868 105.355 110.247 222 230 255
93.6406 173.896 110.33 201 217 255
120.409 109.515 103.741 255 234 216
112.017 106.799 95.7445 203 218 255
115.837 117.201 106.675 220 229 255
193.608 11.0848 108.682 188 209 255
103.069 26.0793 114.452 185 207 255
72.4344 136.085 114.745 227 233 255
171.052 83.6072 113.642 203 218 255
95.7333 146.377 111.87 240 241 255
114.347 125.6 102.761 255 247 238
62.7172 141.413 111.852 199 216 255
170.033 14.4901 133.496 202 218 255
126.109 68.958 117.208 193 212 255
141.556 41.6655 113.22 203 219 255
113.768 124.132 113.381 255 237 222
145.517 54.2192 115.595 182 206 255
58.7284 93.4612 111.826 208 221 255
91.7505 89.7217 112.473 212 224 255
92.1915 55.3342 115.596 221 230 255
102.789 82.9141 110.42 194 213 255
93.6383 173.892 110.322 211 224 255
105.752 104.081 110.189 255 243 232
100.345 41.063 109.472 203 218 255
119.582 171.816 108.986 197 215 255
116.013 130.451 105.52 255 223 197
81.2443 96.8988 106.355 183 206 255
119.545 120.051 116.133 255 124 0
123.837 113.175 112.161 255 248 240
87.8069 26.5852 108.557 198 216 255
65.496 133.434 115.674 215 226 255
93.6269 173.872 110.292 255 234 217
185.696 108.164 112.31 189 210 255
112.896 122.365 113.613 217 227 255
113.47 136.103 108.246 205 220 255
173.072 11.0402 109.075 194 213 255
153.027 110.741 113.9 201 217 255
219.81 98.3989 112.573 214 226 255
114.796 113.589 109.656 255 254 250
112.476 124.83 101.923 213 225 255
105.126 124.017 118.454 241 241 255
105.803 114.139 107.965 255 233 214
101.968 86.6412 112.835 255 249 255
93.3088 93.9925 114.378 255 240 227
128.931 158.965 115.076 195 213 255
113.468 123.477 115.284 255 249 255
88.6228 112.761 111.318 218 228 255
108.904 102.206 104.654 236 238 255
46.3961 209.701 111.636 197 215 255
120.651 113.082 111.904 207 221 255
155.982 186.256 112.74 200 217 255
43.9834 73.8464 113.292 199 216 255
50.2872 172.43 115.939 197 215 255
93.6418 173.897 110.333 255 247 238
95.7371 158.63 109.072 191 211 255
63.7796 117.795 114.929 196 214 255
140.577 85.8121 104.961 232 236 255
84.7728 108.886 111.216 216 226 255
200.848 105.409 114.575 222 230 255
111.277 115.009 123.851 255 222 196
94.068 75.7635 113.439 255 234 216
158.404 139.12 138.513 202 218 255
189.307 152.946 116.003 190 211 255
167.955 101.409 108.122 246 244 255
116.936 122.371 113.971 255 239 226
187.081 96.9405 111.206 190 211 255
114.598 113.746 104.233 255 187 131
218.021 146.964 110.367 181 205 255
110.416 113.486 116.686 255 202 160
105.722 111.386 122.821 255 244 233
113.745 125.088 105.042 255 221 194
79.2847 36.0917 103.431 189 210 255
93.6286 173.851 110.235 207 221 255
123.785 77.0838 121.62 239 240 255
112.668 36.8558 114 202 218 255
131.741 72.9403 111.846 226 233 255
143.191 81.7471 111.646 255 250 244
108.055 144.011 110.503 205 220 255
208.925 154.999 120.29 189 210 255
106.809 83.8014 122.624 255 241 228
106.218 106.263 126.218 255 247 238
157.004 179.483 115.398 179 204 255
210.935 166.27 110.191 188 209 255
172.807 70.379 113.672 191 211 255
112.51 84.1339 114.757 212 224 255
113.847 142.704 118.753 255 250 255
93.6548 173.91 110.374 195 214 255
117.463 163.135 113.167 205 220 255
113.24 135.739 110.365 239 240 255
93.6141 173.853 110.216 197 215 255
176.704 168.27 114.89 190 211 255
62.2596 117.199 114.683 194 213 255
114.468 119.614 114.252 251 246 255
108.725 107.826 111.657 231 235 255
81.8098 147.348 116.975 211 224 255
93.6336 173.91 110.356 204 219 255
105.968 105.585 114.342 255 156 64
168.178 25.2168 109.68 182 205 255
43.5791 128.793 110.993 199 216 255
95.0472 183.494 112.15 191 211 255
127.039 21.9481 111.885 210 223 255
75.3036 146.697 101.707 194 213 255
118.626 164.407 107.631 201 217 255
111.465 120.631 106.572 255 250 244
88.6175 180.606 110.967 196 215 255
88.6979 173.279 106.789 255 248 240
38.4055 153.183 112.589 183 206 255
100.77 150.904 113.316 255 245 235
152.299 196.066 98.1549 200 217 255
195.787 58.271 114.283 198 216 255
112.101 155.605 106.974 198 216 255
78.9996 178.868 100.087 249 245 255
87.235 120.102 115.449 237 239 255
64.2294 83.9534 111.53 195 214 255
116.127 132.024 103.76 202 218 255
120.117 127.848 114.627 236 238 255
93.6929 173.967 110.227 255 249 243
154.92 151.113 110.842 221 230 255
93.6386 173.808 110.893 205 220 255
141.771 171.334 112.532 198 216 255
160.772 41.9256 114.584 193 212 255
83.7716 89.3356 112.079 255 238 223
128.269 5.93885 107.567 189 210 255
116.527 84.0537 115.72 248 245 255
219.965 45.72 112.396 185 207 255
132.696 76.4315 110.373 255 235 219
132.782 13.1199 107.571 199 216 255
85.5155 159.843 116.518 255 205 165
66.4997 66.9455 113.182 201 218 255
167.663 122.414 117.549 255 248 240
112.331 59.4953 114.225 189 210 255
93.621 173.837 110.194 255 240 227
91.273 139.438 134.467 238 239 255
93.5887 173.958 110.491 199 216 255
123.245 105.428 112.869 255 237 222
117.934 123.243 109.85 255 243 233
173.431 140.095 119.209 201 218 255
143.159 157.652 112.77 201 218 255
56.826 94.076 111.247 255 241 229
14.9415 151.957 112.628 188 210 255
108.118 120.001 104.65 240 240 255
55.6189 208.348 112.075 204 219 255
120.789 121.802 115.952 255 210 175
64.5283 45.5987 115.343 200 217 255
102.985 100.098 113.51 255 223 198
93.0788 181.355 45.0222 193 213 255
160.542 147.944 110.307 255 249 255
13.8729 111.25 113.952 196 214 255
181.463 99.0729 112.897 245 243 255
84.6379 106.744 113.539 255 200 156
83.5718 144.223 111.606 222 230 255
102.691 55.3122 114.363 198 216 255
50.182 128.076 112.794 255 239 224
93.6277 173.867 110.281 255 234 217
29.4519 143.146 110.428 190 210 255
61.1278 116.587 113.883 255 254 251
127.892 50.7829 118.069 214 225 255
60.7314 134.895 112.446 209 222 255
166.638 152.162 107.329 187 209 255
122.079 101.471 112.997 255 200 156
117.644 143.058 107.252 221 229 255
93.7052 173.885 110.419 188 209 255
146.929 152.295 103.619 197 215 255
207.752 153.837 108.517 183 206 255
203.266 93.7791 117.395 190 211 255
172.389 156.285 100.416 208 222 255
109.002 119.781 111.601 255 82 0
93.7597 173.86 110.409 255 248 240
121.708 109.357 118.615 215 226 255
112.459 131.684 109.542 255 254 250
128.988 120.526 113.22 215 226 255
113.693 124.903 111.74 206 221 255
161.457 111.21 129.924 210 223 255
119.594 126.135 104.833 232 236 255
115.934 108.701 106.025 255 58 0
74.388 82.1434 75.4517 242 241 255
114.568 126.448 107.147 213 225 255
137.323 5.2052 106.062 197 215 255
60.0898 100.462 111.138 245 243 255
115.818 121.467 114.31 255 238 223
65.6758 55.5614 114.977 206 221 255
215.765 75.0662 118.12 190 210 255
40.3725 120.699 112.108 203 219 255
108.469 127.669 110.718 255 246 236
54.3081 79.6753 106.107 210 223 255
102.556 118.892 110.038 193 213 255
87.1417 53.3719 112.028 207 221 255
102.258 14.15 116.849 208 222 255
114.006 116.003 104.124 206 221 255
21.4593 162.998 112.791 234 237 255
61.0021 134.706 114.953 255 249 255
109.908 110.998 113.735 255 245 236
92.6831 166.252 111.969 215 226 255
93.7168 173.987 110.39 196 214 255
96.1775 96.2374 107.47 255 233 215
117.851 123.349 107.738 255 239 226
47.7346 88.8386 120.169 209 223 255
118.538 108.391 106.034 229 234 255
93.6395 173.894 110.326 199 216 255
172.212 145.824 108.015 199 216 255
95.4646 129.395 111.509 255 247 238
144.246 99.8966 112.004 209 223 255
115.32 79.608 116.917 226 232 255
93.6443 173.9 110.343 231 236 255
93.6394 173.894 110.325 189 210 255
53.1472 214.975 108.133 186 208 255
141.153 58.2851 117.29 223 231 255
117.117 92.1022 111.32 210 223 255
68.2842 67.2622 116.083 220 229 255
98.1716 130.548 114.306 255 227 204
165.585 104.122 104.901 206 221 255
10.3438 136.08 114.504 181 205 255
165.667 111.018 98.4316 212 224 255
200.945 136.923 118.8 199 216 255
82.1842 81.7277 113.006 210 223 255
93.6494 173.904 110.363 212 224 255
131.209 79.8538 126.924 255 250 255
156.918 36.7862 111.819 199 216 255
136.847 66.495 120.691 221 230 255
56.8899 35.9755 82.897 255 246 237
62.2256 103.85 114.02 187 209 255
153.702 80.3942 104.447 255 250 244
80.1131 97.7625 114.122 199 216 255
150.055 62.8248 114.863 255 254 251
130.136 142.048 113.672 229 234 255
93.6482 173.904 110.355 203 219 255
76.2042 174.462 114.027 203 219 255
93.6336 173.886 110.306 243 242 255
133.583 46.8742 114.983 201 217 255
45.3325 109.641 111.436 187 209 255
68.4191 46.229 103.982 224 231 255
128.016 162.268 110.104 242 241 255
117.144 126.966 106.738 255 253 249
69.7405 126.245 111.206 223 231 255
93.6447 173.9 110.343 219 228 255
109.232 137.695 115.92 230 235 255
113.229 42.5451 116.716 204 219 255
101.249 109.194 122.046 255 243 232
108.523 114.089 107.958 255 223 198
212.212 145.267 113.146 182 205 255
125.312 100.638 112.709 255 242 230
61.848 53.9648 112.271 203 219 255
144.01 73.9959 111.131 207 221 255
93.6446 173.9 110.343 237 239 255
106.654 120.07 111.764 229 234 255
59.413 90.4547 111.765 207 221 255
118.211 83.6681 113.232 255 245 236
69.9666 57.6501 159.704 192 212 255
105.254 167.606 103.931 255 235 218
38.4687 119.36 90.841 205 220 255
107.033 167.089 108.837 200 217 255
130.84 4.98027 103.735 211 224 255
108.14 127.273 110.3 255 246 236
135.072 69.4925 114.159 255 248 240
112.147 137.525 101.195 255 234 217
119.873 120.53 106.704 255 232 214
91.2165 23.7136 118.695 225 232 255
97.6102 84.0696 114.129 210 223 255
94.2166 162.881 111.676 192 212 255
111.333 106.308 123.43 222 230 255
89.6473 80.6755 111.344 205 220 255
70.867 106.482 110.469 253 248 255
70.2045 118.842 110.385 205 220 255
114.677 121.308 106.573 241 241 255
185.743 79.2705 112.57 194 213 255
164.399 46.761 110.477 235 238 255
106.608 119.717 122.54 216 226 255
133.552 114.895 112.575 210 223 255
138.166 0.158608 102.813 185 208 255
93.6611 173.913 110.388 223 231 255
111.579 186.417 110.691 194 213 255
63.4712 142.875 107.709 191 211 255
41.6996 96.2408 126.904 191 211 255
139.847 75.135 110.081 249 245 255
63.3301 150.029 112.1 204 220 255
107.559 56.653 118.217 197 215 255
71.7606 149.995 128.201 255 239 225
118.871 134.34 135.161 190 210 255
125.877 144.282 113.665 255 233 215
89.7986 17.8157 101.57 185 207 255
118.83 119.325 108.672 255 241 228
69.6803 76.7566 115.058 247 244 255
54.2969 50.9016 107.965 199 216 255
217.32 36.1223 110.791 189 210 255
114.656 116.157 103.141 255 234 217
168.29 97.346 111.915 184 207 255
124.135 176.842 96.6138 192 212 255
93.6464 173.902 110.349 214 225 255
192.836 168.528 114.292 182 206 255
93.6361 173.889 110.313 189 210 255
71.2411 129.538 112.927 211 224 255
125.092 88.8158 112.112 200 217 255
38.482 43.8042 112.959 201 217 255
76.6717 102.694 114.195 209 223 255
79.3652 28.6911 107.75 195 214 255
59.4971 153.052 114.88 249 245 255
93.6419 173.897 110.334 193 212 255
69.1242 146.032 117.921 213 224 255
111.076 152.341 114.136 255 229 208
93.6326 173.884 110.3 186 208 255
109.963 103.894 113.39 214 225 255
