ply
format ascii 1.0
element vertex 1341
property float x
property float y
property float z
property uchar red
property uchar green
property uchar blue
end_header
65.4576 150.981 108.1 203 219 255
123.862 102.211 115.578 246 244 255
92.0093 50.5767 109.418 255 252 247
159.143 202.782 110.38 194 213 255
58.3012 83.4214 110.183 221 229 255
125.758 124.483 114.478 255 233 215
122.47 77.3029 112.763 235 238 255
131.382 55.7668 116.066 255 234 216
94.5427 174.747 111.498 255 234 217
112.501 118.038 118.242 247 244 255
75.1439 184.462 114.223 192 212 255
200.438 106.338 113.593 179 204 255
102.698 90.0797 112.399 209 222 255
94.0357 82.9752 117.268 227 233 255
101.217 163.125 114.229 213 225 255
56.9754 51.1354 103.458 200 217 255
94.5503 174.76 111.513 222 230 255
144.506 145.476 110.179 219 228 255
149.093 108.325 109.607 231 235 255
144.415 119.371 117.39 255 249 255
96.881 166.063 109.902 197 215 255
110.481 82.681 115.813 255 222 196
117.86 108.81 108.781 240 241 255
106.714 105.23 120.095 255 212 178
131.845 87.5673 106.954 255 254 250
80.7291 165.068 113.249 228 234 255
100.463 85.188 112.397 227 233 255
144.359 157.989 108.179 205 220 255
94.5604 174.792 111.549 220 229 255
92.9046 123.917 120.072 206 221 255
210.217 134.167 116.642 181 205 255
114.346 41.4605 111.25 203 219 255
94.4683 174.653 111.617 197 215 255
130.021 210.559 108.227 184 207 255
113.667 114.407 117.804 252 247 255
184.208 119.839 111.236 220 229 255
38.3794 136.371 114.643 197 215 255
96.2101 100.533 119.796 255 252 248
164.58 155.713 112.445 255 228 206
114.474 51.0986 110.023 197 215 255
99.3031 188.692 110.787 228 234 255
94.5413 174.744 111.493 197 215 255
94.3605 174.546 111.729 191 211 255
148.069 129.826 113.371 221 230 255
193.631 175.647 110.022 199 216 255
73.6355 38.6098 110.702 195 214 255
122.935 31.7271 111.08 193 212 255
62.8138 45.0647 110.223 200 217 255
161.66 142.43 107.694 202 218 255
102.333 37.8615 109.33 212 224 255
70.2147 45.0624 106.104 192 212 255
142.334 73.5404 131.262 208 222 255
49.7899 79.9628 107.119 201 218 255
183.701 135.802 104.614 197 215 255
204.379 58.5621 110.922 181 205 255
44.3872 59.0904 110.997 205 220 255
137.736 188.7 109.779 184 207 255
105.201 81.3904 118.543 197 215 255
110.112 134.359 106.048 255 240 226
78.4581 74.333 120.925 218 227 255
109.986 119.862 107.28 222 230 255
123.894 107.324 112.093 209 223 255
37.7352 181.549 115.972 182 206 255
47.8466 153.839 115.411 203 219 255
86.5415 126.395 109.13 255 236 221
99.3964 103.463 111.225 255 248 239
76.166 177.604 112.478 204 219 255
133.852 23.6429 108.965 201 218 255
81.8802 125.911 111.748 255 191 139
172.66 133.288 118.909 189 210 255
127.522 133.317 109.787 255 247 238
89.9173 177.058 110.669 182 206 255
108.651 115.242 107.776 255 245 235
165.968 131.267 116.788 206 221 255
44.8845 66.0091 111.844 188 209 255
94.5584 174.782 111.54 211 223 255
90.7247 207.384 108.423 195 213 255
174.696 48.2652 113.99 197 215 255
154.597 60.3749 115.208 232 236 255
99.4502 115.087 108.089 255 223 198
150.875 63.5845 115.14 226 233 255
136.582 92.8082 112.797 255 214 181
119.906 147.031 112.493 255 219 191
91.9558 98.2386 111.37 255 246 237
99.4941 106.225 116.766 220 229 255
149.126 1.51826 115.61 189 210 255
144.131 158.059 113.518 255 255 251
143.988 122.949 108.318 221 229 255
86.6553 153.723 112.15 189 210 255
98.2646 152.392 117.807 201 218 255
114.185 168.358 109.882 205 220 255
118.717 150.773 111.032 196 214 255
120.056 61.1298 116.874 221 229 255
116.141 110.309 107.514 255 254 250
26.7948 162.218 115.427 187 209 255
111.65 84.8581 96.6846 225 232 255
55.444 125.586 114.252 241 241 255
75.7361 147.205 112.489 214 225 255
88.3817 64.7848 107.825 199 216 255
130.596 180.383 109.697 199 216 255
69.6875 136.114 110.255 201 217 255
105.265 119.392 120.999 254 248 255
130.085 116.74 114.702 216 227 255
104.264 80.4528 111.795 201 218 255
113.402 103.645 116.562 214 225 255
9.65703 131.42 113.765 184 207 255
188.76 65.8142 112.29 190 211 255
208.381 50.9035 114.397 189 210 255
138.403 84.4415 105.231 237 239 255
192.248 155.646 110.536 211 223 255
115.627 178.369 111.713 195 213 255
157.186 54.5614 112.849 194 213 255
69.8711 181.494 112.108 188 209 255
106.18 11.7754 124.163 182 206 255
157.018 55.8686 115.106 217 227 255
122.664 104.341 111.669 255 226 203
130.009 92.3803 114.14 215 226 255
59.865 90.1478 114.439 193 213 255
81.6204 36.3226 111.84 194 213 255
93.1474 173.846 110.098 219 228 255
67.3024 101.849 114.782 255 226 203
131.607 70.5902 111.98 207 221 255
114.17 110.809 115.215 255 187 131
63.485 130.559 115.73 204 219 255
148.231 141.605 106.737 255 192 140
193.669 183.38 116.441 179 203 255
67.9761 95.2816 112.065 206 220 255
122.976 103.045 109.747 216 227 255
164.409 104.203 112.405 199 216 255
151.004 69.4355 111.828 224 231 255
85.7562 87.0372 108.812 255 241 229
97.7151 101.907 118.725 208 222 255
116.822 208.883 86.7493 184 207 255
58.5992 146.022 111.292 203 219 255
80.161 105.345 131.856 194 213 255
60.8677 110.989 111.474 240 240 255
65.6963 174.802 112.225 199 216 255
173.762 123.928 110.069 213 225 255
59.2376 159.836 114.204 199 216 255
202.751 129.492 109.989 192 212 255
168.041 92.0056 129.428 223 231 255
105.372 81.8497 107.068 209 222 255
167.929 125.05 113.715 199 216 255
94.522 174.625 111.421 207 221 255
128.192 109.489 117.334 211 223 255
89.5627 109.613 109.948 225 232 255
93.5336 174.865 110.682 206 220 255
155.187 58.9391 117.011 185 207 255
137.756 200.858 115.27 190 210 255
129.637 78.3457 102.711 204 219 255
153.758 135.758 109.316 189 210 255
163.071 179.859 113.539 202 218 255
149.349 171.134 99.0624 176 202 255
92.3796 89.7689 113.019 198 215 255
88.6679 112.577 108.491 220 229 255
159.97 158.162 111.533 223 230 255
94.9741 174.961 111.29 198 216 255
175.164 126.031 119.528 255 249 255
165.798 121.414 111.968 197 215 255
133.642 72.5348 117.561 213 225 255
94.5469 174.744 111.475 199 216 255
55.1474 199.744 112.17 207 221 255
39.185 119.038 109.196 209 222 255
57.062 121.939 113.792 217 227 255
124.091 149.035 112 205 220 255
94.5441 174.716 111.419 202 218 255
64.18 122.366 107.057 248 245 255
94.4963 174.606 111.335 202 218 255
94.4515 174.678 111.715 255 240 226
95.9179 192.184 111.589 220 229 255
141.817 99.6402 105.883 200 217 255
70.0851 97.4314 110.418 203 219 255
78.398 30.0529 103.633 188 209 255
100.106 138.748 109.221 255 251 245
137.946 103.972 127.973 219 228 255
107.688 113.042 105.838 255 125 0
192.291 159.388 113.625 199 216 255
115.412 101.359 108.052 255 242 230
61.1161 61.882 110.502 187 208 255
164.197 155.196 113.916 226 232 255
25.0132 188.604 111.71 183 206 255
138.518 21.3411 109.911 192 212 255
127.086 129.935 111.175 255 250 255
60.7185 87.5416 117.252 224 231 255
114.686 141.588 111.956 195 214 255
9.95401 98.0466 111.345 185 207 255
123.694 123.921 111.311 255 221 195
76.6741 155.54 109.386 213 225 255
34.6463 67.085 114.278 191 212 255
117.053 68.5494 109.606 201 217 255
180.357 36.8177 113.704 183 206 255
115.377 112.71 107.731 255 240 227
140.887 34.8338 110.263 210 223 255
168.696 120.832 109.428 192 212 255
125.719 75.3491 110.119 255 210 175
216.187 127.5 109.489 194 213 255
154.607 146.595 110.086 196 214 255
54.6924 87.1179 113.314 209 222 255
121.174 135.269 111.572 255 178 111
107.881 78.3084 114.218 255 229 209
81.4348 121.433 130.201 255 235 218
150.67 174.152 112.75 196 214 255
12.7231 131.669 111.733 183 206 255
71.7193 92.4543 109.198 202 218 255
63.8294 113.902 117.748 197 215 255
70.6186 147.539 113.068 219 228 255
108.593 128.595 109.929 255 239 225
189.609 83.6389 110.651 196 214 255
133.601 128.659 109.737 255 216 185
95.0892 91.9279 112.031 255 250 255
7.32221 131.863 111.095 230 235 255
100.994 181.258 110.816 200 217 255
23.9438 143.972 113.052 179 204 255
141.191 70.8961 126.37 211 223 255
186.082 135.513 116.611 188 210 255
108.895 42.5188 107.554 189 210 255
133.77 96.1528 110.474 246 244 255
92.7324 65.6462 114.547 198 215 255
137.659 74.4199 116.502 255 249 241
147.195 115.349 109.007 239 240 255
94.1257 174.468 111.123 196 215 255
214.283 56.2618 116.485 189 210 255
84.3938 54.7576 115.505 192 212 255
157.867 193.658 115.71 204 220 255
136.51 70.8602 111.38 207 221 255
129.683 74.3201 112.009 255 238 224
152.398 126.95 111.16 228 234 255
112.769 120.571 108.191 255 232 212
69.0014 85.6013 106.963 206 220 255
110.755 122.745 118.576 220 229 255
78.0628 54.956 115.668 196 214 255
94.2376 45.8936 111.289 188 210 255
147.47 142.977 107.548 255 172 99
46.9355 110.283 106.575 234 237 255
94.5372 174.725 111.462 253 248 255
94.5147 174.835 111.559 219 229 255
205.299 139.809 112.803 195 214 255
173.84 129.942 120.616 210 223 255
125.462 50.5978 114.365 255 244 234
113.15 148.828 113.12 232 236 255
102.656 98.8033 114.629 199 216 255
110.586 67.3779 61.0363 255 230 209
94.4672 174.61 111.398 191 211 255
75.9208 98.3567 116.954 225 232 255
122.092 116.165 116.722 255 219 190
95.3133 58.7252 111.681 213 225 255
115.653 110.862 114.522 195 213 255
190.077 183.505 111.205 183 206 255
117.443 161.669 113.723 187 209 255
185.107 161.888 116.129 203 219 255
164.124 159.929 112.742 196 215 255
56.7034 112.181 112.464 190 211 255
121.052 113.099 110.686 201 218 255
56.9337 65.1885 114.161 206 221 255
150.352 134.15 109.444 210 223 255
129.994 132.722 112.435 255 247 238
135.225 67.6937 119.841 200 217 255
94.5352 174.734 111.493 239 240 255
144.979 130.701 118.056 199 216 255
144.252 79.7426 114.133 197 215 255
25.0149 70.1955 109.558 200 217 255
162.158 127.269 117.022 191 211 255
136.414 75.3211 115.064 222 230 255
100.625 151.97 117.095 209 222 255
128.65 200.948 109.75 186 208 255
84.362 96.9484 120.869 231 235 255
111.417 161.749 114.819 212 224 255
158.931 77.1648 113.861 255 232 213
91.2312 97.9792 103.776 255 227 205
55.2981 62.0795 113.354 201 217 255
164.076 109.822 109.511 197 215 255
176.855 129.432 109.923 200 217 255
89.0591 77.5528 113.82 209 222 255
90.4094 150.883 112.079 202 218 255
181.827 103.724 108.34 197 215 255
204.1 73.975 110.094 191 211 255
169.372 102.121 110.047 205 220 255
222.419 130.247 113.179 182 205 255
94.5544 174.769 111.519 194 213 255
61.9712 96.7133 106.701 200 217 255
184.648 125.474 112.964 193 212 255
112.262 119.395 108.05 240 240 255
141.529 52.7865 111.389 229 234 255
85.9633 35.9811 112.114 255 250 255
138.19 111.478 121.917 236 238 255
106.105 135.353 113.882 195 214 255
120.025 110.95 102.87 208 222 255
107.172 30.6832 112.678 203 219 255
141.735 156.542 114.741 255 224 200
142.345 78.9102 115.915 220 229 255
87.1628 207.162 109.923 188 210 255
94.5436 174.748 111.488 190 211 255
119.469 151.263 111.29 244 243 255
94.5398 174.736 111.464 212 224 255
139.243 84.4437 112.575 202 218 255
96.1579 112.275 109.587 211 224 255
111.402 152.835 114.484 205 220 255
17.7395 146.319 112.764 194 213 255
156.773 137.715 105.665 255 251 244
164.124 181.485 113.371 185 208 255
111.333 106.823 115.705 216 227 255
106.497 112.542 105.623 255 238 224
94.0536 173.856 111.619 194 213 255
122.956 30.1215 109.768 216 226 255
16.6349 176.22 111.949 176 202 255
63.9944 123.582 114.824 190 211 255
121.761 162.28 115.116 198 216 255
53.9472 91.5928 104.468 192 212 255
162.635 143.63 111.38 197 215 255
89.8795 157.98 118.932 228 233 255
108.467 124.211 113.588 222 230 255
218.55 142.711 111.307 188 210 255
133.586 4.58295 111.502 195 213 255
130.676 98.8727 107.762 208 222 255
118.718 108.764 114.929 255 224 199
120.303 131.284 118.48 216 227 255
27.7183 76.4116 110.213 193 213 255
145.722 159.331 109.694 194 213 255
116.836 116.97 115.467 202 218 255
116.001 29.1673 116.867 192 212 255
78.15 29.4465 107.758 183 206 255
54.1288 119.451 108.748 199 216 255
37.4961 163.36 114.651 194 213 255
205.151 143.816 112.825 188 209 255
47.7736 100.477 110.723 195 214 255
105.961 142.033 120.519 255 239 226
149.381 87.8947 115.282 255 233 215
71.325 93.0903 105.564 253 248 255
142.717 91.2122 110.218 255 237 221
115.224 120.442 108.897 255 240 227
156.81 14.512 111.825 187 209 255
183.077 72.2414 114.091 222 230 255
107.211 172.132 111.188 223 231 255
113.591 152.643 110.595 230 235 255
66.1351 81.7248 113.948 188 209 255
101.185 112.309 105.375 226 232 255
151.137 84.7051 116.688 255 247 238
71.86 125.318 107.549 214 225 255
102.986 172.434 115.133 196 214 255
94.5696 174.716 111.315 215 226 255
105.836 162.912 114.496 255 227 204
178.629 149.395 113.368 195 214 255
94.536 174.733 111.482 195 214 255
155.809 111.375 110.217 202 218 255
107.028 128.892 107.288 255 252 247
110.822 43.4683 113.106 255 253 249
119.705 96.9934 104.662 255 237 223
27.1609 112.964 110.232 189 210 255
34.7143 131.287 109.879 236 238 255
140.419 93.8685 115.574 255 219 190
113.057 108.33 120.145 247 244 255
175.496 20.5775 114.062 185 207 255
99.7478 159.213 114.303 255 235 219
122.97 206.897 114.12 205 220 255
221.018 104.304 114.469 245 243 255
109.219 120.578 111.544 213 225 255
94.5396 174.741 111.492 198 215 255
50.1015 80.6593 110.598 199 216 255
31.3321 129.542 113.544 197 215 255
87.7049 95.824 115.274 198 215 255
148.765 82.6199 109.002 214 226 255
170.019 146.062 114.107 214 225 255
115.832 104.12 120.649 255 209 172
94.5797 174.822 111.587 207 221 255
49.197 97.6021 123.81 206 221 255
92.3018 188.197 109.483 191 211 255
132.905 81.193 108.838 235 238 255
103.992 170.289 111.194 192 212 255
94.44 174.755 111.372 192 212 255
105.013 171.125 110.507 181 205 255
73.4964 164.209 115.722 195 214 255
147.342 105.878 112.068 255 233 215
163.414 135.816 107.721 197 215 255
18.4103 168.125 111.955 206 220 255
160.422 172.684 113.072 231 235 255
124.826 99.4389 120.412 207 221 255
183.151 106.919 110.858 193 213 255
122.074 120.728 111.011 242 241 255
90.9949 101.419 109.82 223 230 255
113.107 118.904 110.041 255 249 255
126.857 75.0921 110.088 228 234 255
94.5427 174.747 111.497 197 215 255
153.409 136.196 106.752 230 234 255
142.281 100.787 111.786 255 225 202
67.2444 169.83 107.691 222 230 255
148.392 196.666 112.918 194 213 255
94.8886 91.2201 113.956 255 254 250
91.8619 152.696 116.223 200 217 255
86.1478 156.055 106.118 215 226 255
53.1076 106.108 109.506 192 212 255
142.286 121.894 106.973 255 254 250
175.114 177.787 114.792 189 210 255
144.553 143.974 113.994 192 212 255
133.209 104.63 116.63 255 235 218
166.819 105.848 114.72 248 245 255
143.122 116.4 121.45 234 237 255
182.446 70.2951 113.168 199 216 255
167.41 90.4121 112.69 194 213 255
126.941 139.356 106.448 255 230 209
82.209 112.127 112.219 202 218 255
83.2179 35.5804 112.431 190 210 255
126.053 136.22 118.08 255 245 235
87.38 112.591 112.533 255 241 229
130.503 161.118 108.487 255 227 205
61.7896 41.2453 111.869 185 207 255
169.714 156.721 110.28 195 214 255
69.6942 49.6572 110.737 206 221 255
53.1952 166.047 114.984 195 214 255
93.2774 97.0438 120.417 255 227 204
194.505 69.4748 113.626 238 239 255
188.925 139.277 116.855 188 209 255
94.0416 175.708 111.504 247 244 255
148.041 131.623 106.734 196 214 255
96.1921 89.4842 105.962 253 248 255
78.1921 78.4981 106.843 255 254 251
120.518 113.154 105.612 249 246 255
69.9555 35.5171 111.174 205 220 255
151.074 84.8234 117.331 209 222 255
111.132 143.481 116.907 255 216 185
79.9981 144.378 112.41 232 236 255
104.242 163.029 115.108 255 252 247
49.696 183.102 111.432 187 209 255
131.85 36.2474 115.152 192 212 255
83.4221 108.567 117.401 222 230 255
117.168 112.608 112.893 255 248 241
138.853 112.383 114.123 255 248 240
93.3378 122.315 108.289 255 255 251
52.7368 34.4983 111.998 203 219 255
196.333 139.185 112.64 207 221 255
99.9943 115.296 102.977 255 254 250
158.02 94.9795 117.868 201 218 255
168.502 127.811 112.494 215 226 255
90.4524 76.8779 114.554 255 195 146
133.314 60.1128 112.74 221 229 255
134.863 175.258 114.978 189 210 255
129.693 197.213 113.536 204 220 255
190.339 53.5764 113.09 199 216 255
215.822 104.027 114.158 194 213 255
94.548 174.76 111.51 210 223 255
91.9358 109.545 111.114 209 223 255
104.902 117.385 122.681 204 220 255
94.5612 174.777 111.533 204 219 255
101.121 204.077 110.361 181 205 255
184.412 64.5141 114.304 248 245 255
65.8038 102.799 108.174 255 244 233
64.7226 188.606 112.384 232 236 255
138.719 157.171 112.802 205 220 255
107.722 162.941 110.189 213 225 255
114.666 111.096 114.92 206 221 255
53.8816 169.506 111.965 180 204 255
87.7739 113.696 108.637 204 219 255
103.53 25.9066 109.035 185 208 255
27.6148 136.415 112.506 187 209 255
94.9378 74.0458 116.883 227 233 255
170.672 62.1558 112.865 196 215 255
50.7172 117.184 106.958 229 234 255
105.935 22.6391 122.07 195 214 255
133.477 104.518 110.848 245 243 255
130.588 189.218 103.881 191 211 255
204.453 103.028 116.015 202 218 255
143.752 78.9503 116.111 205 220 255
145.402 144.252 111.06 214 225 255
39.1126 67.6451 111.449 233 237 255
94.4757 175.559 111.75 197 215 255
94.8503 106.684 106.174 207 221 255
116.075 124.618 118.953 219 228 255
163.373 173.308 117.148 201 217 255
112.299 116.516 105.367 200 217 255
102.298 109.123 110.333 255 252 247
96.9701 27.5244 112.078 187 209 255
128.801 102.78 117.818 255 204 163
176.661 181.731 116.13 186 208 255
59.3815 129.492 112.644 219 228 255
184.584 55.8909 109.37 193 212 255
123.233 82.2567 112.138 190 211 255
42.6334 151.834 112.237 206 220 255
132.246 47.7299 114.215 208 222 255
46.5331 122.747 127.328 207 221 255
162.995 103.476 110.75 251 246 255
100.762 117.046 117.238 255 179 115
195.146 145.042 115.339 202 218 255
93.3285 176.149 111.468 255 235 218
92.0524 87.8046 107.972 191 211 255
94.3278 174.085 111.217 255 223 198
119.766 79.6053 107.848 204 219 255
135.843 71.8768 120.943 255 254 250
108.547 93.1316 107.963 255 219 191
94.5211 174.681 111.367 210 223 255
110.927 149.123 118.32 209 222 255
101.774 205.003 79.5271 210 223 255
74.299 16.5916 113.674 183 206 255
75.1013 133.991 109.497 255 249 255
159.243 126.642 106.583 255 245 236
39.5662 120.344 109.502 200 217 255
90.9173 22.5295 114.563 182 205 255
42.4117 116.192 112.683 196 214 255
102.663 74.3798 119.126 214 225 255
144.914 77.2947 112.288 215 226 255
100.121 66.2759 111.3 192 212 255
85.925 148.188 103.583 225 232 255
30.192 146.985 113.005 205 220 255
94.4741 174.662 111.398 210 223 255
118.113 122.755 111.703 227 233 255
157.936 91.3045 113.056 220 229 255
85.5248 98.8378 117.886 255 91 0
85.1757 153.481 120.092 203 218 255
161.631 65.6469 110.883 184 207 255
150.416 73.4045 108.323 185 208 255
77.5196 39.8542 108.771 199 216 255
188.987 132.103 115.922 181 205 255
103.231 33.7027 110.801 209 222 255
145.003 64.3141 110.084 189 210 255
167.588 164.462 112.801 255 233 216
85.7766 105.832 113.927 203 219 255
117.703 109.795 106.505 255 221 194
85.1278 81.6736 117.228 237 239 255
63.0837 133.598 114.613 255 245 236
120.828 120.888 108.934 255 226 203
40.5721 90.3679 111.67 225 232 255
103.843 166.256 112.514 220 229 255
113.44 175.839 110.923 215 226 255
145.68 98.6835 129.502 216 227 255
120.376 74.7234 116.124 255 205 165
137.728 84.5752 106.623 252 247 255
5.72645 115.949 115.263 188 209 255
54.0488 120.996 110.603 229 234 255
83.4376 150.495 110.36 251 247 255
135.636 68.162 116.317 205 220 255
120.435 15.7782 111.606 197 215 255
167.646 30.0047 113.526 190 211 255
119.465 146.964 114.199 205 220 255
94.6637 174.904 111.667 255 229 207
111.597 124.299 124.498 201 217 255
121.246 150.561 114.294 255 234 217
41.3582 104.225 114.039 190 211 255
154.779 80.7777 116.618 255 189 134
116.272 130.509 108.837 249 245 255
101.028 161.646 115.703 231 235 255
116.941 120.462 105.088 199 217 255
47.141 197.464 112.152 193 212 255
47.0948 105.031 112.557 240 240 255
117.68 1.38423 105.379 191 211 255
122.243 138.841 110.426 255 233 215
26.8874 163.228 112.943 183 206 255
129.264 100.69 117.57 255 254 251
145.388 100.737 110.501 212 224 255
78.3012 144.445 111.584 223 231 255
138.111 114.502 112.987 207 221 255
124.177 130.44 112.253 255 248 239
166.115 158.813 111.411 180 204 255
156.781 47.1203 111.683 229 234 255
190.293 30.9686 113.078 182 206 255
117.208 111.76 113.937 217 227 255
129.535 185.766 110.733 221 230 255
59.4335 98.9007 112.324 255 249 255
68.543 121.581 118.115 254 249 255
73.482 119.554 109.172 224 231 255
102.884 114.119 110.922 255 113 0
217.035 60.4782 111.291 181 205 255
93.9382 40.2899 115.993 218 227 255
95.4979 43.6779 116.123 182 206 255
92.8433 176.365 110.335 255 232 213
141.164 73.5277 116.935 189 210 255
55.0109 98.175 111.257 226 232 255
35.8525 183.591 114.788 192 212 255
140.594 79.4683 111.365 255 231 212
114.568 126.473 119.254 255 237 221
143.758 135.539 117.264 246 244 255
94.5316 174.731 111.477 237 239 255
111.409 112.084 103.969 224 231 255
106.768 105.985 115.233 232 236 255
94.5393 174.757 111.501 208 222 255
137.56 114.098 103.87 248 245 255
141.771 47.0769 115.456 198 216 255
76.5146 124.513 111.19 209 222 255
24.0209 88.9042 113.955 174 200 255
94.0336 174.129 110.648 196 214 255
94.542 174.809 111.518 209 222 255
171.048 115.511 107.938 225 232 255
115.446 100.773 106.578 216 227 255
141.909 166.189 109.436 204 219 255
143.937 142.817 108.775 228 234 255
144.402 78.1176 117.474 197 215 255
24.063 49.0746 112.169 188 209 255
41.8266 72.4 114.337 188 209 255
152.443 165.329 115.779 199 216 255
66.9011 138.511 110.186 221 229 255
72.0719 66.1903 111.702 203 219 255
160.588 82.5008 114.003 195 214 255
118.723 127.387 110.085 255 164 83
110.668 112.234 120.561 255 253 248
26.6441 119 113.379 201 218 255
106.962 133.813 119.703 236 238 255
117.837 182.606 111.443 221 229 255
27.97 173.419 112.948 198 215 255
125.734 100.642 114.404 255 234 217
116.028 51.8888 115.524 195 214 255
52.7407 96.6875 111.837 226 232 255
27.2809 74.4674 115.862 187 209 255
160.854 136.804 112.489 194 213 255
166.828 193.791 116.653 183 206 255
94.1918 132.731 104.351 255 238 223
94.3464 100.389 115.952 212 224 255
91.0097 156.411 118.81 253 248 255
71.367 146.415 111.671 213 225 255
132.217 46.4174 114.074 204 219 255
55.5372 157.389 111.512 231 235 255
116.358 95.7974 113.116 249 245 255
16.8233 121.337 113.446 189 210 255
104.809 137.722 107.435 200 217 255
166.606 184.099 114.403 189 210 255
141.751 88.3245 108.428 237 239 255
82.0279 116.187 109.123 208 222 255
60.2413 134.152 111.019 187 209 255
107.606 72.8436 112.546 255 209 172
145.339 47.9516 111.291 196 215 255
202.17 129.108 110.351 184 207 255
142.244 87.1775 116.107 203 218 255
94.8962 133.818 103.982 255 252 247
110.556 118.104 118.586 255 219 190
54.4146 21.3489 115.86 195 214 255
90.167 155.195 119.277 255 251 245
114.579 77.9871 112.236 204 219 255
207.851 167.273 114.492 178 203 255
94.5076 174.717 111.517 200 217 255
107.687 146.426 112.319 236 238 255
120.453 106.036 112.801 255 244 233
137.162 204.456 102.011 214 226 255
82.8473 147.018 116.171 236 238 255
128.148 127.847 111.986 220 229 255
99.521 161.896 109.701 208 222 255
174.418 55.2537 111.643 197 215 255
85.5853 133.109 110.838 255 252 247
32.8638 185.788 111.2 195 214 255
108.972 79.9936 116.565 208 222 255
59.5013 113.516 108.138 205 220 255
94.5507 174.763 111.512 199 216 255
143.81 131.274 114.319 217 227 255
119.186 104.227 106.481 239 240 255
78.0699 137.34 111.526 188 209 255
126.356 87.6358 107.43 255 227 205
118.615 109.353 111.68 200 217 255
66.6711 177.095 112.108 196 214 255
146.072 158.882 113.556 220 229 255
96.2588 92.9883 109.37 255 218 189
162.046 118.561 90.2636 207 221 255
117.894 147.607 108.654 255 252 247
187.963 126.403 114.733 198 215 255
53.6817 118.679 109.515 213 225 255
112.087 174.011 111.142 204 219 255
167.488 151.84 107.894 195 214 255
64.5747 164.582 111.197 214 225 255
141.083 12.4787 111.429 189 210 255
76.0212 188.371 109.488 183 206 255
120.383 109.404 108.04 255 240 226
135.744 73.316 126.613 255 233 215
100.021 117.342 106.821 255 248 240
94.6042 174.925 111.523 197 215 255
53.1672 122.572 112.184 203 219 255
65.595 139.116 116.707 208 221 255
131.339 79.5319 108.396 202 218 255
103.758 127.055 104.579 255 220 192
146.767 123.39 118.823 210 223 255
61.5869 145.051 101.687 196 214 255
130.936 128.895 114.666 219 228 255
193.08 142.507 110.831 187 209 255
152.527 4.22109 106.283 206 220 255
95.2555 31.8363 112.462 215 226 255
76.7391 120.113 112.706 194 213 255
130.447 130.082 112.499 223 231 255
131.729 167.136 113.045 205 220 255
135.221 180.555 111.941 189 210 255
116.106 109.666 106.502 255 250 244
138.937 101.107 118.403 255 207 169
61.098 115.989 117.449 193 213 255
91.7563 65.3386 113.453 215 226 255
100.907 179.919 110.829 195 213 255
70.2258 40.1778 107.404 199 216 255
114.001 116.003 118.388 255 204 162
81.5399 121.112 110.58 255 225 200
164.558 154.75 107.254 207 221 255
40.9803 198.153 112.959 190 211 255
92.5773 53.1347 110.115 250 246 255
100.648 84.3219 110.739 203 219 255
63.0323 65.8675 113.351 194 213 255
124.463 58.895 114.64 216 226 255
172.994 97.4021 110.952 199 216 255
120.627 52.533 109.887 203 218 255
46.906 82.5753 114.716 192 212 255
208.348 145.464 114.833 193 213 255
70.385 42.7342 99.3938 193 212 255
32.9366 64.6263 107.012 185 207 255
148.023 75.3661 111.872 219 228 255
123.574 74.5869 111.213 255 252 246
98.6019 86.9308 111.524 247 245 255
24.8464 168.675 113.257 193 213 255
93.9775 175.042 111.097 228 233 255
188.471 148.81 117.594 200 217 255
173.415 123.655 112.241 214 225 255
162.395 113.56 115.273 203 219 255
45.3648 45.2073 104.602 204 220 255
58.0169 125.964 115.383 194 213 255
135.397 67.0093 114.484 205 220 255
171.148 166.913 96.3918 190 210 255
115.868 142.502 111.662 255 214 182
142.211 76.5141 112.87 255 211 176
114.538 119.519 107.671 255 222 196
94.0726 174.677 111.501 212 224 255
120.315 115.618 107.742 224 231 255
120.59 121.725 112.867 216 226 255
76.768 37.637 113.014 186 208 255
153.434 83.9922 112.942 198 216 255
94.6026 175.295 111.615 200 217 255
135.636 78.532 116.798 255 243 232
104.091 110.617 109.34 217 227 255
93.718 147.198 111.72 255 251 246
109.726 104.68 109.599 255 230 210
169.356 25.087 98.6943 187 209 255
139.282 75.8609 112.731 195 214 255
94.4613 151.532 117.391 255 220 192
108.232 85.3108 109.763 220 229 255
151.555 80.0951 112.784 216 227 255
68.2788 58.1631 126.379 188 209 255
67.2205 36.7802 117.13 188 209 255
107.794 111.693 105.987 246 244 255
117.027 114.68 113.151 255 233 215
93.2989 174.845 111.685 192 212 255
67.1579 105.662 107.309 220 229 255
127.238 104.992 111.06 220 229 255
87.4739 72.1562 109.241 232 236 255
104.464 74.0618 110.885 198 216 255
94.5375 174.734 111.485 196 214 255
130.093 131.314 112.176 213 224 255
45.1801 106.866 115.379 210 223 255
92.3242 163.864 111.495 206 221 255
136.769 147.842 110.682 231 235 255
68.7154 13.3981 114.533 188 209 255
143.27 77.2014 110.608 240 240 255
205.265 52.7231 113.072 184 207 255
190.629 141.89 113.857 192 212 255
92.9211 175.967 111.46 249 246 255
108.772 126.986 108.7 226 232 255
83.6111 96.7418 120.536 205 220 255
52.859 115.984 107.293 209 222 255
146.322 151.76 112.834 195 214 255
78.972 148.495 119.773 202 218 255
112.516 121.271 118.628 255 253 249
111.754 85.8477 119.419 228 233 255
127.142 130.439 107.716 236 238 255
118.937 105.205 115.133 255 201 158
95.2138 23.8729 112.862 195 214 255
181.686 148.809 118.09 201 217 255
85.7354 202.84 111.327 197 215 255
139.99 89.9486 116.314 204 219 255
76.6695 93.3928 116.549 233 236 255
136.26 197.85 116.42 184 207 255
137.19 194.999 114.189 199 216 255
6.4981 142.566 110.843 183 206 255
94.5334 174.705 111.337 197 215 255
32.3084 145.962 112.895 199 216 255
153.309 131.322 107.771 189 210 255
128.874 83.1043 117.583 247 244 255
149.852 147.91 110.22 207 221 255
102.416 124.733 107.161 255 255 252
59.208 157.218 110.623 214 225 255
104.422 102.737 114.272 255 243 232
77.7234 181.052 113.186 238 239 255
60.5666 181.849 109.876 202 218 255
190.151 96.9862 114.221 186 208 255
100.347 188.416 110.692 183 206 255
111.339 115.163 109.863 255 150 48
37.0961 39.3778 110.312 187 208 255
6.13258 91.2207 109.992 179 204 255
94.3217 88.8483 111.506 255 233 216
122.644 101.055 119.185 223 231 255
76.1912 91.4979 117.165 237 239 255
183.936 105.564 111.71 191 211 255
123.492 158.437 115.41 212 224 255
67.0702 113.804 110.032 222 230 255
62.0756 96.0864 118.468 204 219 255
216.8 120.344 112.372 190 210 255
111.375 119.689 120.164 255 253 249
94.483 131.364 114.948 218 227 255
107.8 111.465 102.414 255 237 222
94.5427 174.747 111.497 188 209 255
96.5002 106.152 119.535 214 225 255
97.5717 82.4748 109.71 255 247 238
156.933 95.8559 115.016 204 220 255
126.365 114.884 112.543 255 249 255
39.1921 116.954 114.291 185 207 255
17.8438 162.608 110.555 205 220 255
184.938 13.8807 119.995 176 202 255
130.017 72.427 114.07 195 214 255
117.034 119.561 113.566 216 226 255
129.588 37.3976 115.686 200 217 255
120.868 133.539 107.259 224 231 255
164.76 151.743 116.615 189 210 255
169.141 116.251 113.763 227 233 255
44.4588 185.713 113.407 194 213 255
68.1343 46.7286 113.665 201 217 255
174.441 114.817 112.645 241 241 255
130.639 113.355 112.384 255 254 251
110.411 106.333 107.19 194 213 255
37.701 101.757 110.451 207 221 255
110.748 156.192 113.611 255 237 221
94.2062 165.085 110.673 207 221 255
119.164 73.6933 116.034 234 237 255
93.9681 175.066 111.508 246 244 255
131.854 119.306 114.863 255 242 230
94.5661 175.257 111.5 230 235 255
151.862 84.504 108.505 198 216 255
126.233 96.1606 108.013 209 222 255
136.567 80.2899 111.979 255 222 195
114.867 113.73 115.963 255 238 224
169.578 112.202 113.999 220 229 255
85.352 21.4978 109.961 183 206 255
138.526 73.0889 115.373 201 218 255
139.605 105.12 111.193 255 246 236
157.174 73.14 116.304 224 231 255
83.0215 120.629 102.874 209 222 255
80.8439 8.55665 113.489 239 240 255
141.797 89.7933 118.116 255 231 211
55.8486 77.7567 112.018 207 221 255
60.409 130.972 110.122 239 240 255
89.5632 40.8344 116.105 190 211 255
93.6525 133.94 109.064 212 224 255
103.665 80.7787 112.641 238 239 255
45.0671 167.777 111.746 194 213 255
135.677 74.9854 112.068 207 221 255
93.0025 215.174 100.054 181 205 255
104.76 163.287 114.387 231 235 255
187.795 104.861 113.257 183 206 255
124.572 5.1069 101.141 192 212 255
119.039 79.2679 108.002 224 231 255
106.124 206.939 110.507 198 216 255
129.386 33.2179 111.724 187 209 255
24.2698 47.7415 112.443 195 213 255
118.158 168.158 115.157 255 250 243
107.205 112.398 118.636 255 192 141
91.5639 128.386 119.717 214 226 255
81.5314 111.751 109.957 197 215 255
71.9721 85.0637 114.749 255 245 235
214.757 134.685 111.843 187 209 255
94.5941 174.833 111.62 225 232 255
112.57 109.213 106.062 255 237 222
199.796 95.0517 113.717 204 219 255
92.3873 187.374 111.159 196 215 255
89.6931 67.7436 114.296 191 211 255
50.983 89.4679 120.405 194 213 255
94.4644 174.344 111.042 193 212 255
168.611 140.648 106.417 200 217 255
100.005 86.0489 111.939 206 221 255
46.3219 79.4267 117.192 207 221 255
80.5701 55.2655 114.303 227 233 255
38.9667 178.158 113.301 187 209 255
78.2839 145.36 112.034 225 232 255
105.404 103.667 106.466 255 220 192
79.2706 72.128 112.833 220 229 255
22.2571 127.328 108.701 197 215 255
86.0855 112.554 109.697 255 247 238
95.7769 54.3669 114.088 201 217 255
109.293 135.257 114.438 211 224 255
159.83 197.144 115.752 192 212 255
168.663 104.008 117.125 208 222 255
105.563 165.169 110.675 249 245 255
145.018 70.0781 129.856 216 226 255
54.8496 118.067 117.025 228 234 255
137.89 97.9612 119.48 211 223 255
123.128 44.4924 108.954 208 221 255
132.952 132.227 118.234 193 212 255
52.9917 111.106 102.631 226 232 255
101.861 120.041 106.073 246 244 255
123.44 144.853 112.035 194 213 255
147.334 94.8832 114.513 228 234 255
140.805 185.584 112.29 204 219 255
112.205 60.8454 113.862 207 221 255
129.707 117.341 103.779 207 221 255
66.617 16.1848 111.17 185 208 255
166.998 157.556 115.283 222 230 255
44.5391 88.2938 123.295 189 210 255
193.827 124.896 112.592 200 217 255
73.1253 143.005 107.148 199 216 255
186.175 175.858 108.659 194 213 255
49.6941 93.8877 109.642 193 213 255
97.978 19.3369 109.695 200 217 255
45.0431 154.959 108.647 206 220 255
168.496 92.4964 111.543 192 212 255
75.82 89.0966 116.753 246 244 255
162.263 22.2818 112.139 197 215 255
25.2544 81.5181 112.242 225 232 255
106.762 104.265 113.253 246 244 255
152.332 130.848 117.347 193 212 255
76.9059 47.5231 110.653 207 221 255
134.675 77.8428 120.063 211 224 255
59.7642 109.368 118.896 250 246 255
82.3921 55.3297 112.521 217 227 255
96.6993 97.4104 121.642 255 209 173
120.52 145.822 110.606 239 240 255
136.97 80.9562 117.924 253 248 255
129.617 141.448 109.117 219 228 255
94.5241 174.701 111.427 188 210 255
130.024 85.7301 112.445 255 212 178
125.697 104.144 113.247 248 245 255
81.9891 41.9601 112.415 185 208 255
143.803 175.221 111.634 192 212 255
224.455 96.3739 111.607 178 203 255
143.875 66.7455 114.393 244 243 255
103.749 78.8296 111.749 255 211 175
154.266 94.0568 109.917 240 240 255
181.988 135.693 112.392 215 226 255
74.0699 92.363 106.939 219 228 255
51.2597 90.8498 111.391 189 210 255
197.202 156.88 112.736 189 210 255
93.1222 173.633 110.891 191 211 255
196.53 148.745 112.439 191 211 255
115.829 139.141 113.183 213 225 255
144.448 57.7033 113.413 207 221 255
123.556 77.9393 107.168 255 221 195
77.8586 74.9235 117.347 205 220 255
94.565 174.842 111.596 187 209 255
101.834 201.257 111.715 196 214 255
191.837 181.415 110.019 194 213 255
177.734 84.2842 111.13 196 214 255
145.202 187.866 112.004 188 210 255
151.775 71.0144 116.441 194 213 255
110.132 118.837 110.12 255 230 211
94.395 174.86 111.517 227 233 255
207.769 104.704 109.392 182 206 255
156.518 81.3545 112.301 198 215 255
94.5475 174.755 111.507 197 215 255
117.732 119.562 111.67 214 226 255
59.0056 171.711 115.623 215 226 255
103.779 111.901 107.888 210 223 255
94.5429 174.747 111.499 211 223 255
101.128 169.295 106.827 199 216 255
181.102 115.537 107.559 191 211 255
157.197 115.633 106.357 217 227 255
126.051 136.001 113.345 201 217 255
113.75 119.728 103.215 255 206 168
103.197 54.8517 117.905 242 242 255
165.364 122.568 112.305 195 213 255
109.305 161.751 112.748 223 231 255
94.531 174.692 111.433 199 216 255
72.3173 59.2523 116.716 255 224 199
96.5272 177.129 112.784 219 228 255
196.961 74.1584 113.758 185 207 255
75.3788 212.623 106.057 180 204 255
124.867 73.505 111.037 244 243 255
122.786 78.1788 114.614 230 235 255
114.718 121.167 109.675 255 233 215
119.879 103.819 113.721 230 235 255
111.217 79.1784 114.566 255 217 186
130.29 73.1507 118.42 255 220 193
124.607 136.076 108.91 240 240 255
90.3492 195.55 101.089 189 210 255
3.83751 126.818 112.81 186 208 255
199.472 72.2545 113.633 186 208 255
80.4609 214.41 103.209 192 212 255
67.1405 115.35 118.279 187 209 255
108.237 94.6453 110.213 255 210 174
128.204 70.6918 113.574 255 251 245
130.249 74.5054 113.288 255 247 238
151.537 157.854 109.458 200 217 255
132.869 72.456 99.9036 206 220 255
117.837 95.3522 115.992 235 237 255
109.509 27.8802 113.581 190 211 255
173.618 17.4384 113.15 205 220 255
109.678 156.918 113.812 255 148 44
130.296 193.669 112.73 194 213 255
107.779 86.5547 108.159 215 226 255
206.261 48.9006 111.114 198 216 255
34.9279 183.517 109.707 188 210 255
20.0396 73.4059 110.338 188 209 255
153.817 80.7051 112.857 202 218 255
122.42 100.785 111.868 255 255 251
109.24 109.754 106.125 255 246 238
117.927 60.9336 104.51 209 222 255
165.88 107.029 131.063 205 220 255
43.1102 148.678 116.115 205 220 255
138.069 129.201 119.335 197 215 255
123.391 91.2517 113.215 231 235 255
58.357 119.58 114.643 206 221 255
103.295 135.406 110.895 204 219 255
112.115 106.931 122.554 240 240 255
136.335 87.1737 116.012 202 218 255
132.626 69.0485 116.12 205 220 255
115.057 147.529 118.84 233 236 255
112.82 148.646 110.639 195 214 255
128.503 3.72089 105.93 178 203 255
85.6138 91.9348 112.664 255 233 215
87.7041 103.857 105.01 217 227 255
123.006 162.291 112.006 225 232 255
140.613 142.807 108.454 210 223 255
165.371 118.463 117.801 228 233 255
108.701 114.976 103.538 255 211 176
94.5443 174.75 111.5 213 225 255
149.534 63.6335 108.485 194 213 255
214.936 56.0291 114.402 179 204 255
130.238 58.1195 113.142 198 215 255
104.958 77.4556 112.314 203 219 255
60.2627 116.009 110.475 195 214 255
103.826 89.2305 112.229 255 226 203
85.593 180.016 109.094 183 206 255
102.874 168.367 111.243 201 218 255
108.111 162.92 111.713 255 247 239
101.979 121.871 120.249 220 229 255
182.931 98.4952 112.2 231 235 255
84.7403 133.802 118.834 255 251 246
113.189 134.292 111.469 202 218 255
118.967 92.2297 103.757 229 234 255
194.917 31.2896 110.955 179 204 255
131.277 93.6678 107.84 255 249 255
99.2024 114.799 119.755 242 242 255
60.7147 129.502 118.452 207 221 255
156.26 44.7692 115.888 207 221 255
32.7622 47.4125 112.864 240 240 255
53.6216 83.0894 112.102 222 230 255
51.9347 175.43 108.157 210 223 255
101.953 122.89 109.42 213 225 255
173.067 125.213 116.464 197 215 255
108.2 119.802 120.687 239 240 255
52.5032 158.047 107.86 215 226 255
124.364 105.709 115.082 216 226 255
56.6048 120.762 113.715 203 219 255
63.4511 134.549 108.407 216 227 255
120.471 72.0917 116.085 226 232 255
86.2406 115.242 111.998 219 228 255
149.583 159.096 111.676 209 222 255
151.888 16.9794 110.599 189 210 255
131.464 121.59 120.294 211 223 255
49.2142 99.7479 111.695 202 218 255
139.697 202.956 114.623 186 208 255
51.7962 99.9351 119.044 204 219 255
65.0613 132.061 112.529 200 217 255
127.953 185.532 112.299 195 214 255
108.595 109.245 100.655 255 243 232
173.678 99.0662 112.165 192 212 255
96.3132 89.1651 110.185 255 237 222
108.77 155.842 111.088 255 227 205
133.113 72.6606 119.126 255 252 246
115.413 114.355 118.303 255 234 216
104.003 110.915 107.909 213 225 255
98.5425 98.0825 119.257 255 249 241
105.58 119.198 120.614 220 229 255
123.649 119.137 109.506 232 236 255
94.7577 58.7632 115.223 255 248 240
79.6892 198.375 116.451 215 226 255
96.8687 95.918 112.635 255 152 54
81.822 218.57 117.09 196 214 255
63.1582 54.7339 105.356 209 222 255
94.5137 174.722 111.557 255 244 234
86.2962 60.3313 109.528 202 218 255
103.627 88.8238 110.756 255 248 240
95.5065 58.2342 108.413 203 219 255
91.0834 209.929 102.394 202 218 255
89.08 115.161 109.156 255 217 188
85.8897 47.777 107.339 208 222 255
112.66 147.172 111.695 233 236 255
150.214 2.10101 108.276 204 219 255
110.653 198.035 118.407 196 215 255
72.7902 143.642 114.537 211 224 255
115.494 113.645 116.186 255 192 140
149.016 48.2175 112.742 191 211 255
94.5455 174.879 111.46 199 216 255
103.725 111.254 123.081 255 240 228
139.915 73.0976 116.123 216 226 255
114.257 84.9642 112.217 204 219 255
118.974 110.725 120.336 193 213 255
88.8339 153.017 114.249 255 251 255
28.0293 121.034 112.476 218 228 255
82.6752 64.8063 117.589 213 225 255
94.8638 174.664 111.567 203 219 255
94.5354 174.735 111.485 223 231 255
88.6221 108.993 109.798 255 213 179
67.7796 137.745 115.177 221 229 255
106.658 106.344 116.29 226 233 255
125.683 101.48 116.304 222 230 255
134.923 145.558 110.503 227 233 255
178.674 51.1965 107.884 187 209 255
69.5698 35.6194 106.561 195 214 255
106.963 120.519 110.374 255 171 97
115.102 106.049 116.531 255 252 247
192.103 62.0365 108.253 188 210 255
139.419 104.103 104.752 215 226 255
92.5689 140.974 109.561 234 237 255
98.0659 87.2558 111.104 225 232 255
94.6386 92.7554 104.142 213 225 255
94.5274 174.687 111.412 188 209 255
115.469 119.232 117.725 255 194 145
105.266 172.897 110.739 212 224 255
159.792 133.77 111.222 207 221 255
117.323 120.802 112.581 255 225 200
113.31 116.78 108.811 231 235 255
12.1583 130.023 109.12 194 213 255
94.5474 174.756 111.508 255 228 206
143.694 77.4964 114.292 210 223 255
92.4898 143.333 110.774 255 232 213
82.2675 124.967 119.278 255 227 204
52.7221 82.3754 110.524 210 223 255
138.372 80.216 112.461 208 222 255
104.087 94.8868 113.524 236 238 255
83.6075 153.809 117.508 217 227 255
135.061 19.6942 112.067 211 224 255
197.435 71.157 115.142 188 209 255
112.513 125.716 111.871 225 232 255
147.48 138.252 115.211 247 245 255
116.122 126.693 110.986 247 245 255
194.305 21.3371 109.469 194 213 255
53.6084 96.6448 112.375 202 218 255
122.116 109.202 116.018 228 234 255
21.73 133.02 112.385 207 221 255
58.2968 126.779 115.786 192 212 255
163.236 41.976 114.617 189 210 255
169.293 93.976 112.65 188 210 255
165.175 129.372 114.826 255 238 224
94.5619 174.777 111.519 255 241 228
106.506 35.0269 115.671 211 224 255
147.957 102.275 106.399 192 212 255
82.8114 160.904 112.112 213 225 255
8.30795 73.2625 115.269 192 212 255
101.671 151.991 112.645 244 242 255
132.256 132.578 116.256 255 127 0
176.216 82.3572 114.889 202 218 255
135.681 59.0819 113.149 200 217 255
133.841 81.3092 113.681 191 211 255
48.4006 79.0063 118.747 191 211 255
89.2804 170.534 113.051 199 216 255
14.3564 122.915 108.917 193 212 255
25.9082 65.4801 110.966 192 212 255
95.8862 150.839 114.979 255 246 236
59.3947 129.546 114.839 209 222 255
94.5399 174.739 111.489 202 218 255
191.515 77.1819 111.496 218 227 255
101.46 133.867 105.441 255 195 147
77.1853 75.8115 113.097 255 227 205
88.2417 109.083 121.309 219 228 255
111.262 55.1833 112.465 212 224 255
63.5486 130.808 112.931 255 246 237
42.9641 124.844 114.711 196 214 255
27.0639 101.242 110.356 235 237 255
93.7112 174.111 110.186 209 222 255
208.153 133.382 110.912 189 210 255
112.938 81.19 114.467 255 251 245
143.571 88.017 113.529 210 223 255
117.11 94.0564 108.455 217 227 255
139.747 75.607 112.902 199 216 255
136.401 2.67093 109.37 202 218 255
87.8735 35.8026 116.82 196 214 255
42.1632 62.8356 114.045 183 206 255
173.494 122.013 108.631 201 217 255
199.734 165.901 113.794 197 215 255
133.497 210.648 114.762 187 209 255
164.067 75.1678 111.644 232 236 255
75.2169 56.5619 110.366 220 229 255
64.3222 67.3744 109.015 191 211 255
114.108 77.8429 113.382 216 226 255
107.212 114.715 105.714 255 221 193
117.846 83.5079 119.58 255 198 152
143.412 78.7268 115.309 203 219 255
42.0055 123.08 111.012 206 220 255
211.186 58.6134 111.897 190 210 255
111.967 96.5652 109.213 217 227 255
116.785 56.2395 108.335 201 218 255
73.2033 109.257 115.331 219 229 255
214.529 111.102 114.043 203 219 255
172.983 185.086 109.58 207 221 255
133.51 129.45 112.41 255 226 203
77.2812 137.955 117.786 213 225 255
82.4557 74.7676 107.746 244 243 255
70.6129 169.704 112.537 200 217 255
52.0921 121.768 90.5303 241 241 255
67.5736 101.149 105.951 214 225 255
18.737 163.768 114.426 190 210 255
110.638 119.554 109.989 255 251 245
153.213 93.6419 111.347 223 231 255
103.444 167.72 113.033 208 222 255
102.683 17.9178 107.01 177 202 255
104.006 104.16 104.723 199 216 255
98.9897 178.098 110.862 187 209 255
26.3996 118.603 112.823 179 204 255
173.452 61.941 110.456 210 223 255
94.5453 174.753 111.505 221 229 255
152.093 4.4637 111.156 184 207 255
136.067 71.756 121.117 255 213 180
165.256 102.322 111.797 220 229 255
66.4153 187.402 111.482 199 216 255
130.846 122.909 112.481 215 226 255
53.8219 143.613 112.282 195 214 255
202.37 77.2551 111.528 185 207 255
109.838 135.549 109.742 201 217 255
37.3883 184.031 113.184 203 218 255
166.988 75.9992 114.125 208 221 255
180.3 101.015 114.62 188 209 255
118.353 123.997 106.587 255 243 231
133.943 82.5141 113.982 228 234 255
141.717 57.2617 113.902 222 230 255
66.691 103.677 112.243 240 240 255
94.5433 174.678 111.412 190 211 255
91.7051 157.771 122.836 255 240 228
94.557 174.436 111.228 199 216 255
141.84 179.523 112.143 206 220 255
94.5436 174.749 111.501 205 220 255
170.658 11.3859 109.156 186 208 255
99.8643 160.277 106.906 228 233 255
94.9397 143.574 107.75 255 252 246
68.3534 120.808 113.77 206 221 255
54.1402 147.04 110.486 193 213 255
219.854 103.909 113.683 194 213 255
62.7569 156.311 111.857 214 225 255
94.0076 42.1476 110.256 194 213 255
116.301 106.989 111.313 255 235 218
54.2676 192.934 115.777 190 211 255
12.7717 116.516 111.557 182 205 255
105.597 45.4036 109.029 191 211 255
179.963 21.0396 112.275 198 215 255
190.908 112.371 111.247 194 213 255
122.593 34.2472 112.334 229 234 255
133.493 128.21 112.985 199 216 255
91.4563 58.4276 105.833 193 213 255
149.559 114.518 118.832 246 244 255
166.115 121.935 113.144 195 214 255
147.272 76.5935 110.423 235 238 255
180.752 164.264 102.699 223 231 255
166.306 118.54 108.374 207 221 255
180.78 108.796 112.673 195 214 255
149.515 95.584 119.538 224 231 255
110.883 155.226 110.17 207 221 255
109.712 154.935 108.694 215 226 255
110.45 126.563 118.595 255 246 237
104.44 13.1351 107.789 199 216 255
66.1108 37.9486 111.721 191 211 255
104.793 172.733 110.263 204 219 255
73.0054 153.486 130.531 253 248 255
101.986 89.893 120.425 202 218 255
161.968 15.0395 111.928 214 226 255
116.124 57.7189 114.615 221 230 255
95.7604 79.052 110.116 223 231 255
94.5267 174.704 111.452 200 217 255
34.5936 80.612 113.037 212 224 255
103.211 117.355 110.184 229 234 255
63.162 143.25 110.496 214 225 255
121.383 149.785 113.17 246 244 255
119.968 84.7338 117.818 229 234 255
138.055 70.6568 120.886 255 252 247
104.086 97.1774 110.673 229 234 255
73.9791 64.8992 112.53 186 208 255
201.288 78.259 113.012 195 214 255
15.7034 82.9963 113.054 204 219 255
150.48 138.342 119.875 197 215 255
115.616 74.4652 113.806 255 240 227
138.158 102.066 112.372 247 245 255
167.143 170.489 109.094 197 215 255
15.7104 133.867 115.359 187 209 255
209.965 60.4615 109.607 186 208 255
124.002 125.978 111.61 255 44 0
31.0522 186.046 111.668 208 222 255
101.996 129.851 107.787 255 241 229
40.0564 78.8575 110.575 210 223 255
78.9824 71.1568 117.421 202 218 255
66.0347 124.99 108.608 220 229 255
23.0408 163.285 111.361 255 250 255
100.939 85.5179 118.854 236 238 255
78.5566 121.449 111.569 255 246 237
66.9356 92.4322 112.796 202 218 255
84.1589 68.7757 110.085 215 226 255
139.425 108.355 113.457 255 232 214
175.755 128.443 117.295 202 218 255
107.041 55.8638 117.546 195 214 255
1.00508 111.764 113.757 239 240 255
89.9694 121.734 122.229 255 240 227
60.8167 127.436 98.6904 210 223 255
118.137 116.051 111.984 255 248 241
69.7337 204.793 107.705 234 237 255
134.427 101.382 108.093 218 228 255
146.947 97.1033 107.127 243 242 255
68.4453 83.2589 108.743 205 220 255
137.239 116.581 109.741 255 218 188
122.225 189.753 111.838 255 248 240
94.5164 174.903 111.564 215 226 255
141.505 89.1729 110.69 215 226 255
90.8908 100.108 109.034 255 242 231
116.16 158.155 110.138 255 228 207
133.595 50.5323 110.258 218 227 255
81.6848 189.681 112.3 202 218 255
132.566 78.864 109.829 255 235 218
134.281 110.39 118.713 234 237 255
88.69 157.151 110.511 218 227 255
135.973 144.079 111.814 255 250 243
176.97 123.177 111.298 215 226 255
101.593 168.046 105.847 205 220 255
138.387 125.421 111.293 255 250 244
167.302 103.961 108.502 224 231 255
97.2201 1.01655 122.772 173 200 255
133.896 116.73 112.188 236 238 255
115.321 130.013 119.975 255 254 250
160.457 139.389 118.49 203 219 255
122.818 127.792 109.04 232 236 255
127.973 117.788 117.677 255 240 227
126.677 43.379 117.708 201 218 255
106.321 124.713 115.247 253 248 255
66.7243 106.148 117.998 255 252 248
80.2413 181.409 111.456 185 208 255
118.967 108.032 107.956 188 210 255
112.678 116.395 109.703 206 220 255
111.311 79.3063 112.204 214 225 255
103.246 119.209 118.218 226 232 255
60.0912 72.5318 114.873 193 213 255
206.058 150.037 112.372 184 207 255
147.22 182.245 94.028 194 213 255
107.263 34.0021 114.442 189 210 255
100.646 120.027 122.583 233 236 255
133.348 100.874 119.997 220 229 255
12.0763 146.682 111.475 200 217 255
147.341 30.7415 113.094 211 224 255
46.5507 213.976 111.133 182 206 255
154.937 62.7551 109.549 189 210 255
180.864 179.765 111.668 203 218 255
94.543 174.747 111.498 212 224 255
121.329 125.218 109.339 255 249 242
70.4244 50.2768 109.711 184 207 255
127.969 144.151 112.269 244 243 255
124.615 178.508 114.067 202 218 255
105.972 135.302 119.308 237 239 255
45.0273 85.8664 113.512 187 209 255
68.988 140.194 116.114 202 218 255
190.604 147.839 117.317 218 228 255
160.71 151.752 109.519 192 212 255
94.5427 174.747 111.497 181 205 255
134.432 153.954 116.14 196 214 255
50.3182 103.582 110.154 187 209 255
123.828 76.5474 108.854 255 248 240
71.1028 100.377 110.998 203 218 255
115.167 112.094 114.888 232 236 255
97.076 27.2894 110.317 191 211 255
134.766 5.38493 111.28 213 225 255
101.587 87.3199 108.702 215 226 255
93.0633 7.73341 109.352 187 209 255
190.336 131.09 114.397 227 233 255
164.109 146.117 111.762 195 214 255
99.2101 99.8698 118.372 207 221 255
153.844 161.994 116.977 236 238 255
