ply
format ascii 1.0
element vertex 1342
property float x
property float y
property float z
property uchar red
property uchar green
property uchar blue
end_header
149.76 169.338 110.227 196 215 255
62.4814 95.1774 109.183 190 211 255
129.97 118.635 107.207 201 218 255
75.7125 57.4551 109.271 206 221 255
145.787 143.667 108.61 210 223 255
132.76 142.351 111.736 255 247 238
150.26 70.296 117.695 200 217 255
108.276 171.956 109.606 239 240 255
142.647 139.615 119.672 199 216 255
160.827 85.806 109.474 197 215 255
39.6309 47.4305 111.251 200 217 255
155.857 139.568 118.19 191 211 255
152.7 76.3584 110.426 222 230 255
91.4665 138.092 123.634 209 222 255
104.808 217.926 113.099 186 208 255
88.0421 86.9218 124.214 231 235 255
109.335 154.108 123.646 212 224 255
172.172 90.7696 113.781 255 232 213
94.0509 89.0645 99.3332 255 227 205
73.8743 52.7385 107.451 201 217 255
160.098 124.096 107.946 197 215 255
175.386 138.52 112.246 200 217 255
98.6638 69.0311 115.465 209 222 255
66.7351 141.316 113 202 218 255
169.523 115.711 112.69 197 215 255
208.087 102.311 110.271 191 211 255
162.316 116.663 114.62 205 220 255
210.484 159.044 111.997 182 205 255
96.8331 183.787 110.849 194 213 255
70.2063 83.1396 104.312 200 217 255
183.141 147.668 113.752 193 212 255
108.383 117.498 102.865 240 240 255
157.538 62.8867 110.081 229 234 255
108.887 38.6004 109.185 255 250 255
141.63 119.826 125.082 236 238 255
96.5443 129.014 116.517 195 214 255
125.538 111.555 92.1149 208 222 255
128.796 37.2973 115.59 203 219 255
134.06 161.773 117.342 255 224 200
157.364 85.5983 107.288 220 229 255
57.1025 193.437 114.733 188 210 255
106.333 172.517 115.672 190 211 255
117.828 151.829 105.258 244 243 255
86.0859 172.344 110.681 212 224 255
144.7 95.3811 111.334 202 218 255
91.9008 103.313 107.812 211 224 255
106.409 145.16 104.629 205 220 255
14.8443 117.2 114.462 194 213 255
149.636 148.267 104.3 255 251 244
149.46 199.089 114.734 185 208 255
114.035 101.295 119.794 216 227 255
103.75 106.514 98.2708 255 238 224
68.5915 149.785 112.339 194 213 255
143.565 40.1846 110.029 216 226 255
8.98389 143.468 112.469 176 202 255
65.6964 106.981 118.289 190 211 255
119.76 161.637 119.481 198 216 255
52.2753 67.7494 110.918 192 212 255
151.851 153.879 110.082 197 215 255
74.8147 143.331 109.221 228 233 255
101.858 120.831 115.661 222 230 255
4.32115 91.0973 111.231 179 204 255
203.823 169.56 110.57 188 210 255
156.287 23.2139 112.347 195 213 255
138.396 104.226 104.312 208 222 255
122.188 110.542 115.238 255 224 199
117.824 133.598 127.503 216 227 255
39.888 53.5781 112.248 193 213 255
136.344 164.942 105.704 194 213 255
115.581 121.14 117.928 202 218 255
137.412 37.7298 115.622 192 212 255
101.711 31.6785 115.278 183 206 255
53.0576 102.115 117.974 199 216 255
27.6491 137.514 113.059 194 213 255
192.085 167.766 110.721 188 209 255
58.8734 85.3861 113.4 195 214 255
98.5349 134.504 127.744 255 239 226
153.253 101.34 118.005 255 233 215
78.7513 81.3293 102.728 253 248 255
147.515 101.709 107.622 255 237 221
116.438 127.743 97.737 255 240 227
175.612 38.0534 110.038 187 209 255
190.958 94.4678 112.514 222 230 255
115.041 166.93 110.209 223 231 255
110.969 148.818 119.194 230 235 255
78.0073 70.8305 114.8 188 209 255
97.432 104.098 99.626 226 232 255
162.268 93.4768 108.497 255 247 238
57.6934 114.542 113.236 214 225 255
84.8624 150.75 110.376 196 214 255
73.5847 162.662 115.388 215 226 255
104.727 148.099 106.88 255 227 204
172.565 170.477 114.968 195 214 255
94.7627 169.81 117.16 195 214 255
178.073 127.224 111.917 202 218 255
97.0396 124.869 100.12 255 252 247
129.308 47.3865 112.074 255 253 249
128.299 96.466 98.7936 255 237 223
29.652 88.3813 111.433 189 210 255
31.5303 107.34 110.258 236 238 255
145.735 103.665 116.192 255 219 190
115.741 103.374 131.185 247 244 255
191.61 47.7501 113.782 185 207 255
89.7183 141.722 122.845 255 235 219
105.462 200.745 112.586 205 220 255
215.828 134.778 112.152 245 243 255
113.15 120.598 99.2208 213 225 255
92.6806 175.789 111.731 198 215 255
65.4768 68.2683 114.581 199 216 255
29.227 104.849 112.199 197 215 255
90.2688 86.2187 120.246 198 215 255
161.799 91.2547 116.981 214 226 255
158.176 158.443 118.358 214 225 255
122.662 101.183 130.115 255 209 172
100.423 186.141 115.904 207 221 255
49.6652 79.8982 109.898 206 221 255
58.1474 176.349 110.436 191 211 255
140.485 88.8204 102.721 235 238 255
70.7637 186.555 110.239 192 212 255
82.2607 158.066 113.22 192 212 255
78.5007 192.601 111.384 181 205 255
55.7423 145.475 114.408 195 214 255
149.312 116.457 112.128 255 233 215
169.425 162.376 112.89 197 215 255
11.4748 137.089 112.538 206 220 255
139.894 178.159 111.135 231 235 255
133.276 101.772 125.334 207 221 255
186.153 127.935 111.375 193 213 255
126.673 127.295 108.853 242 241 255
90.5635 93.3281 105.991 223 230 255
113.338 129.154 100.731 255 249 255
136.507 79.5837 102.223 228 234 255
86.6003 169.352 115.192 197 215 255
147.302 146.183 104.7 230 234 255
146.48 110.315 111.233 255 225 202
49.7804 149.353 108.865 222 230 255
128.313 212.971 111.063 194 213 255
99.7173 83.7027 119.822 255 254 250
78.5513 138.713 103.017 200 217 255
77.4569 136.692 115.92 215 226 255
46.375 87.6663 114.916 192 212 255
143.051 130.409 105.121 255 254 250
159.052 195.545 114.87 189 210 255
138.94 151.572 114.331 192 212 255
140.146 111.326 118.4 255 235 218
167.102 121.077 105.85 248 245 255
143.988 125.59 124.719 234 237 255
190.734 92.4821 112.163 199 216 255
178.638 106.341 111.963 194 213 255
124.891 143.227 100.421 255 230 209
81.425 100.754 111.981 202 218 255
106.622 36.042 109.666 190 210 255
123.978 139.496 125.328 255 245 235
85.0627 102.177 114.033 255 241 229
125.919 163.538 108.702 255 227 205
79.4981 22.2228 112.324 185 207 255
161.433 171.094 113.349 195 214 255
90.4487 43.6184 116.384 206 221 255
39.705 143.521 115.679 195 214 255
97.0582 88.6764 125.579 255 227 204
200.738 95.4894 114.799 238 239 255
181.812 161.538 115.876 188 209 255
67.1027 157.991 110.258 247 244 255
144.748 140.978 105.299 196 214 255
102.633 83.0476 99.3703 253 248 255
88.834 69.3817 105.458 255 254 251
126.996 115.868 95.948 249 246 255
89.2612 18.3633 113.616 205 220 255
162.471 93.3914 108.437 209 222 255
106.992 143.482 110.233 255 216 185
74.1416 128.111 106.628 232 236 255
101.328 153.326 110.4 255 252 247
33.3367 157.947 110.374 187 209 255
150.762 46.9377 113.719 192 212 255
83.7005 97.7998 120.66 222 230 255
124.936 118.619 111.884 255 248 241
142.487 120.682 115.798 255 248 240
86.7645 112.364 106.609 255 255 251
74.8084 18.7031 113.922 203 219 255
186.88 162.268 114.587 207 221 255
95.0555 107.02 95.9641 255 254 250
160.473 109.243 121.621 201 218 255
158.756 140.627 113.609 215 226 255
100.394 69.0471 118.114 255 195 146
148.594 65.2683 111.175 221 229 255
125.612 178.427 116.808 189 210 255
114.288 195.374 110.904 204 220 255
199.997 79.9618 114.399 199 216 255
211.401 133.19 111.115 194 213 255
89.9094 163.05 111.878 210 223 255
88.8288 100.262 110.948 209 223 255
99.7783 112.346 130.777 204 220 255
78.2165 176.503 111.418 204 219 255
70.6766 203.232 112.016 181 205 255
193.318 87.8606 113.69 248 245 255
71.586 89.2493 107.913 255 244 233
43.2637 166.606 114.259 232 236 255
131.907 161.762 114.862 205 220 255
108.543 153.381 117.913 213 225 255
120.667 106.625 126.842 206 221 255
39.529 146.753 110.406 180 204 255
85.0198 103.138 107.577 204 219 255
126.725 33.0627 109.082 185 208 255
25.2438 110.905 114.901 187 209 255
105.844 67.6646 120.073 227 233 255
182.166 81.3875 112.821 196 215 255
55.264 101.019 115.704 229 234 255
130.075 21.1359 111.853 195 214 255
140.452 111.184 110.099 245 243 255
118.545 196.307 114.772 191 211 255
202.34 129.332 114.966 202 218 255
157.867 86.3623 106.709 205 220 255
139.527 151.949 111.274 214 225 255
51.2171 46.3257 112.779 233 237 255
66.8925 160.787 115.165 197 215 255
93.675 97.1659 101.499 207 221 255
112.939 127.954 128.297 219 228 255
148.038 179.703 108.82 201 217 255
110.032 114.735 93.0651 200 217 255
99.4045 101.645 109.277 255 252 247
120.173 33.6132 116.539 187 209 255
136.795 107.447 122.359 255 204 163
158.629 198.948 114.999 186 208 255
56.9023 112.148 104.956 219 228 255
194.853 80.1186 110.055 193 212 255
131.18 87.0512 108.409 190 211 255
34.0122 128.311 112.529 206 220 255
149.156 55.8146 111.831 208 222 255
52.9726 110.705 110.351 207 221 255
160.704 117.917 105.226 251 246 255
96.4312 111.868 119.077 255 179 115
184.155 167.454 111.646 202 218 255
95.1037 150.425 103.112 255 235 218
97.8633 79.0141 103.284 191 211 255
78.3469 149.761 109.029 255 223 198
129.509 72.833 114.828 204 219 255
138.512 77.1903 122.429 255 254 250
115.895 88.1894 103.669 255 219 191
104.651 182.222 117.399 210 223 255
109.983 145.2 106.644 209 222 255
98.8368 205.766 114.349 210 223 255
100.949 6.29749 112.261 183 206 255
72.0154 118.51 105.837 255 249 255
153.93 138.55 104.851 255 245 236
36.884 97.9888 110.81 200 217 255
115.835 22.9157 110.171 182 205 255
39.3159 94.3718 112.132 196 214 255
113.051 69.6854 122.404 214 225 255
146.855 92.0344 112.524 215 226 255
113.135 61.946 109.829 192 212 255
75.0366 133.032 113.396 225 232 255
25.2133 121.223 114.593 205 220 255
80.0486 173.492 107.565 210 223 255
117.597 130.398 115.285 227 233 255
161.016 105.532 120.21 220 229 255
87.6511 88.8031 121.066 255 91 0
70.03 139.445 108.316 203 218 255
174.178 81.4437 109.066 184 207 255
152.284 87.0687 113.882 185 208 255
98.6012 29.4675 112.884 199 216 255
183.906 154.668 114.485 181 205 255
124.584 38.7627 112.496 209 222 255
160.171 73.7297 109.268 189 210 255
153.973 174.956 112.078 255 233 216
85.0986 96.026 115.472 203 219 255
120.145 111.403 104.302 255 221 194
93.8278 72.4923 118.672 237 239 255
59.2616 116.947 105.17 255 245 236
125.741 127.594 102.191 255 226 203
44.0338 68.283 112.482 225 232 255
97.6293 147.137 101.314 220 229 255
116.382 178.835 110.935 215 226 255
164.623 94.4947 111.418 216 227 255
129.157 76.4151 121.275 255 205 165
144.501 93.0868 100.851 252 247 255
11.4177 86.5068 112.907 188 209 255
57.7865 103.667 114.027 229 234 255
74.4184 133.08 118.555 251 247 255
150.664 71.6281 112.32 205 220 255
145.442 26.6655 111.629 197 215 255
184.012 52.8649 111.783 190 211 255
118.765 149.883 106.798 205 220 255
86.4487 172.106 117.931 255 229 207
107.453 123.093 134.845 201 217 255
118.314 150.515 122.033 255 234 217
40.8939 82.2014 114.499 190 211 255
155.473 94.9994 109.054 255 189 134
112.389 133.876 100.1 249 245 255
90.738 141.883 105.785 231 235 255
117.795 124.055 92.3368 199 217 255
29.6313 169.524 113.033 193 212 255
56.301 89.2561 111.249 240 240 255
141.366 13.5229 113.922 191 211 255
120.45 142.399 119.545 255 233 215
19.2834 134.954 111.586 183 206 255
137.426 105.47 120.761 255 254 251
148.648 111.18 110.569 212 224 255
71.7476 127.359 116.066 223 231 255
141.788 122.5 113.287 207 221 255
123.601 133.996 106.921 255 248 239
151.639 168.395 113.696 180 204 255
172.141 63.6241 110.222 229 234 255
202.712 60.85 114 182 206 255
115.933 113.028 123.192 217 227 255
118.526 189.186 108.729 221 230 255
68.4294 84.9612 113.419 255 249 255
69.0515 106.481 121.655 254 249 255
73.6084 105.596 107.024 224 231 255
100.543 111.179 112.295 255 113 0
221.357 94.2061 110.723 181 205 255
114.464 41.6843 117.379 218 227 255
114.926 44.4616 116.126 182 206 255
110.35 176.71 110.673 255 232 213
151.403 86.7205 120.267 189 210 255
48.9641 73.8479 111.604 226 232 255
22.9192 155.198 113.622 192 212 255
158.144 85.0904 115.362 255 231 212
110.178 128.005 128.779 255 237 221
140.542 143.872 119.09 246 244 255
85.2229 161.751 106.273 237 239 255
111.162 108.382 93.2355 224 231 255
120.249 117.115 121.777 232 236 255
72.9599 161.272 117.909 208 222 255
140.928 121.545 100.246 248 245 255
158.598 58.2619 113.958 198 216 255
74.9006 110.561 109.403 209 222 255
33.3552 64.8221 111.364 174 200 255
73.5693 150.021 106.784 196 214 255
110.176 170.879 116.073 209 222 255
170.023 131.367 116.936 225 232 255
122.927 96.9329 100.506 216 227 255
132.275 170.552 106.859 204 219 255
138.724 150.399 106.637 228 234 255
154.184 88.1502 106.684 197 215 255
45.2912 28.0633 112.2 188 209 255
51.5734 51.1611 115.884 188 209 255
139.564 171.394 117.575 199 216 255
58.6209 122.645 118.273 221 229 255
87.7027 58.7207 110.629 203 219 255
171.907 96.5726 118.268 195 214 255
117.92 133.135 102.539 255 164 83
109.362 108.976 131.783 255 253 248
28.0668 94.2093 115.306 201 218 255
98.9284 128.125 127.149 236 238 255
111.92 190.117 114.778 221 229 255
18.3547 144.234 111.996 198 215 255
135.554 103.526 115.455 255 234 217
132.296 54.7257 116.537 195 214 255
65.5914 83.0366 113.184 226 232 255
40.1971 51.6871 114.743 187 209 255
152.331 147.671 112.829 194 213 255
145.849 209.059 114.931 183 206 255
86.0099 122.579 100.409 255 238 223
95.7843 92.05 120.723 212 224 255
74.0123 144.801 109.672 253 248 255
57.3405 131.792 117.732 213 225 255
149.338 54.832 111.749 204 219 255
43.3044 136.463 112.058 231 235 255
125.025 93.0149 112.874 249 245 255
19.4704 94.0347 112.267 189 210 255
94.9065 130.304 101.551 200 217 255
150.054 201.146 113.944 189 210 255
147.248 98.7295 104.553 237 239 255
80.5419 104.351 107.22 208 222 255
46.9215 117.46 110.607 187 209 255
119.042 65.9845 110.271 255 209 172
161.596 60.4475 108.849 196 215 255
193.949 153.867 110.223 184 207 255
147.511 98.6763 117.193 203 218 255
86.8102 124.029 98.6139 255 252 247
104.249 117.032 123.507 255 219 190
80.9112 8.42601 114.633 195 214 255
74.0306 141.675 106.567 255 251 245
123.869 82.488 108.795 204 219 255
188.345 189.862 113.959 178 203 255
88.432 165.667 111.883 200 217 255
111.254 144.823 113.348 236 238 255
131.321 106.948 112.323 255 244 233
120.734 199.637 113.257 214 226 255
72.1318 132.592 107.048 236 238 255
136.311 131.573 112.556 220 229 255
87.4413 140.938 116.047 208 222 255
186.263 76.3977 110.823 197 215 255
79.9633 119.915 109.703 255 252 247
20.4991 156.139 114.232 195 214 255
117.6 78.3209 122.815 208 222 255
64.0929 97.5443 104.046 205 220 255
83.0374 165.073 111.541 199 216 255
141.905 140.083 116.023 217 227 255
127.312 103.003 99.3185 239 240 255
74.2449 121.162 111.633 188 209 255
134.575 91.8548 103.721 255 227 205
123.744 111.273 110.2 200 217 255
47.1959 155.917 113.841 196 214 255
136.707 164.625 115.478 220 229 255
101.08 86.1868 103.172 255 218 189
171.35 108.128 110.131 207 221 255
122.03 143.376 113.727 255 252 247
184.85 148.892 113.936 198 215 255
50.8486 101.121 118.04 213 225 255
116.693 174.273 112.761 204 219 255
163.751 170.469 115.985 195 214 255
49.1583 144.539 109.007 214 225 255
163.888 30.4214 114.007 189 210 255
50.2766 169.144 111.763 183 206 255
129.42 111.619 101.975 255 240 226
148.546 70.8626 121 255 233 215
93.588 109.537 103.133 255 248 240
109.762 180.45 114.467 197 215 255
43.7082 104.582 112.265 203 219 255
59.9436 122.839 108.081 208 221 255
145.036 78.8687 113.985 202 218 255
94.475 121.075 96.9964 255 220 192
145.603 133.026 120.285 210 223 255
67.4277 129.404 113.504 196 214 255
132.42 134.858 120.32 219 228 255
183.328 165.228 110.884 187 209 255
168.585 29.3985 111.647 206 220 255
118.846 17.3006 111.166 215 226 255
75.8634 106.763 111.679 194 213 255
134.628 139.603 109.946 223 231 255
125.826 169.53 114.847 205 220 255
124.348 183.253 109.879 189 210 255
121.867 108.547 97.5456 255 250 244
143.943 109.398 121.542 255 207 169
64.3649 99.9788 120.876 193 213 255
105.493 60.2834 113.438 215 226 255
62.3225 177.542 113.896 195 213 255
90.1921 28.9505 114.416 199 216 255
111.767 117.633 121.762 255 204 162
79.1236 108.635 109.377 255 225 200
153.22 166.084 113.562 207 221 255
25.804 168.342 110.064 190 211 255
109.711 51.2862 108.617 250 246 255
109.203 79.4361 103.496 203 219 255
80.6369 57.7525 116.507 194 213 255
139.22 61.3895 114.703 216 226 255
181.141 115.184 111.529 199 216 255
136.581 56.5734 106.589 203 218 255
61.7446 70.1861 109.046 192 212 255
194.496 169.925 113.235 193 213 255
89.5834 38.2179 115.164 193 212 255
47.7522 43.3114 109.593 185 207 255
161.461 84.9929 105.612 219 228 255
130.305 80.928 116.998 255 252 246
107.535 85.2194 114.262 247 245 255
16.5354 139.19 112.52 193 213 255
112.684 173.09 116.328 228 233 255
178.71 170.266 114.336 200 217 255
164.901 138.288 111.94 214 225 255
158.62 127.117 119.168 203 219 255
67.4817 47.6547 112.782 204 220 255
54.7532 108.791 105.25 194 213 255
150.342 70.9174 110.988 205 220 255
161.498 174.368 112.836 190 210 255
110.47 138.63 107.831 255 214 182
153.74 84.7418 104.555 255 211 176
116.313 122.796 93.8903 255 222 196
95.4683 156.547 112.661 212 224 255
127.637 120.629 100.23 224 231 255
122.712 128.878 117.542 216 226 255
99.6447 35.5395 109.464 186 208 255
169.977 94.7593 110.6 198 216 255
109.277 168.2 111.956 200 217 255
154.124 78.5659 110.575 255 243 232
101.957 105.792 108.376 217 227 255
67.469 141.08 112.09 255 251 246
113.079 98.5323 106.271 255 230 210
162.784 23.6784 112.94 187 209 255
156.814 81.4584 115.734 195 214 255
84.4441 136.069 123.608 255 220 192
116.528 83.5884 104.21 220 229 255
165.539 89.7922 107.1 216 227 255
78.4534 33.0767 110.883 188 209 255
90.1767 39.858 108.537 188 209 255
105.878 107.718 101.605 246 244 255
121.537 123.132 116.512 255 233 215
78.3446 152.761 105.994 192 212 255
71.8646 92.0284 105.694 220 229 255
136.916 109.449 110.048 220 229 255
99.2487 64.9036 109.03 232 236 255
114.947 67.1852 108.557 198 216 255
82.1295 180.299 110.046 196 214 255
132.222 138.694 117.748 213 224 255
53.719 91.3297 109.887 210 223 255
73.4107 144.626 118.237 206 221 255
132.365 153.611 109.098 231 235 255
96.7868 3.73464 114.107 188 209 255
154.4 87.8228 116.763 240 240 255
212.679 83.7618 114.662 184 207 255
181.958 164.543 110.665 192 212 255
67.824 161.673 115.142 249 246 255
98.0706 124.685 103.935 226 232 255
87.857 86.5257 124.189 205 220 255
53.3352 98.8191 118.48 209 222 255
138.407 158.541 113.078 195 214 255
74.9052 131.766 108.319 202 218 255
107.058 122.256 127.225 255 253 249
119.548 84.3446 124.666 228 233 255
133.684 132.999 115.648 236 238 255
129.795 104.568 117.73 255 201 158
119.519 29.8922 113.454 195 214 255
168.854 157.72 111.229 201 217 255
56.0475 187.01 112.691 197 215 255
145.52 100.067 118.631 204 219 255
82.6503 82.4161 119.77 233 236 255
85.0326 213.846 111.669 184 207 255
118.537 213.529 111.279 199 216 255
6.11782 111.054 110.506 183 206 255
80.4554 182.581 110.995 197 215 255
27.0726 120.577 115.298 199 216 255
148.424 141.413 104.256 189 210 255
135.456 89.5987 121.381 247 244 255
141.91 155.822 110.901 207 221 255
92.9777 118.383 104.551 255 255 252
46.3773 137.283 108.816 214 225 255
106.414 94.5432 115.781 255 243 232
52.9588 161.498 115.743 238 239 255
41.7084 159.238 109.826 202 218 255
192.424 119.839 115.587 186 208 255
64.3083 185.309 113.095 183 206 255
117.613 124.907 108.717 255 150 48
59.6571 21.4461 111.041 187 208 255
17.9527 63.5707 112.147 179 204 255
97.4623 78.1305 116.522 255 233 216
131.205 102.317 125.956 223 231 255
82.9934 80.3649 119.212 237 239 255
186.697 126.579 109.058 191 211 255
120.11 158.142 122.104 212 224 255
70.1384 99.3507 108.093 222 230 255
70.1919 82.5527 119.958 204 219 255
208.319 148.558 113.595 190 210 255
106.267 119.285 129.56 255 253 249
86.8637 120.618 116.512 218 227 255
106.576 105.244 92.8157 255 237 222
92.6666 175.732 111.671 188 209 255
95.0957 97.445 124.922 214 225 255
105.757 74.9349 103.767 255 247 238
158.042 109.848 119.746 204 220 255
134.713 121.358 113.402 255 249 255
37.3979 94.5917 114.744 185 207 255
11.9306 132.068 111.25 205 220 255
202.054 49.5367 111.317 176 202 255
145.03 71.9403 111.914 195 214 255
115.908 127.044 119.605 216 226 255
148.506 47.2451 116.023 200 217 255
118.433 136.187 98.8957 224 231 255
165.127 170.257 109.493 189 210 255
178.144 134.525 109.859 227 233 255
28.8956 159.023 114.002 194 213 255
90.4027 45.9019 111.607 201 217 255
179.129 133.81 107.604 241 241 255
137.528 120.058 113.645 255 254 251
112.414 102.929 103.744 194 213 255
39.4159 79.0632 111.763 207 221 255
107.041 147.436 104.275 255 237 221
75.9967 144.38 117.9 207 221 255
128.614 74.2038 121.415 234 237 255
107.024 170.753 107.855 246 244 255
136.282 125.83 118.637 255 242 230
73.0274 179.975 111.301 230 235 255
162.578 95.1506 117.293 198 216 255
135.024 99.1867 105.098 209 222 255
148.385 86.6587 111.239 255 222 195
112.221 117.005 125.104 255 238 224
165.759 127.775 119.172 220 229 255
108.919 8.95434 114.552 183 206 255
150.554 82.1212 118.207 201 218 255
144.236 113.643 111.335 255 246 236
170.133 86.7619 118.269 224 231 255
80.0661 109.052 99.9922 209 222 255
102.585 25.3254 112.236 239 240 255
147.096 100.492 121.749 255 231 211
72.5403 67.4385 112.012 207 221 255
55.8918 114.228 118.603 239 240 255
110.44 41.3625 117.258 190 211 255
85.5875 122.766 106.655 212 224 255
112.666 81.9464 110.493 238 239 255
32.8078 143.179 111.054 194 213 255
145.811 82.2673 103.259 207 221 255
64.955 211.012 113.839 181 205 255
101.952 145.787 107.225 231 235 255
189.448 126.905 111.029 183 206 255
151.557 10.1148 114.388 192 212 255
128.424 81.9558 102.12 224 231 255
76.7181 200.061 113.336 198 216 255
148.966 44.0892 111.906 187 209 255
45.8663 26.9044 112.521 195 213 255
117.559 166.554 120.603 255 250 243
105.142 109.824 121.08 255 192 141
85.485 117.408 123.005 214 226 255
81.107 100.274 108.384 197 215 255
81.4612 74.3817 116.443 255 245 235
202.71 161.406 110.739 187 209 255
75.3797 167.295 117.492 225 232 255
115.26 106.697 100.382 255 237 222
200.215 120.631 111.788 204 219 255
58.0578 175.205 109.548 196 215 255
102.867 61.8644 115.037 191 211 255
60.9558 75.7676 110.593 194 213 255
65.5244 160.568 110.933 193 212 255
164.215 158.105 113.629 200 217 255
101.918 81.0939 113.638 206 221 255
61.5404 67.9348 108.774 207 221 255
98.2482 51.1198 115.318 227 233 255
26.1201 151.151 113 187 209 255
69.9139 131.059 102.229 225 232 255
107.73 95.9748 100.411 255 220 192
91.8908 64.2245 113.691 220 229 255
22.6281 101.01 110.14 197 215 255
84.0635 101.823 109.61 255 247 238
112.285 52.7097 115.363 201 217 255
100.821 131.083 119.651 211 224 255
138.503 211.784 114.056 192 212 255
170.83 119.195 106.992 208 222 255
101.063 149.085 100.333 249 245 255
148.871 84.6615 122.724 216 226 255
51.2992 101.222 106.884 228 234 255
143.312 106.007 123.218 211 223 255
140.85 51.011 109.005 208 221 255
132.289 138.058 124.011 193 212 255
55.5959 95.731 115.1 226 232 255
94.0015 113.061 102.01 246 244 255
122.988 150.28 115.955 194 213 255
150.594 106.733 115.167 228 234 255
125.449 189.756 111.091 204 219 255
126.635 60.1751 112.959 207 221 255
134.076 123.508 98.1627 207 221 255
93.7901 5.63665 114.307 185 208 255
152.332 165.545 107.52 222 230 255
53.8879 74.8431 109.331 189 210 255
189.17 148.226 112.941 200 217 255
61.509 130.975 115.284 199 216 255
168.196 193.832 109.709 194 213 255
57.4016 76.8141 114.004 193 213 255
122.024 27.5898 115.13 200 217 255
35.3893 131.693 109.322 206 220 255
178.942 109.075 109.651 192 212 255
83.2074 78.4499 119.379 246 244 255
179.921 45.5429 111.479 197 215 255
36.4022 58.0172 112.777 225 232 255
108.713 96.4778 113.821 246 244 255
147.751 140.804 120.486 193 212 255
97.657 44.9484 109.59 207 221 255
140.33 88.1214 123.819 211 224 255
64.4593 93.9654 121.708 250 246 255
99.9259 51.4475 113.28 217 227 255
100.405 89.8375 127.595 255 209 173
118.168 141.161 113.482 239 240 255
149.049 84.4827 107.778 253 248 255
128.068 147.028 104.707 219 228 255
73.4451 166.795 107.376 188 210 255
137.361 92.5117 110.943 255 212 178
135.913 107.708 113.748 248 245 255
102.323 36.6471 110.796 185 208 255
135.678 202.595 113.178 192 212 255
220.7 128.405 111.547 178 203 255
159.581 75.135 111.237 244 243 255
112.563 81.4747 112.653 255 211 175
169.192 103.289 114.13 240 240 255
179.256 158.136 112.604 215 226 255
80.78 80.8434 106.483 219 228 255
63.9785 77.1177 107.768 189 210 255
182.45 177.938 110.856 189 210 255
104.309 191.05 111.934 191 211 255
184.093 170.742 111.139 191 211 255
110.333 137.11 118.152 213 225 255
160.154 67.8729 112.288 207 221 255
132.629 81.6839 100.621 255 221 195
89.8042 66.4725 119.535 205 220 255
77.8881 164.365 110.16 187 209 255
69.7079 195.386 113.811 196 214 255
170.969 199.916 113.476 194 213 255
185.148 103.941 112.811 196 214 255
131.263 208.299 111.184 188 210 255
166.299 83.1149 117.224 194 213 255
108.606 122.444 95.9459 255 230 211
92.8566 154.171 120.14 227 233 255
204.658 131.79 111.189 182 206 255
155.105 96.9348 112.181 198 215 255
82.4207 177.78 114.787 197 215 255
120.056 128.391 112.596 214 226 255
42.9084 149.658 115.929 215 226 255
99.6751 105.073 105.136 210 223 255
98.4236 179.411 111.629 211 223 255
81.8726 147.277 114.622 199 216 255
172.254 128.447 113.489 191 211 255
154.847 127.854 104.202 217 227 255
127.984 143.221 106.908 201 217 255
112.045 119.963 89.728 255 206 168
119.33 54.5128 119.602 242 242 255
158.251 135.501 112.798 195 213 255
109.057 152.464 104.578 223 231 255
101.277 173.716 109.732 199 216 255
90.0131 52.9605 117.574 255 224 199
78.0308 148.357 106.121 219 228 255
201.978 100.457 113.26 185 207 255
45.8914 199.225 114.608 180 204 255
135.202 76.5433 101.967 244 243 255
130.253 83.2762 117.947 230 235 255
107.71 129.415 110.592 255 233 215
130.419 103.339 114.715 230 235 255
120.44 73.136 107.329 255 217 186
139.077 77.769 107.712 255 220 193
122.733 139.329 101.871 240 240 255
60.6596 209.474 113.552 189 210 255
7.24271 96.0087 112.232 186 208 255
204.456 99.4497 111.981 186 208 255
54.4172 196.863 113.266 192 212 255
46.825 99.6732 112.649 187 209 255
115.063 89.1699 107.563 255 210 174
142.876 70.3967 109.411 255 251 245
137.191 81.6031 118.346 255 247 238
140.798 164.71 110.214 200 217 255
128.988 76.7213 112.918 206 220 255
126.62 93.3478 118.368 235 237 255
131.578 35.8003 113.777 190 211 255
192.832 43.2417 110.153 205 220 255
105.036 145.416 107.359 255 148 44
109.447 216.206 111.865 194 213 255
115.863 84.0241 102.373 215 226 255
213.991 80.8745 110.418 198 216 255
22.2809 154.856 111.241 188 210 255
34.5818 49.6281 111.305 188 209 255
167.187 91.7211 106.554 202 218 255
132.455 101.598 109.772 255 255 251
109.423 104.906 99.2164 255 246 238
130.027 77.6648 112.659 209 222 255
171.733 106.984 112.736 205 220 255
34.9327 125.614 114.429 205 220 255
137.239 136.814 123.074 197 215 255
131.895 93.5566 114.008 231 235 255
61.209 102.787 120.723 206 221 255
93.0031 127.372 108.271 204 219 255
114.913 102.424 133.576 240 240 255
142.657 96.6073 117.271 202 218 255
147.228 70.8887 112.546 205 220 255
116.087 146.986 107.3 233 236 255
108.305 140.137 116.913 195 214 255
154.967 12.5696 114.855 178 203 255
89.701 80.6732 115.354 255 233 215
88.5246 93.9313 101.427 217 227 255
121.157 162.277 113.708 225 232 255
136.379 149.706 105.409 210 223 255
160.727 132.275 120.773 228 233 255
105.889 110.227 93.041 255 211 176
89.9924 176.644 113.634 213 225 255
163.878 75.3243 106.609 194 213 255
220.28 89.6974 112.498 179 204 255
145.54 62.5886 113.147 198 215 255
114.213 70.5121 106.399 203 219 255
64.9946 100.038 106.178 195 214 255
111.636 85.875 112.092 255 226 203
57.0666 160.699 107.87 183 206 255
81.2009 193.33 109.744 201 218 255
106.814 151.348 102.295 255 247 239
95.4893 115.427 125.31 220 229 255
187.181 119.229 111.652 231 235 255
59.4793 130.21 111.667 255 251 246
105.265 133.57 112.854 202 218 255
126.583 92.002 97.442 229 234 255
206.173 62.7319 110.549 179 204 255
138.594 99.0415 103.908 255 249 255
94.8805 107.078 124.751 242 242 255
52.2168 114.083 109.019 207 221 255
172.164 61.4255 115.75 207 221 255
53.2888 27.9707 110.452 240 240 255
68.9553 71.6494 114.183 222 230 255
36.6177 151.595 109.661 210 223 255
93.7196 116.693 108.086 213 225 255
172.344 142.722 107.963 197 215 255
101.561 116.895 127.585 239 240 255
40.8571 136.27 108.131 215 226 255
134.867 109.223 117.155 216 226 255
60.4726 104.064 106.217 203 219 255
57.6566 118.56 117.098 216 227 255
130.383 71.8265 120.745 226 232 255
83.6329 104.287 112.279 219 228 255
139.094 165.38 112.51 209 222 255
172.1 38.1476 109.976 189 210 255
133.974 127.867 125.779 211 223 255
45.5112 76.6346 112.875 202 218 255
117.205 217.148 114.696 186 208 255
53.9583 82.4064 108.648 204 219 255
48.2135 117.447 110.955 200 217 255
117.695 189.071 111.348 195 214 255
109.693 103.734 90.2366 255 243 232
180.575 116.951 116.61 192 212 255
102.39 84.8878 117.876 255 237 222
102.93 144.275 119.823 255 227 205
137.367 79.353 122.868 255 252 246
115.118 116.613 131.181 255 234 216
100.667 104.106 103.844 213 225 255
101.37 90.5109 125.398 255 249 241
99.0973 115.014 126.166 220 229 255
129.838 125.274 103.205 232 236 255
110.086 55.906 116.939 255 248 240
86.808 148.643 111.884 215 226 255
101.349 89.6074 116.328 255 152 54
58.3404 193.428 110.704 196 214 255
75.6551 33.8369 115.039 209 222 255
87.0579 168.613 107.858 255 244 234
101.946 55.7833 109.926 202 218 255
111.473 85.2605 107.697 255 248 240
111.089 55.5229 109.08 203 219 255
64.6835 198.664 114.139 202 218 255
85.6253 104.669 107.72 255 217 188
105.303 46.0107 106.881 208 222 255
106.72 138.614 113.144 233 236 255
170.923 24.6098 114.246 204 219 255
75.0072 200.499 112.67 196 215 255
69.4844 126.089 107.852 211 224 255
116.093 116.83 129.459 255 192 140
164.938 61.8881 109.358 191 211 255
79.3925 149.971 119.907 199 216 255
101.22 104.091 131.394 255 240 228
155.064 82.2252 118.655 216 226 255
115.789 70.8607 113.796 204 219 255
124.786 111.573 132.432 193 213 255
78.3532 135.543 121.52 255 251 255
28.5824 96.3652 113.369 218 228 255
97.2181 58.8027 118.943 213 225 255
110.425 175.078 118.27 203 219 255
96.7718 184.319 110.883 223 231 255
86.6204 99.2792 108.537 255 213 179
60.9892 122.242 105.313 221 229 255
106.761 98.854 121.376 226 233 255
135.023 104.679 120.432 222 230 255
131.498 151.596 109.352 227 233 255
190.558 74.1462 110.374 187 209 255
100.753 30.6052 111.625 195 214 255
112.69 121.934 99.5457 255 171 97
118.878 117.755 123.525 255 252 247
200.104 87.9888 110.048 188 210 255
143.882 112.203 101.095 215 226 255
83.9025 127.891 106.026 234 237 255
101.83 73.7868 114.77 225 232 255
95.3893 86.5876 115.797 213 225 255
67.0382 170.393 109.124 188 209 255
112.544 122.78 127.864 255 194 145
89.3566 196.194 111.407 212 224 255
152.418 144.808 110.515 207 221 255
116.872 128.735 117.27 255 225 200
114.523 116.919 100.222 231 235 255
13.7141 101.133 111.627 194 213 255
93.5204 170.937 117.1 255 228 206
155.521 85.9941 104.646 210 223 255
83.8027 129.036 108.848 255 232 213
78.9274 112.057 121.356 255 227 204
66.5875 69.2479 106.58 210 223 255
143.914 91.5799 109.094 208 222 255
109.66 88.6637 115.602 236 238 255
77.5891 134.759 107.918 217 227 255
156.354 36.608 109.467 211 224 255
202.954 97.8608 114.554 188 209 255
103.829 127.319 115.756 225 232 255
142.422 146.989 116.507 247 245 255
111.224 132.141 113.903 247 245 255
205.914 57.9263 111.904 194 213 255
65.6427 82.5537 112.646 202 218 255
132.376 113.205 121.417 228 234 255
21.0099 106.115 113.263 207 221 255
52.39 109.657 106.059 192 212 255
178.61 61.3226 114.925 189 210 255
178.71 110.956 115.987 188 210 255
165.529 146.716 111.974 255 238 224
91.077 156.345 116.658 255 241 228
127.301 40.1223 115.495 211 224 255
150.368 113.236 103.432 192 212 255
63.2121 144.09 112.298 213 225 255
24.686 47.3467 114.464 192 212 255
92.8849 136.386 108.949 244 242 255
131.564 138.772 122.062 255 127 0
184.243 101.665 113.305 202 218 255
151.052 65.4768 110.111 200 217 255
154.243 79.0065 112.134 191 211 255
61.737 66.1281 107.598 191 211 255
64.8541 149.364 114.219 199 216 255
17.0085 94.8843 110.711 193 212 255
41.7998 43.2424 110.748 192 212 255
86.6009 135.18 121.458 255 246 236
50.9432 112.351 106.376 209 222 255
80.8806 161.82 115.736 202 218 255
197.016 101.542 110.932 218 227 255
92.3657 125.88 98.5442 255 195 147
88.8993 67.0202 114.166 255 227 205
87.5641 99.1967 125.214 219 228 255
126.965 56.1079 113.161 212 224 255
63.3751 113.254 108.829 255 246 237
38.8056 103.309 116.599 196 214 255
32.3592 77.0159 111.787 235 237 255
91.0845 168.429 118.473 209 222 255
197.552 158.86 113.095 189 210 255
121.073 75.5323 106.215 255 251 245
148.13 99.9647 115.468 210 223 255
125.874 92.4277 103.771 217 227 255
148.276 82.6873 113.976 199 216 255
158.223 22.7641 113.2 202 218 255
121.281 18.6297 112.049 196 214 255
55.4214 41.9821 110.936 183 206 255
172.115 138.617 118.501 201 217 255
182.055 186.871 112.268 197 215 255
106.959 221.744 114.918 187 209 255
175.463 90.8221 108.73 232 236 255
93.3685 51.5395 110.879 220 229 255
81.0379 58.8192 108.599 191 211 255
124.473 76.0296 105.742 216 226 255
102.34 109.719 98.364 255 221 193
125.404 84.3368 124.03 255 198 152
158.619 85.7376 107.387 203 219 255
37.9482 101.358 111.02 206 220 255
216.735 90.7759 112.976 190 210 255
119.366 91.8882 104.817 217 227 255
132.182 58.1638 107.858 201 218 255
75.6465 96.5255 117.917 219 229 255
208.702 139.446 111.29 203 219 255
154.571 201.464 109.996 207 221 255
136.707 138.227 114.379 255 226 203
72.2813 122.538 123.184 213 225 255
93.8743 66.6029 107.207 244 243 255
52.1347 149.57 114.089 200 217 255
52.2428 112.33 113.423 241 241 255
73.4505 88.1323 102.474 214 225 255
12.4338 133.302 114.733 190 210 255
112.842 122.647 95.3871 255 251 245
154.382 107.238 110.682 223 231 255
99.0838 148.271 102.662 208 222 255
130.107 5.99712 114.176 177 202 255
105.181 96.2799 97.6081 199 216 255
60.8938 172.365 113.993 187 209 255
27.9223 93.7919 114.399 179 204 255
184.453 82.0817 109.683 210 223 255
98.8916 172.035 112.261 221 229 255
176.525 23.031 112.454 184 207 255
139.077 75.8666 121.906 255 213 180
161.621 117.076 116.422 220 229 255
44.6096 165.843 110.186 199 216 255
135.835 128.164 114.67 215 226 255
43.7949 124.067 113.436 195 214 255
205.915 104.875 113.665 185 207 255
100.143 131.867 105.284 201 217 255
219.784 137.42 111.881 188 209 255
24.041 155.895 113.765 203 218 255
177.522 92.8398 116.831 208 221 255
185.253 121.01 113.208 188 209 255
119.105 129.055 95.3094 255 243 231
140.456 91.9459 113.001 228 234 255
157.629 66.3346 113.247 222 230 255
72.1796 90.2287 111.845 240 240 255
102.418 178.382 115.839 190 211 255
78.6974 141.439 107.564 255 240 228
84.9569 151.603 115.504 199 216 255
128.77 182.08 107.434 206 220 255
96.7245 174.406 116.233 205 220 255
186.531 39.3959 112.737 186 208 255
90.1389 140.686 115.761 228 233 255
84.95 131.257 101.795 255 252 246
69.7429 105.563 115.728 206 221 255
43.7419 127.169 110.694 193 213 255
214.913 134.122 112.227 194 213 255
49.0733 137.345 112.876 214 225 255
114.088 43.2575 108.94 194 213 255
123.431 105.479 109.379 255 235 218
35.0762 167.938 113.665 190 211 255
17.2085 88.5922 112.444 182 205 255
123.94 47.7536 109.265 191 211 255
193.534 50.262 113.676 198 215 255
190.136 135.038 112.968 194 213 255
142.405 43.1642 111.732 229 234 255
137.435 136.57 114.221 199 216 255
107.24 55.0185 105.812 193 213 255
149.292 124.97 122.122 246 244 255
177.147 137.139 110.363 195 214 255
159.764 86.2122 104.665 235 238 255
162.929 164.84 112.86 223 231 255
160.956 132.419 104.177 207 221 255
184.12 129.272 115.506 195 214 255
152.94 107.9 122.466 224 231 255
107.28 147.43 119.897 207 221 255
104.051 145.209 99.3689 215 226 255
103 124.924 125.76 255 246 237
129.198 10.7334 113.912 199 216 255
85.528 19.5246 111.952 191 211 255
90.9135 196.095 113.124 204 219 255
72.6284 142.47 111.624 253 248 255
108.485 84.4433 125.772 202 218 255
181.724 38.8286 112.882 214 226 255
131.077 58.8196 114.321 221 230 255
104.93 71.1906 105.048 223 231 255
96.1266 169.179 115.997 200 217 255
43.7364 58.2586 114.437 212 224 255
100.536 114.529 112.484 229 234 255
50.1852 126.745 110.833 214 225 255
119.467 151.786 118.353 246 244 255
127.745 86.8198 121.59 229 234 255
154.508 75.7091 117.246 255 252 247
108.898 90.2947 107.54 229 234 255
89.7306 57.8988 113.953 186 208 255
204.825 105.467 111.168 195 214 255
28.2745 57.8328 112.809 204 219 255
144.67 147.634 121.076 197 215 255
125.845 72.9858 119.954 255 240 227
143.592 110.232 111.369 247 245 255
152 177.757 114.239 197 215 255
15.7001 105.301 114.282 187 209 255
215.427 92.0333 111.341 186 208 255
125.969 130.717 108.012 255 44 0
19.082 155.895 110.207 208 222 255
91.9773 122.826 103.989 255 241 229
48.0847 56.8483 114.387 210 223 255
92.0563 63.3056 117.437 202 218 255
66.8187 108.748 105.949 220 229 255
15.9877 133.915 111.904 255 250 255
108.699 80.8815 125.171 236 238 255
76.8995 108.32 111.568 255 246 237
75.3991 80.2027 113.938 202 218 255
97.3207 62.1441 108.177 215 226 255
143.584 116.723 115.291 255 232 214
167.255 142.233 107.625 202 218 255
122.398 55.8527 119.343 195 214 255
8.35784 81.5277 110.528 239 240 255
85.9292 111.076 126.356 255 240 227
58.19 115.068 114.369 210 223 255
124.109 124.072 112.031 255 248 241
42.8072 186.334 110.562 234 237 255
141.029 108.286 105.599 218 228 255
150.243 107.896 102.792 243 242 255
79.394 72.3352 107.307 205 220 255
140.782 124.304 108.598 255 218 188
109.566 195.393 109.203 255 248 240
98.1638 154.191 115.113 215 226 255
146.655 99.6798 108.702 215 226 255
92.1855 91.7529 103.127 255 242 231
114.586 154.197 102.336 255 228 207
150.061 58.5049 109.663 218 227 255
53.1102 172.406 112.548 202 218 255
140.657 86.8321 103.441 255 235 218
139.522 117.43 122.398 234 237 255
74.3478 139.507 117.91 218 227 255
132.723 150.587 110.924 255 250 243
179.458 144.308 115.998 215 226 255
94.5666 146.848 116.452 205 220 255
140.522 133.271 110.149 255 250 244
164.62 118.344 117.465 224 231 255
130.258 15.0218 111.334 173 200 255
138.743 123.773 112.891 236 238 255
110.286 130.713 129.127 255 254 250
151.885 150.357 120.622 203 219 255
134.763 135.4 113.76 232 236 255
132.707 124.628 123.413 255 240 227
144.564 50.8113 117.166 201 218 255
99.4909 120.569 117.177 253 248 255
71.2143 92.4793 120.022 255 252 248
54.0141 162.037 111.405 185 208 255
127.767 108.406 101.692 188 210 255
116.36 128.171 108.968 206 220 255
120.396 81.848 107.459 214 225 255
99.3347 115.149 118.997 226 232 255
63.2841 45.9257 109.813 193 213 255
191.335 173.573 112.328 184 207 255
134.103 199.596 113.195 194 213 255
128.123 39.5494 115.404 189 210 255
94.526 112.64 128.707 233 236 255
139.867 107.649 123.745 220 229 255
10.1419 116.271 110.501 200 217 255
165.96 47.2222 113.158 211 224 255
29.4682 183.576 112.639 182 206 255
168.719 76.4398 108.025 189 210 255
162.778 197.213 111.562 203 218 255
95.052 176.646 113.627 212 224 255
123.753 131.46 102.126 255 249 242
79.4582 26.0685 112.677 184 207 255
109.949 145.04 111.933 244 243 255
118.9 182.081 117.034 202 218 255
98.5648 129.229 126.959 237 239 255
47.8343 62.6431 112.553 187 209 255
65.6718 123.936 106.041 202 218 255
180.385 169.545 112.742 218 228 255
165.269 171.778 112.171 192 212 255
92.9968 176.376 111.539 181 205 255
129.235 158.105 118.454 196 214 255
55.7441 86.7248 118.289 187 209 255
133.178 80.6887 102.208 255 248 240
76.1483 87.9291 110.868 203 218 255
123.086 109.464 127.38 232 236 255
120.675 32.5022 114.657 191 211 255
157.442 24.0483 112.742 213 225 255
109.257 82.7514 103.131 215 226 255
115.132 26.1975 111.223 187 209 255
185.034 154.015 111.997 227 233 255
157.973 163.111 112.98 195 214 255
101.064 91.9095 124.549 207 221 255
141.361 168.982 118.724 236 238 255
132.735 145.445 115.543 243 242 255
134.669 125.173 116.028 255 237 221
50.4012 114.289 110.198 238 239 255
133.008 111.768 106.74 255 227 205
108.954 97.5879 116.623 255 191 139
118.032 49.8129 106.726 192 212 255
89.0418 87.4617 109.516 233 237 255
63.6685 66.6122 108.876 255 226 203
132.425 136.382 106.8 255 178 111
32.4405 187.221 113.594 190 210 255
59.4681 96.2037 107.29 206 221 255
100.125 4.12454 113.437 181 205 255
186.877 43.9697 114.649 195 214 255
157.57 97.1877 113.913 233 236 255
165.639 88.537 116.878 198 215 255
116.5 99.5057 114.044 214 225 255
114.335 64.264 116.185 255 232 212
132.941 101.062 127.296 207 221 255
119.482 68.3456 113.082 255 203 162
113.699 207.8 113.293 181 205 255
83.4607 117.87 106.6 255 247 239
124.772 148.688 103.554 205 220 255
118.192 169.099 118.395 217 227 255
62.8222 116.008 109.89 243 242 255
100.811 78.1026 118.403 242 242 255
71.4112 102.331 111.735 203 219 255
104.235 134.518 110.469 255 240 226
81.9567 37.3213 114.869 197 215 255
117.789 111.642 130.491 219 228 255
54.3485 65.8067 115.078 201 217 255
102.525 119.42 106.709 255 253 249
114.456 116.451 135.881 220 229 255
166.618 104.785 105.891 203 219 255
153.842 160.661 113.809 197 215 255
47.3421 126.955 111.224 237 239 255
140.505 71.6305 117.238 219 228 255
115.41 127.671 109.58 255 242 231
58.2053 172.779 112.672 250 246 255
139.96 201.495 111.36 183 206 255
112.951 52.7971 114.266 200 217 255
100.473 75.569 120.886 226 232 255
181.091 46.8403 114.313 193 213 255
188.27 174.217 111.657 186 208 255
79.3791 129.485 106.305 221 229 255
139.934 133.12 117.634 255 246 237
98.9548 94.366 116.024 222 230 255
92.3788 61.4003 113.212 206 220 255
190.667 36.0624 114.04 191 211 255
76.8219 99.1796 109.672 204 219 255
182.868 118.456 111.025 208 222 255
82.3763 163.352 112.659 204 219 255
193.515 152.725 112.137 194 213 255
132.105 105.122 118.922 255 241 229
74.2933 168.189 115.721 194 213 255
61.5291 48.5365 111.526 255 241 229
172.399 201.223 113.679 198 216 255
63.5337 161.748 116.031 197 215 255
149.877 107.61 119.936 230 235 255
120.822 101.683 96.4539 255 249 255
65.1787 112.191 119.096 201 218 255
121.959 96.7701 128.801 223 231 255
134.933 199.684 113.41 200 217 255
24.5363 106.267 111.094 205 220 255
188.597 87.9042 115.379 206 221 255
35.3276 131.129 110.161 198 216 255
121.843 116.811 106.559 226 232 255
70.6721 52.9816 112.449 222 230 255
103.324 114.065 89.9058 236 238 255
78.8178 105.005 122.45 247 244 255
119.577 66.1149 114.01 255 241 228
104.847 97.11 105.625 255 231 212
162.755 96.4909 112.87 220 229 255
116.493 80.0303 117.918 255 198 152
108.962 4.24514 111.445 183 206 255
127.333 102.669 96.2149 255 249 255
148.904 192.205 111.265 203 218 255
110.058 104.46 128.682 255 243 232
49.2294 111.318 110.436 205 220 255
130.126 104.379 100.753 255 222 195
6.05771 108.369 114.581 185 207 255
90.8916 135.031 107.657 236 238 255
69.5015 164.229 114.98 255 238 224
89.7841 200.925 111.736 201 217 255
105.313 122.247 118.896 224 231 255
107.588 77.6866 103.164 255 248 240
218.713 90.2605 110.71 192 212 255
85.3068 30.4322 109.986 245 243 255
61.2488 120.191 108.319 200 217 255
161.857 39.8258 114.32 194 213 255
139.502 112.918 125.363 223 231 255
105.796 76.6559 101.635 255 226 202
59.2452 143.598 107.889 244 243 255
215.593 78.7144 111.517 194 213 255
203.756 91.2157 113.913 207 221 255
124.758 95.3079 118.258 255 184 124
70.6711 77.7132 109.749 209 222 255
212.449 110.207 110.383 187 209 255
101.039 98.1401 121.968 235 238 255
59.4355 44.8556 115.131 194 213 255
99.4627 192.957 109.807 180 204 255
146.106 78.7075 121.951 255 212 179
147.105 11.1209 112.992 183 206 255
170.662 71.2646 112.322 191 211 255
89.5891 30.7185 111.868 186 208 255
152.598 42.3039 115.639 231 235 255
88.535 68.15 117.983 255 249 242
30.7606 62.9459 114.97 179 204 255
129.695 90.9321 124.739 255 241 229
164.858 81.8499 116.411 228 234 255
124.579 103.163 96.836 214 225 255
66.9769 64.8627 116.156 196 215 255
159.294 66.4146 108.313 201 217 255
97.7306 110.896 127.123 197 215 255
159.677 116.772 113.958 223 230 255
65.3461 112.15 113.829 235 237 255
130.127 196.246 115.064 208 221 255
156.013 16.9957 111.59 190 211 255
104.118 54.2767 115.315 200 217 255
110.312 47.7498 108.415 202 218 255
148.757 203.002 114.71 198 215 255
92.2678 45.0532 116.69 198 216 255
102.179 118.326 122.216 255 223 197
119.092 18.74 110.399 187 209 255
154.327 105.34 107.912 213 225 255
122.552 176.288 110.678 185 208 255
13.7779 107.9 112.45 187 209 255
74.3743 110.955 124.565 212 224 255
98.9644 138.332 105.978 222 230 255
39.9038 120.744 112.422 210 223 255
143.85 141.298 102.916 194 213 255
145.507 18.5347 114.057 225 232 255
96.5238 70.6286 120.652 207 221 255
115.537 7.10981 114.522 188 210 255
217.864 114.986 113.1 202 218 255
113.274 75.2783 112.842 255 164 82
175.215 158.328 114.277 189 210 255
146.032 106.9 120.988 255 220 191
117.439 205.822 111.158 204 219 255
90.4449 130.418 99.5144 225 232 255
95.9035 89.2239 119.268 255 236 219
143.334 125.149 102.14 255 251 245
129.798 95.3216 102.07 255 242 231
92.8799 31.2219 109.285 185 208 255
117.48 125.072 123.574 255 116 0
115.622 102.243 100.883 220 229 255
126.638 207.248 111.008 205 220 255
116.243 57.6828 108.098 186 208 255
163.012 174.34 113.334 207 221 255
92.6508 175.89 111.393 212 224 255
39.2324 159.802 115.169 189 210 255
59.1366 107.631 118.532 255 253 249
97.0046 107.681 100.977 255 222 196
140.784 159.586 120.415 221 229 255
70.103 152.468 118.794 203 219 255
137.555 151.107 108.259 200 217 255
72.6812 154.088 111.76 255 253 248
90.4739 98.36 113.359 227 233 255
61.9933 120.521 106.746 207 221 255
154.675 68.2817 112.99 184 207 255
98.4469 126.569 114.235 239 240 255
111.709 129.15 123.716 255 175 106
82.7626 8.66381 113.452 178 203 255
83.1381 117.058 115.252 220 229 255
134.345 157.779 106.604 212 224 255
83.7207 119.495 108.916 214 225 255
37.134 157.976 112.883 186 208 255
50.498 101.658 111.811 200 217 255
97.2009 138.574 126.682 255 249 242
45.9718 197.862 111.356 192 212 255
186.535 146.104 112.817 197 215 255
104.354 121.497 105.354 236 238 255
47.1306 134.886 111.47 187 208 255
143.148 133.541 101.045 255 252 247
142.553 61.3904 119.126 189 210 255
152.614 124.623 109.906 232 236 255
130.283 159.835 119.87 248 245 255
104.004 120.826 97.4101 255 237 221
91.9762 103.712 114.107 213 224 255
119.938 72.2477 105.677 203 219 255
105.114 38.1212 112.52 189 210 255
148.82 60.3238 107.577 197 215 255
180.809 35.8121 110.394 184 207 255
49.696 110.096 109.039 240 240 255
161.758 55.0009 116.213 193 212 255
173.876 150.526 109.351 194 213 255
120.075 92.5956 123.528 224 231 255
34.4402 111.426 108.849 200 217 255
74.0311 201.954 113.512 187 209 255
119.755 117.622 94.6546 190 211 255
166.112 147.431 108.835 255 241 229
113.339 165.115 111.665 210 223 255
87.3013 139.311 114.694 213 225 255
140.488 134.65 115.94 255 242 231
141.435 121.716 118.304 228 234 255
151.133 148.448 112.4 221 230 255
17.0404 140.293 114.242 180 204 255
129.368 77.8666 106.72 255 232 214
102.233 46.1229 113.403 186 208 255
154.888 169.038 117.912 186 208 255
151.146 182.733 112.068 202 218 255
120.055 52.1108 107.25 212 224 255
101.137 56.4861 112.333 218 228 255
73.9985 143.911 111.788 198 215 255
133.705 77.6796 105.03 216 227 255
169.704 139.653 109.967 210 223 255
155.54 160.702 119.089 255 250 243
41.3955 31.1523 109.969 183 206 255
68.5127 86.7087 104.871 203 219 255
131.095 90.3003 121.437 202 218 255
150.362 94.3345 105.198 247 244 255
102.003 106.22 121.163 255 220 192
91.6288 50.2998 108.758 187 209 255
138.869 125.112 98.3463 255 247 239
66.7858 28.4983 111.035 188 209 255
133.62 100.138 108.869 221 229 255
152.08 145.072 106.017 255 236 220
203.179 123.971 110.986 190 211 255
94.8363 88.8795 98.5474 196 215 255
58.9228 126.216 115.495 225 232 255
73.3946 97.88 112.313 203 219 255
137.6 152.059 120.825 193 213 255
46.4728 30.0738 112.631 191 211 255
129.444 155.455 114.991 222 230 255
128.396 164.824 105.335 195 214 255
200.776 145.846 113.81 186 208 255
157.813 132.674 105.574 202 218 255
133 73.867 112.559 207 221 255
90.4804 86.4776 124.835 190 210 255
102.456 81.8176 115.212 224 231 255
49.9885 124.728 113.051 214 225 255
97.4655 122.915 113.791 254 249 255
217.932 111.982 113.633 202 218 255
117.028 168.134 111.499 212 224 255
69.16 138.887 117.241 199 216 255
95.7375 108.432 107.648 198 216 255
65.1472 107.406 102.929 206 220 255
15.0133 97.9774 112.998 182 206 255
158.667 102.727 111.088 255 233 214
152.25 164.186 115.272 240 240 255
118.882 135.153 102.958 255 142 29
130.128 104.518 105.891 255 224 199
109.621 116.884 121.757 255 240 226
115.721 122.511 112.152 247 244 255
138.917 140.207 114.259 226 233 255
201.818 48.935 113.689 200 217 255
130.273 89.7373 105.97 255 237 221
66.1505 129.27 112.835 198 216 255
116.756 97.0575 114.944 255 252 248
74.8838 60.1241 108.123 209 222 255
