ply
format ascii 1.0
element vertex 1341
property float x
property float y
property float z
property uchar red
property uchar green
property uchar blue
end_header
2.4056 82.8937 115.38 186 208 255
138.192 70.1114 118.332 209 222 255
55.0932 116.755 112.152 221 229 255
62.1312 206.054 113.254 197 215 255
100.155 172.328 120.29 205 220 255
93.2877 173.571 110.427 255 245 235
78.8585 85.65 111.683 196 214 255
167.847 26.1466 110.917 182 206 255
105.68 166.495 110.815 220 229 255
121.671 119.689 107.69 220 229 255
72.6916 65.5647 112.568 193 212 255
127.992 90.2415 114.086 255 237 221
101.714 91.6864 119.904 244 243 255
126.374 94.9734 113.04 205 220 255
179.4 25.4524 118.436 187 208 255
113.086 123.76 106.842 214 225 255
153.096 106.279 110.19 195 214 255
102.764 112.917 127.204 212 224 255
121.997 123.95 114.205 209 223 255
187.31 99.9894 113.308 194 213 255
93.2134 173.637 110.373 216 227 255
67.2669 113.769 114.806 195 214 255
122.823 19.2521 102.035 186 208 255
128.985 80.9823 110.201 201 217 255
74.6642 81.6574 111.931 194 213 255
98.5015 162.563 121.381 191 211 255
112.566 105.867 100.288 255 192 139
93.9192 173.207 109.845 232 236 255
111.113 70.686 117.711 209 223 255
180.958 120.129 119.082 191 211 255
79.2585 156.717 112.482 195 214 255
69.5431 168.498 133.337 221 230 255
117.522 112.48 115.773 255 204 162
165.573 119.436 110.484 206 221 255
80.4196 53.6602 113.184 198 216 255
93.2996 173.733 110.492 235 238 255
93.297 173.716 110.479 231 235 255
121.722 123.27 104.456 255 213 180
72.0712 189.487 109.707 238 239 255
128.212 84.2866 112.434 206 220 255
90.8405 5.78164 111.685 194 213 255
93.2902 173.688 110.456 255 205 165
152.844 106.511 111.383 196 214 255
123.449 121.276 111.774 219 228 255
111.719 74.2458 118.205 197 215 255
97.5982 90.1922 120.443 220 229 255
93.1936 173.983 110.648 255 246 237
142.911 78.3943 111.321 198 215 255
78.2854 149.387 113.05 227 233 255
118.33 113.814 89.9509 255 232 213
52.9646 125.517 128.018 213 225 255
110.235 105.175 110.144 198 215 255
93.9362 174.054 111.391 255 228 207
63.3143 69.3838 95.2209 197 215 255
118.645 124.581 109.057 211 224 255
209.826 86.5476 120.093 199 216 255
110.633 138.175 106.302 224 232 255
103.638 104.143 117.448 255 253 248
61.6282 56.7354 114.149 207 221 255
92.789 145.04 111.176 189 210 255
109.209 153.07 121.107 255 139 20
133.428 26.3809 113.012 200 217 255
159.145 54.9743 110.333 190 211 255
218.85 125.977 109.678 206 221 255
148.315 61.2027 114.41 208 221 255
110.565 29.5711 117.875 198 216 255
123.79 81.4732 123.281 237 239 255
98.9698 129.546 110.63 214 225 255
91.4333 102.424 109.772 212 224 255
159.805 90.4485 104.538 191 211 255
70.2631 70.8153 111.327 184 207 255
136.96 115.814 112.275 241 241 255
103.635 128.441 112.005 255 230 211
52.4437 123.008 134.901 193 212 255
164.146 167.021 93.8039 187 209 255
115.508 135.105 116.114 255 249 243
102.086 154.434 107.384 231 235 255
101.294 109.964 107.208 208 222 255
43.7476 96.1469 99.8899 228 233 255
117.238 136.215 119.671 255 184 125
93.8258 98.9694 106.83 205 220 255
93.2397 173.794 110.473 200 217 255
118.379 125.24 108.305 216 226 255
137.518 83.344 113.081 255 254 249
76.4518 95.7632 112.756 205 220 255
84.6034 123.998 113.451 221 229 255
164.063 141.22 118.445 199 216 255
153.328 151.266 106.344 240 240 255
15.8839 143.898 108.584 219 229 255
103.432 120.079 111.195 235 237 255
99.9448 100.214 102.784 237 239 255
104.816 114.65 99.9342 236 238 255
193.576 15.9326 115.736 203 219 255
122.127 78.3699 113.769 218 228 255
113.35 124.339 105.021 255 249 242
195.611 65.3899 111.752 214 225 255
111.539 132.766 103.937 255 203 161
93.4338 173.632 110.468 198 216 255
93.3004 173.74 110.498 195 213 255
104.553 120.392 115.834 255 244 233
72.35 162.842 104.891 204 219 255
178.249 121.541 91.5411 210 223 255
109.289 108.168 117.013 255 234 216
107.055 104.875 128.186 227 233 255
147.196 117.389 111.558 255 251 255
74.7917 133.061 104.943 200 217 255
158.906 132.602 109.753 203 219 255
178.809 23.6007 110.999 202 218 255
124.942 112.694 101.46 222 230 255
102.425 108.758 110.624 215 226 255
93.3004 173.74 110.498 189 210 255
0.461418 102.121 116.9 204 219 255
50.314 69 113.367 207 221 255
214.896 43.7867 113.187 197 215 255
93.8289 173.862 110.812 255 231 212
109.694 116.167 124.591 255 119 0
124.019 109.747 105.818 235 238 255
141.586 37.2035 111.312 201 217 255
194.815 133.845 85.4135 226 232 255
94.2995 157.705 108.061 200 217 255
106.233 221.245 112.873 178 203 255
50.1437 78.2578 103.237 195 214 255
122.043 178.991 113.808 213 225 255
121.175 105.562 120.217 255 191 139
203.952 122.555 114.326 220 229 255
98.6467 81.2494 113.994 225 232 255
93.2656 173.603 110.385 239 240 255
79.171 136.419 120.147 187 209 255
141.161 110.263 112.644 226 232 255
102.056 24.2081 107.967 204 219 255
138.282 88.0731 116.857 255 249 255
56.652 85.0755 122.698 212 224 255
179.206 49.6043 111.473 190 211 255
103.588 91.0906 122.493 245 243 255
109.933 143.785 107.631 215 226 255
93.3002 173.736 110.494 199 216 255
182.548 137.943 104.011 208 222 255
93.3023 173.767 110.517 192 212 255
132.609 172.468 109.772 196 214 255
170.747 146.487 107.502 208 222 255
112.544 160.013 110.486 183 206 255
121.46 130.278 113.455 208 222 255
30.3529 155.768 108.794 207 221 255
110.082 112.723 114.002 238 239 255
152.896 105.278 105.023 195 213 255
77.306 145.26 116.229 255 252 247
69.7434 140.241 102.688 222 230 255
191.797 110.877 110.956 223 231 255
108.709 199.089 122.012 200 217 255
152.224 110.124 104.336 189 210 255
118.52 138.721 115.065 255 248 240
110.792 131.341 109.627 255 217 187
105.824 123.138 110.324 201 218 255
103.274 169.535 98.8289 225 232 255
141.017 42.9374 113.983 191 211 255
161.567 129.212 108.573 200 217 255
78.3813 99.5609 111.976 213 225 255
100.97 101.554 123.731 255 246 237
74.9881 143.489 129.58 205 220 255
109.522 114.158 108.08 209 222 255
93.3014 173.75 110.505 200 217 255
174.9 159.387 118.595 194 213 255
128.67 77.8963 104.554 255 249 242
105.635 151.247 114.03 206 220 255
93.3231 173.655 110.437 234 237 255
104.366 108.918 119.963 200 217 255
100.905 176.758 103.031 223 231 255
97.4486 176.395 115.121 255 226 203
122.316 179.84 108.618 196 215 255
132.562 139.967 111.604 205 220 255
106.548 104.591 111.325 253 248 255
162.395 97.3397 112.618 186 208 255
54.1249 87.585 113.302 179 204 255
154.867 93.63 112.377 231 235 255
28.5467 163.662 114.959 203 219 255
130.553 159.346 109.469 205 220 255
166.964 168.222 117.944 190 211 255
51.2137 72.8531 107.924 206 220 255
117.223 53.6923 115.581 206 220 255
163.008 142.846 117.663 201 217 255
99.9335 109.562 119.769 255 226 202
198.694 83.1846 108.807 184 207 255
47.8919 136.924 107.9 255 159 70
101.192 93.4928 122.41 255 224 199
52.0351 115.087 99.963 205 220 255
135.811 73.5046 112.704 227 233 255
205.745 46.1394 112.447 191 211 255
24.3496 67.9921 115.414 191 211 255
99.0092 74.4468 109.492 201 217 255
124.233 116.811 112.762 255 222 195
100.99 122.269 112.648 198 216 255
30.1165 186.42 113.101 181 205 255
104.784 130.707 107.186 231 235 255
93.2808 173.649 110.423 242 242 255
131.709 114.25 131.605 189 210 255
44.2308 84.0681 120.684 197 215 255
76.1591 84.9065 149.379 191 211 255
47.1969 94.7514 122.725 214 225 255
149.393 89.2091 114.629 255 251 245
88.4182 64.3317 114.792 184 207 255
76.9279 101.819 112.488 198 216 255
27.3597 212.331 124.9 192 212 255
90.0262 175.833 114.545 255 250 255
115.998 121.412 106.883 235 237 255
145.337 183.858 111.955 220 229 255
146.831 150.826 123.943 190 211 255
107.299 173.118 108.359 214 225 255
26.6465 139.982 102.265 228 234 255
98.1706 188.818 101.441 217 227 255
39.2125 176.129 109.557 206 221 255
93.2979 173.722 110.484 228 233 255
100.945 131.572 104.959 206 220 255
135.847 31.2693 112.293 187 208 255
55.6657 94.9952 107.554 196 214 255
95.1907 179.051 114.544 255 239 224
138.723 143.627 109.339 199 216 255
117.605 109.825 97.8477 243 242 255
132.739 0.500871 102.466 183 206 255
64.5154 37.8042 146.834 209 222 255
107.783 10.0319 110.179 208 222 255
50.0369 66.5638 111.69 202 218 255
112.606 73.464 88.0715 224 231 255
10.7009 140.565 108.508 203 218 255
105.752 208.671 99.0637 180 204 255
96.9203 107.156 109.251 213 225 255
93.2844 173.776 110.537 200 217 255
202.741 115.178 114.431 190 210 255
150.837 98.6408 111.885 205 220 255
115.42 93.2243 111.017 255 244 233
125.431 21.7455 112.255 207 221 255
158.271 21.5818 111.767 193 212 255
109.853 125.193 104.641 251 247 255
164.498 122.176 119.711 197 215 255
58.2826 147.724 128.764 194 213 255
169.18 97.5408 76.6583 217 227 255
150.699 90.4031 110.332 214 225 255
104.873 69.7209 108.562 205 220 255
112.616 86.769 108.516 209 222 255
93.2758 173.622 110.411 202 218 255
177 145.938 118.898 191 212 255
84.6065 137.277 100.029 255 248 240
140.126 92.4114 113.442 190 211 255
167.355 32.6279 111.083 186 208 255
123.766 72.9399 115.57 210 223 255
130.962 57.4321 116.836 196 214 255
160.43 134.497 113.015 255 251 246
93.3014 173.751 110.507 255 226 203
127.661 83.8507 112.549 200 217 255
92.1927 164.001 111.079 211 223 255
81.9023 44.3593 122.816 182 206 255
176.737 163.764 117.074 186 208 255
69.5928 1.82112 118.321 187 209 255
122.732 173.47 112.496 210 223 255
114.415 53.2572 112.297 255 215 183
109.284 102.665 104.461 255 238 223
93.3017 173.753 110.507 225 232 255
104.044 99.8931 114.474 255 246 237
114.164 55.9372 113.339 187 208 255
116.313 114.925 106.575 255 144 34
124.407 119.043 109.115 226 232 255
20.8796 138.209 115.715 205 220 255
108.097 125.788 108.512 255 207 169
131.563 74.6371 106.135 241 241 255
112.209 127.731 101.19 217 227 255
108.032 149.201 106.915 217 227 255
161.51 118.775 113.948 201 218 255
1.49775 140.078 116.24 197 215 255
59.55 103.405 140.82 255 251 255
70.9217 119.125 113.246 202 218 255
148.834 89.5955 107.131 255 182 120
110.264 101.963 113.375 234 237 255
93.0105 173.431 109.719 198 215 255
93.2835 173.651 110.415 255 250 255
223.506 134.684 117.829 185 207 255
109.146 136.02 117.601 214 225 255
104.052 174.27 108.864 193 212 255
151.085 27.7657 113.912 221 229 255
218.235 125.212 109.42 190 210 255
109.225 127.715 115.711 255 251 246
108.034 130.493 121.109 255 229 208
42.0043 53.8862 114.4 205 220 255
103.343 103.965 101.12 206 221 255
98.5176 140.538 122.707 255 237 222
55.8182 111.906 125.69 205 220 255
93.6703 174.685 110.59 218 227 255
40.854 67.0699 106.219 208 222 255
150.518 119.531 111.265 222 230 255
141.703 78.6583 139.842 206 220 255
197.068 73.864 113.97 198 216 255
57.3796 100.026 138.298 206 220 255
47.6379 58.1349 128.423 213 225 255
93.2982 173.724 110.485 198 216 255
93.2913 173.785 110.533 199 216 255
183.575 127.936 89.4105 184 207 255
105.987 89.3225 121.394 228 234 255
54.029 14.1112 104.685 192 212 255
154.136 98.5901 122.063 255 221 194
104.005 101.744 111.58 233 236 255
86.0652 155.216 108.293 225 232 255
123.187 202.524 115.746 196 215 255
158.31 120.083 112.841 198 216 255
142.628 87.0207 126.61 212 224 255
93.1065 173.457 110.461 212 224 255
94.7632 179.165 105.682 233 236 255
192.352 176.07 119.513 180 204 255
123.851 120.431 112.835 255 226 203
104.711 109.274 106.543 217 227 255
152.257 90.5027 111.462 232 236 255
64.9008 127.748 110.848 226 232 255
140.848 70.8002 136.233 227 233 255
116.086 103.235 112.908 255 245 235
91.8069 155.873 107.41 207 221 255
173.21 151.168 102.056 238 240 255
44.2479 89.7735 113.663 209 222 255
158.79 50.1675 109.027 224 231 255
97.9683 113.763 110.741 255 206 167
88.877 168.628 96.1522 223 231 255
73.2387 101.931 112.612 196 214 255
115.562 126.407 105.786 226 232 255
96.2566 60.5941 113.43 235 238 255
161.76 96.6606 109.579 234 237 255
135.338 28.5392 117.438 181 205 255
116.773 107.887 113.391 255 204 164
146.95 85.6105 96.3233 203 219 255
80.1805 121.207 114.145 255 228 206
93.3198 173.433 110.164 192 212 255
117.177 116.268 113.748 222 230 255
108.284 144.787 111.979 255 225 202
151.756 67.8047 128.228 225 232 255
190.444 89.1421 110.064 190 210 255
98.9697 92.8393 110.362 255 214 182
158.418 104.939 107.618 248 245 255
87.2146 70.2162 114.396 194 213 255
122.98 97.9468 91.8535 202 218 255
113.244 23.8955 101.722 189 210 255
35.6552 127.237 140.97 196 214 255
168.132 107.533 103.305 206 220 255
93.2971 173.718 110.48 255 250 255
183.532 108.736 107.718 231 235 255
93.2744 173.608 110.385 210 223 255
47.8423 123.393 108.115 213 224 255
81.3348 213.356 112.273 180 204 255
115.465 107.059 100.839 244 243 255
38.6425 106.99 122.091 229 234 255
93.297 173.716 110.479 217 227 255
119.391 125.069 102.36 255 251 245
212.208 142.117 114.451 180 204 255
114.605 152.254 109.286 255 254 249
112.461 124.513 110.892 255 230 210
44.6634 134.923 108.683 199 216 255
93.2613 173.575 110.373 226 232 255
93.3394 173.362 110.358 255 224 200
69.2801 139.974 112.613 255 191 139
96.1378 184.96 112.955 205 220 255
89.8432 152.695 113.917 227 233 255
120.834 105.034 120.577 196 215 255
52.0614 36.4408 115.997 180 205 255
93.2921 173.692 110.459 197 215 255
199.661 167.122 113.802 189 210 255
89.3079 48.4604 110.465 211 223 255
148.91 130.731 113.35 255 234 217
103.828 119.607 111.13 255 243 233
93.2807 173.67 110.431 255 166 87
143.444 99.6961 114.868 207 221 255
93.4925 83.5934 109.765 194 213 255
57.5909 143.358 112.294 193 212 255
171.272 118.354 113.284 224 231 255
115.163 125.848 113.911 203 219 255
130.943 123.866 136.623 232 236 255
48.7652 62.0465 114.891 202 218 255
93.2973 173.718 110.48 199 216 255
36.8194 103.783 148.352 191 211 255
158.451 106.073 103.379 197 215 255
137.717 47.5539 116.382 206 220 255
94.2207 115.136 110.495 227 233 255
122.339 121.933 113.924 255 224 200
32.6123 166.448 116.864 184 207 255
126.161 78.3822 109.682 212 224 255
127.457 91.4693 113.161 215 226 255
93.2956 173.709 110.473 218 228 255
120.4 97.9515 113.578 255 212 178
71.8922 129.848 112.869 244 243 255
50.7741 58.8571 121.949 216 226 255
122.427 8.94165 110.949 199 216 255
62.5413 16.2803 116.595 229 234 255
93.1832 173.907 110.035 187 209 255
107.101 171.205 107.879 255 251 246
93.3009 173.745 110.501 188 209 255
34.5286 91.1791 115.161 204 219 255
174.95 132.155 103.132 232 236 255
146.689 120.877 114.072 206 220 255
103.945 128.154 110.516 222 230 255
122.029 131.633 123.47 250 246 255
216.154 62.1467 113.423 191 211 255
186.784 186.271 116.17 200 217 255
99.0232 93.3258 106.47 216 226 255
62.4054 84.8531 118.297 215 226 255
99.4514 102.438 114.488 255 253 249
143.583 15.1526 110.517 200 217 255
110.066 113.103 112.796 255 179 114
191.007 107.682 114.627 200 217 255
76.7771 141.715 127.791 255 228 207
107.949 129.899 104.895 189 210 255
76.7285 167.764 114.369 209 222 255
90.7182 52.2943 110.284 194 213 255
109.549 66.2649 114.268 198 216 255
102.259 122.447 109.831 255 209 172
64.2587 121.52 112.032 255 209 172
15.0687 69.1065 108.376 188 209 255
68.037 125.429 103.399 211 224 255
113.696 150.097 105.559 255 186 129
134.993 87.6357 111.819 255 251 245
128.198 18.7155 117.766 205 220 255
113.135 105.126 113.868 255 242 230
155.954 106.028 124.653 216 227 255
167.954 86.1954 110.158 211 224 255
66.7309 114.749 108.065 239 240 255
215.882 77.9186 118.802 183 206 255
155.213 31.0349 115.382 193 213 255
77.9778 42.2618 118.533 196 214 255
93.2968 173.715 110.478 213 225 255
78.5532 147.066 125.335 240 240 255
133.316 94.0591 113.858 230 235 255
108.085 131.091 107.611 255 243 232
56.5449 40.8193 104.676 212 224 255
93.1951 173.329 110.136 255 247 239
42.7144 72.0855 96.844 226 232 255
192.044 76.7751 116.672 186 208 255
55.2519 82.4867 92.6355 200 217 255
137.449 87.6647 114.02 203 218 255
117.942 146.042 103.526 208 222 255
37.1217 154.783 114.277 196 215 255
94.3217 173.717 110.316 187 209 255
115.244 128.902 107.478 255 221 194
109.362 111.692 115.156 255 236 219
61.2117 128.921 124.289 210 223 255
109.089 106.702 103.818 255 183 122
131.04 97.4909 113.641 255 238 223
112.106 216.018 80.2015 193 213 255
93.295 173.706 110.471 210 223 255
93.2971 173.717 110.48 227 233 255
14.9247 172.599 113.127 195 214 255
117.944 124.766 114.476 214 225 255
66.1979 89.2464 120.247 200 217 255
185.972 33.2681 124.023 186 208 255
120.783 106.938 104.273 255 250 255
25.9386 73.3003 116.642 186 208 255
93.3019 173.768 110.518 205 220 255
113.446 111.498 102.697 215 226 255
107.028 118.589 125.772 255 190 136
110.283 109.004 113.544 221 229 255
119.804 57.8074 116.906 224 231 255
87.7502 168.743 115.541 222 230 255
71.6431 68.2709 125.685 200 217 255
93.2994 173.732 110.491 187 209 255
122.166 82.1245 109.504 224 231 255
106.61 105.792 108.355 235 238 255
118.886 39.6364 112.589 200 217 255
106.953 68.2197 100.427 206 220 255
67.6877 70.8084 108.122 199 216 255
122.6 191.002 112.038 203 218 255
57.2363 164.242 116.121 222 230 255
119.543 117.077 111.609 196 214 255
93.0355 44.3839 117.027 209 222 255
113.861 137.981 111.212 255 217 187
60.1592 204.982 112.065 188 209 255
93.2945 173.703 110.468 255 245 235
130.923 90.3816 112.384 255 231 212
126.193 164.767 103.827 186 208 255
59.7543 222.47 109.615 183 206 255
122.78 75.1609 113.604 226 232 255
129.111 121.176 109.232 255 244 234
93.2946 173.81 110.578 219 229 255
93.5328 173.968 109.772 207 221 255
32.7647 198.816 111.623 190 211 255
195.568 159.868 117.602 190 211 255
66.5017 95.0407 110.426 255 252 247
58.5964 33.0235 105.835 218 228 255
118.021 113.862 113.726 223 231 255
163.545 111.98 111.904 227 233 255
93.2379 173.74 110.515 209 222 255
158.719 147.383 192.91 210 223 255
172.52 161.154 112.12 189 210 255
44.9173 133.451 128.038 207 221 255
158.979 114.209 122.534 221 229 255
93.1874 173.314 110.2 212 224 255
93.8188 174.523 111.982 200 217 255
139.66 67.3358 115.108 193 213 255
69.6036 116.649 111.93 217 227 255
112.892 122.534 106.956 255 239 226
8.12772 93.4461 110.758 183 206 255
100.476 59.3681 115.371 218 228 255
120.258 106.701 112.766 255 213 180
42.3655 82.1709 120.596 214 225 255
82.8229 178.176 96.7184 192 212 255
103.6 19.6638 105.652 195 214 255
119.827 98.0782 116.313 255 249 255
178.075 20.0478 122.781 196 215 255
72.1886 187.035 111.795 188 210 255
124.434 122.076 102.437 246 244 255
113.899 132.766 108.114 255 212 177
96.1607 115.557 118.062 255 195 146
215.005 88.4906 111.865 202 218 255
156.484 99.1799 113.504 205 220 255
112.384 138.716 107.773 255 237 222
103.153 152.61 110.472 255 244 234
20.2719 151.053 109.84 199 216 255
116.637 127.593 114.953 255 253 248
76.2423 50.5946 110.703 193 212 255
51.1915 111.588 117.766 255 249 242
122.58 117.938 107.629 236 238 255
74.6164 112.176 111.729 255 240 227
168.061 46.8674 113.047 192 212 255
105.748 169.96 119.04 232 236 255
95.0579 128.686 99.547 210 223 255
138.707 179.895 110.785 203 219 255
52.1226 111.359 112.367 190 211 255
93.2981 173.723 110.485 255 252 246
92.9019 173.718 110.405 198 216 255
93.299 173.728 110.489 240 240 255
73.129 59.0015 101.882 199 216 255
109.008 104.232 114.024 255 170 95
98.2915 103.726 104.913 255 184 124
93.2982 173.724 110.485 213 225 255
124.198 94.6811 114.402 239 240 255
139.382 83.5826 106.057 214 225 255
93.2949 173.705 110.47 202 218 255
135.979 106.813 111.473 227 233 255
118.193 70.4724 117.861 203 219 255
169.778 137.462 115.045 255 240 227
144.308 152.827 97.118 194 213 255
173.46 37.4094 109.367 186 208 255
58.3885 86.3105 100.435 200 217 255
154.922 82.7687 83.4067 215 226 255
102.559 89.078 109.139 230 235 255
160.238 22.5007 111.299 198 216 255
158.399 94.8471 106.291 210 223 255
101.386 155.631 110.133 201 218 255
94.4751 117.219 109.882 224 231 255
118.38 128.265 108.461 255 230 211
114.256 138.161 121.491 255 254 251
73.0369 113.877 113.025 229 234 255
132.554 25.5526 111.502 200 217 255
150.233 95.6422 122.262 206 221 255
115.211 125.809 105.36 255 234 217
129.684 45.8737 112.257 189 210 255
113.902 71.1102 113.854 196 214 255
93.2918 173.69 110.458 195 214 255
221.005 137.351 118.009 200 217 255
59.4291 177.462 113.896 195 214 255
132.976 100.328 113.423 213 225 255
63.338 137.059 109.104 237 239 255
172.003 145.089 119.209 182 205 255
93.2645 173.844 110.565 221 230 255
57.9509 108.07 102.319 201 218 255
48.8741 51.3831 109.875 255 247 239
114.265 105.151 116.253 224 231 255
149.546 153.533 96.8945 184 207 255
63.5175 101.436 110.832 205 220 255
102.915 96.2483 114.96 233 237 255
93.2991 173.73 110.49 197 215 255
102.869 161.701 117.304 183 206 255
102.086 133.511 102.641 222 230 255
65.7452 70.9445 112.873 230 235 255
93.2986 173.727 110.487 210 223 255
33.872 178.632 114.529 195 214 255
145.609 64.4061 117.669 207 221 255
152.154 74.1482 114.383 193 213 255
88.8889 149.856 113.331 196 214 255
183.539 88.9352 111.728 215 226 255
98.1393 162.567 119.417 211 223 255
124.642 145.78 114.521 190 210 255
112.915 116.309 117.287 255 246 238
105.452 84.5105 116.454 250 246 255
94.4515 172.466 113.875 191 211 255
81.1007 191.45 111.927 212 224 255
103.02 98.6604 105.843 208 221 255
116.527 117.306 111.118 233 237 255
88.279 59.8606 115.373 192 212 255
111.085 110.35 119.688 198 216 255
103.804 152.815 120.809 216 227 255
92.9026 152.279 110.275 255 238 224
109.142 122.864 105.804 255 243 232
179.623 141.018 100.917 203 219 255
107.836 154.329 122.127 255 246 236
93.2196 172.941 109.784 199 216 255
124.564 166.922 103.699 196 214 255
105.828 204.889 116.946 177 203 255
118.981 104.07 111.445 255 167 89
101.059 100.806 122.639 255 207 169
101.004 174.338 102.787 231 236 255
104.415 64.6243 113.369 191 211 255
133.806 130.475 112.1 203 219 255
69.9979 7.52619 121.23 200 217 255
172.316 123.584 128.642 208 222 255
139.919 38.5655 114.99 193 212 255
102.248 106.204 121.104 255 242 230
168.543 97.9417 112.115 196 214 255
140.458 84.0337 136.946 255 249 242
57.7275 117.675 100.854 198 216 255
126.476 103.191 114.426 215 226 255
97.6243 75.9902 117.47 204 219 255
93.2961 173.714 110.479 185 208 255
193.105 69.0872 114.292 191 211 255
109.564 136.927 111.06 247 245 255
60.619 113.966 109.986 210 223 255
13.4291 201.131 113.74 187 209 255
132.408 15.1033 102.268 199 216 255
179.946 9.91887 106.606 201 218 255
101.935 64.1264 113.046 207 221 255
159.091 133.126 112.209 196 214 255
53.9863 61.313 118.298 187 209 255
94.8665 7.54751 99.9941 194 213 255
163.609 129.31 120.31 190 211 255
32.1131 98.3621 112.382 188 210 255
130.543 163.259 103.741 195 214 255
70.3478 135.196 122.082 234 237 255
117.609 124.612 101.337 216 227 255
161.306 106.519 121.08 200 217 255
102.387 117.193 121.32 255 197 150
123.698 126.251 119.697 255 168 91
143.487 123.13 112.764 255 174 105
130.011 71.6142 112.808 202 218 255
178.127 132.626 124.528 205 220 255
96.3175 16.4471 115.118 205 220 255
6.24717 132.208 115.619 198 216 255
113.724 105.289 104.921 255 204 163
79.5728 173.91 113.707 249 245 255
145.27 173.285 111.479 186 208 255
149.81 104.85 113.076 211 223 255
91.1746 174.347 110.798 255 0 0
120.619 126.637 117.251 255 195 146
27.2785 153.164 107.805 191 211 255
96.4261 204.928 102.222 186 208 255
108.775 88.8747 111.777 255 235 218
39.6784 127.106 113.303 181 205 255
135.48 126.538 113.578 204 219 255
124.525 67.2274 120.122 217 227 255
57.6033 105.179 112.316 199 216 255
79.8469 126.847 113.51 242 242 255
163.964 118.091 115.497 207 221 255
210.325 164.552 107.814 198 216 255
72.1899 63.5096 107.637 203 219 255
90.5445 82.8831 114.461 209 222 255
18.5824 112.675 120.21 198 215 255
54.2418 106.543 93.0449 201 217 255
80.6674 148.017 112.243 186 208 255
93.4311 173.147 110.606 255 203 162
54.0303 40.7217 109.777 184 207 255
93.6177 174.074 110.633 215 226 255
83.6022 42.6103 107.289 190 211 255
123.982 61.1616 115.888 189 210 255
121.223 179.1 110.239 219 228 255
111.169 176.01 110.401 193 212 255
123.513 108.002 114.963 225 232 255
39.6293 215.326 114.252 187 209 255
55.3632 85.1447 93.7393 201 218 255
73.3574 126.542 115.143 212 224 255
117.595 121.831 110.207 255 226 203
30.8151 112.478 110.39 188 210 255
183.87 35.2455 112.259 182 206 255
100.663 220.836 110.229 207 221 255
101.983 116.621 111.836 254 248 255
87.1455 109.485 113.004 218 227 255
93.2962 173.711 110.477 200 217 255
93.2822 173.653 110.428 205 220 255
112.845 111.443 114.922 255 217 187
46.7886 101.169 104.434 208 222 255
109.761 166.75 122.247 253 248 255
104.37 110.436 103.978 205 220 255
133.197 78.0899 110.333 194 213 255
157.585 21.9647 113.854 195 214 255
111.267 156.223 121.588 255 249 243
93.2893 173.679 110.449 224 231 255
93.2096 173.653 110.41 197 215 255
63.8563 143.897 96.1273 189 210 255
109.65 116.175 112.205 231 235 255
156.675 122.635 154.339 203 219 255
170.889 74.8728 114.154 186 208 255
69.367 118.157 111.436 255 216 186
117.804 145.283 112.267 255 212 177
52.2577 158.408 109.518 196 214 255
76.9788 53.9424 112.169 189 210 255
146.701 10.4951 112.912 189 210 255
135.751 109.916 111.765 213 225 255
108.453 104.983 111.226 255 221 193
56.48 119.361 106.075 255 229 208
85.4203 96.2203 109.614 240 240 255
182.077 150.722 120.161 199 216 255
29.9123 144.397 112.967 203 218 255
212.295 43.8628 75.7988 214 225 255
79.9113 170.119 112.274 223 231 255
93.4082 174.026 110.527 255 254 250
93.2963 173.712 110.476 197 215 255
148.616 61.6141 116.337 207 221 255
120.826 33.809 112.289 209 222 255
76.1046 50.0707 105.983 226 232 255
98.2362 46.7941 111.487 194 213 255
81.9342 54.0885 113.737 236 238 255
149.051 112.101 111.501 215 226 255
93.2826 173.652 110.426 234 237 255
211.946 87.9901 114.787 187 208 255
157.27 88.0977 112.333 185 208 255
85.1762 205.528 107.764 190 211 255
115.058 127.257 104.678 252 247 255
111.654 116.542 114.158 255 240 226
76.0862 137.674 111.317 255 219 190
142.932 83.4881 104.015 208 221 255
37.5379 40.0887 106.583 202 218 255
13.471 174.508 112.226 208 222 255
155.018 50.8794 116.616 200 217 255
119.384 117.623 102.804 255 198 152
93.2984 173.725 110.486 198 216 255
105.323 123.591 111.976 255 246 238
121.534 83.0666 124.43 206 220 255
69.3319 68.1345 109.87 185 207 255
171.058 161.325 106.644 209 223 255
93.298 173.722 110.484 215 226 255
93.2942 173.701 110.467 196 214 255
57.6159 105.62 113.64 193 212 255
144.491 125.344 112.569 189 210 255
141.284 74.7454 112.255 201 217 255
93.266 173.249 109.998 209 222 255
145.751 100.285 101.565 255 246 238
101.252 94.0679 117.144 255 247 238
125.396 122.035 117.446 255 165 84
104.944 183.289 119.563 208 221 255
60.923 71.1341 110.184 212 224 255
109.79 119.275 94.7989 255 247 239
101.589 152.135 103.973 255 158 68
52.1018 149.06 112.376 190 211 255
78.4956 136.221 117.601 255 254 251
37.5152 66.7383 114.341 213 225 255
152.951 150.576 112.422 192 212 255
128.331 77.7338 114.295 203 218 255
93.222 173.6 109.507 185 208 255
150.666 98.1289 108.963 204 219 255
113.469 103.176 97.9734 255 222 196
112.468 123.051 102.549 199 216 255
127.778 76.2665 110.183 255 224 199
114.732 127.077 105.464 255 202 159
121.924 74.498 121.324 223 230 255
155.009 109.209 113.287 255 230 210
93.2471 173.807 110.512 235 237 255
182.403 78.7332 112.182 209 223 255
122.569 85.1648 111.997 255 230 210
110.48 106.123 118.607 214 225 255
147.761 117.049 111.018 219 229 255
93.2852 173.639 110.414 255 247 239
129.657 83.7207 128.258 200 217 255
93.2973 173.718 110.481 255 244 234
194.555 152.824 112.224 190 210 255
112.433 159.79 103.957 220 229 255
93.6107 116.157 109.772 192 212 255
71.8448 44.2435 107.373 208 221 255
93.6653 174.602 111.627 198 215 255
92.288 143 104.791 219 228 255
97.0159 85.3234 124.807 229 234 255
151.947 139.976 118.087 190 211 255
62.3557 135.959 118.932 246 244 255
128.948 79.5997 131.069 199 216 255
188.354 20.8167 112.093 187 209 255
124.288 73.2219 118.338 215 226 255
199.613 26.0386 103.097 185 208 255
67.7561 128.455 112.265 210 223 255
60.4554 188.095 114.378 194 213 255
138.337 121.436 110.532 255 246 237
160.923 120.021 97.847 197 215 255
93.2986 173.726 110.487 182 205 255
96.5689 183.193 108.467 255 236 220
175.665 93.5637 115.268 196 214 255
93.2353 173.622 110.474 255 233 216
94.7248 172.531 115.186 220 229 255
47.2456 69.4501 105.311 186 208 255
107.403 154.627 105.426 212 224 255
155.819 124.058 110.562 210 223 255
103.499 51.739 115.262 202 218 255
112.552 91.657 117.223 255 159 70
16.4689 121.859 118.356 210 223 255
112.917 98.6666 110.364 255 226 203
162.097 121.152 108.606 215 226 255
114.098 126.391 103.188 207 221 255
116.847 113.027 116.894 255 249 242
116.699 123.585 111.684 202 218 255
152.097 98.324 103.586 189 210 255
93.2959 173.71 110.474 188 209 255
160.282 81.2537 112.752 188 209 255
159.867 92.5292 126.101 226 232 255
126.145 82.9958 136.243 196 214 255
62.7394 204.207 115.968 211 224 255
216.61 145.915 115.014 178 203 255
76.5699 110.215 112.972 209 222 255
29.3939 121.55 110.157 195 214 255
59.7041 179.285 117.198 193 212 255
124.351 119.517 112.554 255 250 255
141.842 61.1375 116.936 201 218 255
111.499 110.382 110.972 222 230 255
93.3004 173.739 110.497 255 250 255
199.297 107.904 110.664 189 210 255
188.277 15.7337 106.305 190 211 255
109.91 126.909 108.733 243 242 255
93.366 174.195 111.532 192 212 255
117.537 89.7852 116.203 197 215 255
137.429 77.3238 113.449 205 220 255
96.6598 50.0987 115.946 255 170 96
137.358 122.324 110.489 196 214 255
114.329 75.5616 116.38 214 225 255
82.9231 165.859 93.7122 208 222 255
48.8675 128.711 134.313 183 206 255
141.098 65.5333 123.958 255 242 230
153.942 46.5742 111.508 183 206 255
138.822 153.093 110.309 207 221 255
93.2933 173.759 110.521 197 215 255
127.144 68.933 121.621 195 214 255
65.1633 151.848 114.747 233 236 255
108.536 102.458 105.301 255 177 110
122.48 144.27 114.263 206 220 255
93.2948 173.704 110.47 224 231 255
93.2922 173.683 110.448 211 223 255
93.2646 173.795 110.573 206 220 255
111.334 175.349 112.919 189 210 255
202.011 134.535 103.616 220 229 255
111.928 118.795 108.427 241 241 255
142.074 91.9054 124.624 255 225 200
214.804 142.433 121.778 185 207 255
111.425 121.615 103.743 255 240 227
65.1637 113.728 109.58 186 208 255
9.74236 152.863 114.659 191 211 255
103.677 173.749 116.858 247 245 255
94.2379 182.878 113.334 192 212 255
96.3817 68.4099 111.901 255 254 250
180.159 27.9632 98.7915 196 214 255
64.2499 129.383 97.9402 207 221 255
93.2988 173.727 110.488 207 221 255
94.0155 123.498 114.108 206 221 255
152.357 146.471 112.179 192 212 255
93.2967 173.715 110.478 208 222 255
74.8112 149.103 128.487 200 217 255
120.08 73.4027 108.788 230 235 255
93.2967 173.715 110.478 195 214 255
91.0697 24.655 97.169 213 225 255
59.683 40.8182 122.967 205 220 255
27.69 75.6289 102.158 184 207 255
39.2628 83.6658 113.655 224 231 255
96.5412 101.289 118.549 255 245 235
125.677 122.382 113.19 212 224 255
113.746 129.552 103.248 234 237 255
52.8337 169.618 109.258 199 216 255
107.668 119.617 108.921 255 213 180
93.3716 173.697 110.91 240 240 255
93.3004 173.703 110.472 191 211 255
223.887 62.2282 112.201 186 208 255
160.783 76.1345 113.31 204 219 255
104.196 85.6027 114.314 213 225 255
127.838 121.097 107.678 255 166 86
115.241 132.431 108.595 208 221 255
93.2956 173.709 110.473 195 213 255
164.664 139.144 96.15 190 211 255
100.912 165.487 122.342 255 238 224
103.229 113.428 130.859 221 230 255
99.8411 69.0855 114.422 199 216 255
82.6026 116.131 113.785 216 227 255
173.428 144.814 126.406 206 220 255
140.749 109.415 114.358 195 214 255
136.326 73.0445 98.4783 225 232 255
171.783 134.051 112.132 180 204 255
102.067 127.231 111.234 193 213 255
95.9739 54.6618 114.155 255 253 248
93.2994 173.733 110.492 203 219 255
64.2302 87.4451 113.787 224 232 255
32.734 168.758 109.225 183 206 255
113.583 85.1549 109.84 226 232 255
175.927 31.6288 111.802 197 215 255
76.5941 137.239 118.973 206 220 255
152.132 101.881 112.128 188 210 255
126.109 116.998 107.859 255 246 236
51.6705 210.275 113.365 195 213 255
154.603 139.361 60.2537 191 211 255
93.1826 173.856 110.569 213 225 255
114.994 116.496 132.414 236 238 255
117.141 8.64351 114.049 193 213 255
175.701 114.975 119.376 195 214 255
76.4845 184.625 112.19 186 208 255
102.296 116.684 116.479 207 221 255
93.2978 173.717 110.48 228 234 255
135.887 25.292 122.868 198 215 255
105.572 117.956 115.932 216 226 255
115.144 130.926 105.815 255 157 66
164.416 115.354 124.352 180 204 255
49.8553 99.2994 124.596 203 219 255
132.149 71.2878 110.665 233 236 255
62.6873 110.134 105.696 190 211 255
99.9133 172.399 120.486 209 222 255
103.925 15.0388 106.136 212 224 255
93.2837 173.696 110.492 196 214 255
115.875 89.2604 109.698 219 228 255
66.4731 179.988 116.522 218 228 255
159.29 115.733 116.204 204 219 255
92.9902 174.16 111.706 202 218 255
152.799 129.458 100.437 223 231 255
93.2432 173.878 110.546 199 216 255
22.6042 49.1837 140.74 193 212 255
163.052 94.5386 106.897 200 217 255
58.0975 126.894 111.507 255 229 208
121.528 99.5244 114.531 192 212 255
155.454 94.4741 99.1014 205 220 255
93.2809 173.627 110.413 204 219 255
113.084 131.726 104.903 230 235 255
73.2272 126.658 112.831 225 232 255
116.668 116.317 103.919 223 231 255
154.591 102.031 101.172 220 229 255
108.672 94.3966 112.017 204 220 255
93.1829 173.951 110.923 211 224 255
99.0338 107.27 107.97 233 237 255
57.1356 72.4285 135.468 236 238 255
55.6357 98.6893 103.324 188 209 255
217.683 135.587 107.972 177 202 255
103.12 3.7696 101.953 193 212 255
116.713 96.714 116.291 255 236 220
86.1142 151.146 106.93 198 216 255
96.0967 144.485 106.346 199 216 255
92.7261 106.69 117.033 255 246 237
93.3017 173.77 110.52 200 217 255
93.4978 172.706 108.59 223 230 255
68.7543 82.6845 111.14 224 231 255
74.7693 139.407 123.319 255 245 235
125.269 118.75 108.119 209 222 255
133.815 77.2225 127.65 197 215 255
107.4 82.9595 121.258 226 232 255
82.4467 147.355 103.255 205 220 255
43.3743 8.06451 104.087 186 208 255
133.662 87.9108 112.923 218 228 255
106.457 134.069 109.615 255 246 237
149.348 102.266 113.714 186 208 255
75.2962 142.366 102.573 208 222 255
93.3021 173.716 110.484 225 232 255
138.816 100.848 113.891 255 251 255
73.5126 210.227 109.357 194 213 255
93.2967 173.715 110.478 204 219 255
97.8035 83.0308 116.845 238 239 255
93.3006 173.743 110.5 191 211 255
157.018 53.9829 114.716 198 215 255
134.746 167.965 114.887 201 218 255
97.07 206.449 96.3102 179 204 255
108.961 110.863 111.857 255 239 226
93.2741 173.83 110.592 255 209 173
150.578 91.1517 103.488 199 216 255
112.687 113.988 114.057 205 220 255
42.1401 213.407 99.5666 180 204 255
152.278 170.172 117.096 181 205 255
42.791 90.4075 109.684 210 223 255
89.9046 159.327 112.541 245 243 255
86.5004 138.387 108.981 255 209 172
93.2959 173.71 110.474 255 240 226
75.5412 164.408 114.569 233 237 255
120.024 111.026 114.356 255 219 191
101.853 161.36 101.189 213 225 255
116.814 126.613 110.754 255 217 188
147.23 133.82 110.525 212 224 255
119.069 15.8488 110.43 185 208 255
75.9045 143.324 106.3 208 222 255
28.9883 64.9323 112.915 198 216 255
80.5579 120.546 112.206 211 223 255
115.082 18.9347 111.234 255 236 221
51.0182 118.764 91.9922 188 209 255
86.4199 176.899 114.014 218 228 255
97.9733 169.752 117.066 195 214 255
93.301 173.78 110.526 204 219 255
115.75 106.91 106.733 255 199 153
93.2997 173.736 110.494 193 212 255
122.769 114.696 116.191 255 222 195
124.514 62.9269 117.58 218 228 255
71.2812 143.879 122.209 255 254 249
157.678 103.056 110.624 223 231 255
51.5076 134.441 113.344 190 210 255
108.426 103.23 111.761 255 217 186
105.111 109.892 110.695 255 254 250
121.377 119.798 112.176 209 222 255
66.6286 135.87 102.585 255 254 250
123.567 78.1808 115.105 218 227 255
214.928 52.7251 111.896 191 211 255
160.963 129.392 111.723 195 214 255
88.4091 84.4053 113.698 255 244 233
62.9362 105.241 109.024 183 206 255
152.954 164.04 118.318 193 212 255
134.07 219.294 122.252 193 213 255
158.888 100.786 124.968 199 216 255
109.691 92.1727 114.006 220 229 255
107.95 126.515 110.645 255 230 210
92.6226 174.328 111.399 198 215 255
100.613 178.812 106.043 212 224 255
99.53 96.018 104.827 255 252 247
64.031 110.619 108.175 186 208 255
141.032 57.9295 111.585 205 220 255
111.694 127.97 110.929 255 213 179
93.2978 173.721 110.483 191 211 255
92.2781 9.02754 108.354 185 208 255
93.2713 173.162 110.047 190 211 255
128.092 84.1478 113.448 229 234 255
105.421 99.0634 113.103 255 209 172
54.438 72.7543 96.6925 230 235 255
157.898 181.068 114.92 210 223 255
94.6576 131.421 116.371 243 242 255
85.1093 110.909 112.238 255 253 248
45.2464 78.1863 123.917 196 214 255
63.5409 99.6266 110.937 208 222 255
147.255 156.005 112.064 185 207 255
136.143 80.9656 111.531 255 226 202
93.3016 173.752 110.507 196 214 255
63.8239 90.5525 111.332 192 212 255
202.284 167.201 114.392 184 207 255
60.5994 88.6886 113.295 237 239 255
158.027 15.4096 111.592 191 211 255
93.3011 173.76 110.538 197 215 255
156.808 171.873 120.881 220 229 255
58.0659 62.8581 85.5675 203 219 255
179.603 90.1829 111.019 202 218 255
62.7226 37.9272 110.739 202 218 255
75.2346 160.488 102.72 206 220 255
105.513 147.421 105.244 208 222 255
105.741 152.1 119.253 217 227 255
93.3001 173.743 110.5 187 208 255
93.4683 173.361 111.038 217 227 255
142.335 72.2454 109.527 200 217 255
62.6606 79.7724 117.569 255 250 243
138.02 82.2057 104.516 199 216 255
58.5536 103.079 114.237 211 224 255
15.8705 106.635 92.6226 203 218 255
59.4408 62.9764 107.587 219 228 255
111.532 217.38 112.27 189 210 255
151.078 125.584 103.757 255 227 204
122.611 132.986 108.486 255 248 240
126.781 105.501 112.513 203 219 255
84.3427 132.803 112.758 218 228 255
100.264 177.966 110.954 185 207 255
114.882 148.782 107.757 255 196 148
97.6367 168.71 115.935 203 218 255
152.151 106.338 113.927 255 253 248
123.731 141.5 109.059 197 215 255
119.819 184.479 112.857 183 206 255
131.989 51.6749 109.455 198 215 255
128.026 85.2951 139.106 220 229 255
132.131 74.224 105.497 255 210 174
112.497 117.873 113.966 209 222 255
157.97 119.728 107.743 223 230 255
93.1295 84.6234 110.703 255 237 221
56.068 99.9787 110.021 211 224 255
93.5217 173.586 110.678 217 227 255
93.2934 173.699 110.466 242 242 255
115.791 56.2681 113.17 198 216 255
107.136 93.9205 116.641 206 220 255
105.731 122.628 128.019 246 244 255
84.9 165.312 120.715 214 225 255
93.6362 173.841 110.657 219 228 255
108.018 108.443 107.793 208 222 255
93.3004 173.737 110.496 189 210 255
179.697 75.4101 115.102 184 207 255
80.4491 108.054 117.241 229 234 255
94.517 117.085 109.196 255 253 249
47.4565 126.096 113.17 227 233 255
98.5686 3.773 129.541 196 214 255
52.6739 179.232 111.522 195 214 255
135.424 160.131 114.099 185 207 255
119.407 99.8855 113.179 255 233 215
124.527 104.386 110.299 218 227 255
93.3012 173.763 110.519 228 233 255
103.616 149.767 110.556 255 225 200
108.374 109.693 116.709 255 212 178
85.8552 79.0561 112.669 214 225 255
75.3593 81.7192 114.291 235 238 255
93.3017 173.751 110.506 203 219 255
99.659 106.336 120.653 255 215 184
202.208 71.2715 111.1 184 207 255
59.8728 104.66 113.756 199 216 255
82.4996 8.80674 110.386 188 209 255
93.2998 173.749 110.518 195 214 255
126.378 119.735 119.407 231 235 255
106.116 102.638 110.445 255 249 242
50.3725 44.0637 116.297 188 210 255
93.2984 173.725 110.486 196 215 255
123.348 117.547 111.754 255 253 249
167.903 83.1767 112.601 190 211 255
127.56 81.2436 112.222 255 237 221
107.488 101.809 121.821 247 245 255
28.255 72.7856 91.5261 201 217 255
116.72 122.469 115.694 255 225 201
104.362 127.723 120.011 252 247 255
107.034 129.665 105.416 251 247 255
65.9134 113.587 113.82 189 210 255
116.287 180.04 98.6429 226 232 255
33.1612 173.486 110.733 202 218 255
127.266 76.881 125.786 221 229 255
93.2996 173.733 110.492 209 222 255
160.943 109.585 113.317 231 235 255
93.2986 173.726 110.487 213 225 255
93.2993 173.739 110.497 239 240 255
93.2984 173.725 110.486 217 227 255
190.11 15.2139 103.774 194 213 255
155.283 153.549 135.933 235 237 255
108.821 155.429 114.207 208 222 255
173.91 159.428 112.97 197 215 255
38.0135 50.8866 103.88 218 228 255
88.0169 95.1816 112.132 222 230 255
66.3313 130.322 130.944 255 249 242
139.558 94.5508 110.335 196 214 255
95.5723 76.0146 113.632 255 233 216
93.3639 173.836 110.721 211 224 255
156.781 39.7409 115.994 255 241 229
83.4135 180.61 115.616 255 236 220
109.612 111.64 115.592 244 243 255
93.3119 177.012 106.849 251 247 255
58.2807 92.686 95.2727 217 227 255
119.102 113.497 129.658 255 253 248
76.9576 84.4083 111.166 199 216 255
0.442463 135.879 115.346 207 221 255
141.931 89.8494 121.412 203 219 255
97.9773 72.8198 115.012 255 218 189
62.1476 136.759 111.559 226 232 255
93.2967 173.715 110.478 203 219 255
81.4392 69.9568 112.58 203 219 255
111.093 107.158 118.357 224 231 255
135.217 91.1673 113.171 255 238 223
107.275 110.567 119.798 208 222 255
93.3007 173.743 110.5 212 224 255
104.26 122.193 112.177 255 224 199
215.409 77.8606 107.168 198 215 255
122.441 122.29 98.776 255 235 219
109.888 107.552 112.202 255 250 243
143.65 94.2148 111.798 201 217 255
173.501 78.4929 108.567 208 222 255
86.9361 84.9818 111.452 219 228 255
93.2887 173.659 110.434 204 219 255
174.278 102.359 117.102 201 218 255
164.588 99.5918 110.098 220 229 255
93.3469 173.836 110.538 235 238 255
105.228 106.271 113.796 234 237 255
124.952 63.663 118.401 200 217 255
155.843 136.002 110.414 255 253 249
93.2992 173.73 110.49 213 225 255
119.581 119.076 93.3099 255 200 156
71.9335 200.924 114.559 190 210 255
73.9906 144.197 112.57 197 215 255
93.2937 173.699 110.465 190 211 255
106.451 88.193 109.276 210 223 255
93.2922 173.698 110.465 205 220 255
97.6202 110.993 124.536 255 242 231
101.444 103.606 98.3625 255 249 243
61.1352 110.808 107.989 204 219 255
93.2983 173.724 110.485 197 215 255
93.2981 173.723 110.484 204 220 255
83.0701 138.763 112.008 255 255 252
147.125 22.1791 114.58 201 217 255
105.757 105.76 112.022 255 201 158
114.11 192.655 75.826 186 208 255
171.065 24.2048 112.615 189 210 255
17.441 164.108 113.073 193 213 255
192.441 120.488 121.658 198 216 255
107.484 172.75 108.18 192 212 255
25.7605 155.136 115.644 188 210 255
96.1728 129.826 111.039 226 233 255
106.647 129.046 110.597 235 238 255
155.087 151.443 108.953 220 229 255
189.777 141.783 118.666 196 214 255
74.7712 105.311 115.239 255 244 234
73.7194 31.2718 109.906 200 217 255
92.4196 116.144 112.8 255 255 251
100.488 97.3167 108.468 206 220 255
108.885 35.813 114.967 183 206 255
160.654 130.574 112.076 188 210 255
113.504 93.9176 118.022 195 214 255
90.694 137.554 112.274 207 221 255
63.1892 140.739 111.944 222 230 255
123.081 122.367 114.004 255 251 245
76.9414 138.711 113.302 211 224 255
114.399 112.656 101.68 254 249 255
125.97 83.2945 102.737 207 221 255
104.782 109.976 109.892 211 223 255
44.5318 149.812 111.961 192 212 255
60.9393 115.836 114.396 219 228 255
26.6852 204.892 115.224 183 206 255
96.2549 153.233 117.017 225 232 255
165.593 132.681 104.521 240 241 255
103.838 91.8335 92.7628 192 212 255
73.6672 137.677 123.783 191 211 255
127.144 85.4484 115.442 222 230 255
151.13 139.595 110.599 197 215 255
78.4426 177.468 112.908 203 219 255
117.137 126.414 106.301 206 220 255
90.5999 156.755 107.484 222 230 255
135.49 112.515 110.477 255 185 127
121.503 121.306 120.545 255 172 99
98.5569 100.96 106.029 255 245 236
94.225 145.827 108.483 192 212 255
71.6606 131.992 111.4 211 224 255
102.717 102.375 118.487 229 234 255
87.2506 115.226 113.61 255 215 183
93.2981 173.723 110.485 196 215 255
94.1012 172.259 118.48 210 223 255
67.9613 196.73 114.512 201 217 255
136.913 84.6207 119.545 194 213 255
104.691 91.6659 118.74 255 226 203
114.039 84.1141 121.424 255 246 237
110.733 129.297 105.181 255 235 218
125.052 124.814 103.792 255 168 90
105.304 62.3125 112.457 227 233 255
111.959 128.552 102.668 255 224 200
120.633 122.825 115.473 255 250 255
95.8154 206.227 108.712 205 220 255
95.9562 151.791 109.572 253 248 255
122.343 83.8545 118.063 255 243 232
93.2994 173.732 110.492 189 210 255
99.9874 138.66 110.834 255 195 146
68.2428 141.916 103.974 220 229 255
126.232 72.6729 113.034 213 225 255
142.953 106.716 112.371 213 225 255
208.43 75.1593 107.172 218 228 255
138.026 36.7323 113.06 208 222 255
90.5639 95.2364 115.602 188 210 255
18.5786 163.692 110.111 183 206 255
5.31151 155.751 111.781 200 217 255
99.4271 158.578 113.943 225 232 255
111.858 99.4158 114.136 224 231 255
66.4157 121.839 105.027 187 209 255
102.423 78.3768 110.969 233 236 255
76.6675 60.7884 111.735 185 207 255
93.2571 173.545 110.389 221 230 255
100.646 125.479 112.095 229 234 255
93.398 174.108 111.026 198 215 255
104.821 109.35 121.959 255 141 25
212.731 161.48 116.914 190 211 255
123.038 129.144 104.908 255 242 230
128.897 116.164 112.092 255 243 232
111.386 140.935 111.979 255 252 247
25.8226 141.79 113.244 235 237 255
93.2981 173.723 110.485 213 225 255
100.645 168.428 119.741 255 253 249
75.9447 139.364 104.595 199 217 255
66.9187 35.7495 110.577 236 238 255
67.8189 131.495 100.298 251 246 255
105.771 121.881 132.142 255 187 131
75.5415 131.43 111.248 179 204 255
173.901 101.069 131.99 230 235 255
133.425 28.5598 113.697 197 215 255
120.555 118.95 121.083 255 253 249
86.3773 142.805 119.243 179 204 255
118.364 42.7609 114.891 225 232 255
102.652 109.554 102.752 250 246 255
106.908 157.319 112.501 255 247 238
109.724 155.592 104.989 227 233 255
115.751 125.749 116.563 255 225 201
34.9362 157.842 109.105 193 213 255
93.2979 173.722 110.484 209 222 255
154.043 151.35 100.056 193 213 255
69.8185 152.02 102.232 255 232 214
100.234 117.433 110.239 199 216 255
100.097 109.04 109.073 233 237 255
116.063 89.73 116.991 255 251 255
78.8701 106.998 114.372 198 215 255
123.385 111.091 125.962 241 241 255
115.164 144.514 114.159 243 242 255
65.6414 159.613 110.552 197 215 255
148.115 96.7537 106.872 201 217 255
194.671 66.1533 116.89 194 213 255
41.1289 87.1738 112.531 184 207 255
93.2975 173.72 110.482 209 222 255
89.0595 181.397 114.616 214 226 255
116.823 118.07 113.651 246 244 255
111.12 91.4562 124.286 209 222 255
43.9623 129.415 108.812 198 216 255
93.2981 173.723 110.485 230 235 255
163.396 135.556 102.924 195 214 255
137.613 96.2795 113.27 217 227 255
36.5531 155.445 115.191 208 221 255
78.9772 205.996 116.842 190 211 255
159.533 130.064 137.979 223 230 255
154.102 22.3594 111.295 255 253 248
81.7837 157.312 107.641 191 211 255
113.203 108.123 109.387 231 235 255
62.3454 40.1297 101.785 200 217 255
76.989 137.865 96.8722 222 230 255
93.2992 173.73 110.49 235 238 255
30.804 188.238 112.255 198 215 255
105.336 83.719 123.851 217 227 255
79.8594 46.3736 85.668 200 217 255
93.1296 173.249 110.11 255 216 186
184.569 104.359 111.595 230 235 255
129.113 130.59 111.968 207 221 255
93.0872 143.586 111.845 209 223 255
67.4786 109.96 112.677 253 248 255
52.2917 88.8 97.1522 200 217 255
137.878 111.165 110.429 255 254 251
88.8962 64.7425 109.959 211 223 255
171.66 74.4023 114.202 202 218 255
109.027 136.494 115.294 202 218 255
79.5767 143.099 110.56 255 168 90
41.5462 138.543 114.535 188 209 255
101.26 99.7559 119.3 240 241 255
93.3007 173.742 110.5 208 222 255
100.429 172.631 118.203 255 226 203
171.488 94.3073 114.53 197 215 255
72.6397 179.033 96.1639 205 220 255
122.603 122.453 105.084 212 224 255
96.0326 155.756 128.831 204 219 255
59.2624 75.3397 113.572 220 229 255
105.066 115.423 109.964 225 232 255
96.947 124.703 110.667 255 234 217
98.9791 140.586 112.61 255 248 240
113.735 129.011 99.1904 255 244 233
108.841 88.4574 109.498 211 224 255
223.873 143.055 120.764 186 208 255
98.0602 122.011 120.378 255 206 168
107.895 111.794 112.911 255 253 249
126.765 39.3893 111.485 232 236 255
62.1675 50.2229 99.1958 190 211 255
93.1781 173.692 110.578 227 233 255
97.1817 117.331 126.324 255 203 162
144.631 86.1788 112.587 196 214 255
176.174 30.5345 111.196 228 234 255
13.7869 188.107 108.971 193 213 255
77.6938 44.7635 113.488 222 230 255
144.657 158.261 110.044 242 242 255
184.072 39.4046 112.386 195 213 255
90.2622 42.496 111.215 229 234 255
125.763 121.735 106.626 225 232 255
142.533 5.87774 107.255 185 207 255
117.19 139.749 112.632 255 250 255
69.8582 212.392 104.265 187 209 255
125.087 72.8095 128.665 201 218 255
84.4639 70.9535 112.343 244 243 255
205.391 95.7723 111.929 192 212 255
108.13 53.7513 115.641 193 213 255
49.8643 149.106 113.752 200 217 255
166.002 115.881 112.039 218 228 255
112.416 131.446 105.51 220 229 255
93.3008 173.748 110.504 204 219 255
124.269 92.3771 88.7015 255 254 250
133.771 70.8435 112.541 195 214 255
108.13 105.208 113.06 209 222 255
134.324 142.474 111.866 255 249 255
93.9929 123.194 57.5969 214 225 255
64.1769 182.871 110.049 188 209 255
