ply
format ascii 1.0
element vertex 1341
property float x
property float y
property float z
property uchar red
property uchar green
property uchar blue
end_header
141.907 93.5191 112.396 247 244 255
111.361 118.4 119.581 192 212 255
108.043 110.837 105.936 207 221 255
152.828 82.3446 123.734 255 219 191
97.8964 117.26 109.041 204 219 255
118.209 114.394 113.357 217 227 255
98.7756 97.0243 107.221 255 222 196
86.523 183.046 107.252 255 230 210
124.387 135.588 104.905 255 253 248
126.882 114.409 117.949 255 253 248
100.591 27.2427 100.866 239 240 255
145.224 185.249 106.604 255 248 241
121.787 113.156 134.24 205 220 255
53.6064 129.525 125.733 203 219 255
108.313 102.811 126.973 225 232 255
46.4575 136.663 137.713 255 253 248
85.9878 171.216 109.297 255 252 247
153.413 150.5 127.974 197 215 255
107.943 114.622 98.4756 203 219 255
122.32 54.5449 117.896 203 219 255
93.6708 173.8 111.276 199 216 255
126.204 116.877 117.776 255 187 131
102.373 136.363 124.877 255 218 190
56.1169 119.733 132.796 202 218 255
24.3238 97.1146 68.7923 198 216 255
129.923 131.405 104.387 213 225 255
84.2841 155.36 111.094 219 228 255
118.556 118.964 118.61 255 254 250
93.6419 173.784 111.409 210 223 255
79.7292 33.9585 103.742 187 209 255
93.7428 173.745 111.463 180 204 255
118.689 102.221 123.633 229 234 255
123.309 126.341 85.3111 195 214 255
93.6474 173.782 111.412 194 213 255
154.419 102.133 105.633 248 245 255
58.1733 114.067 112.248 255 232 214
80.0677 144.017 115.456 255 154 59
120.904 137.642 97.0111 255 185 126
123.717 121.545 118.337 217 227 255
109.576 129.065 109.436 255 227 204
124.687 82.5652 102.621 255 249 242
106.145 184.016 149.238 231 235 255
119.032 172.33 124.225 255 199 153
95.3643 39.0663 103.482 189 210 255
95.9464 156.483 113.991 241 241 255
108.822 144.743 99.545 232 236 255
135.897 131.851 111.298 232 236 255
62.0285 105.269 97.8147 208 222 255
49.8706 104.767 97.3382 255 226 204
163.364 116.084 111.635 220 229 255
104.929 113.302 115.374 207 221 255
183.679 42.9249 111.142 200 217 255
106.494 105.703 121.53 221 230 255
105.636 118.862 113.065 239 240 255
101.905 69.8432 117.696 214 225 255
58.0868 156.344 122.06 217 227 255
116.109 115.62 125.71 255 236 220
134.147 189.287 120.204 183 206 255
109.799 109.708 118.016 207 221 255
84.7917 155.3 110.184 216 227 255
134.635 126.485 118.478 255 211 177
93.6417 173.784 111.409 194 213 255
93.6466 173.782 111.412 255 198 151
27.5778 147.104 112.796 201 217 255
75.0728 42.6539 109.376 210 223 255
114.517 139.212 105.517 255 192 140
93.6202 184.474 111.575 199 217 255
107.798 111.003 115.364 203 219 255
93.691 173.763 111.436 255 255 251
103.458 137.759 109.709 255 229 207
71.3843 137.107 104.5 210 223 255
99.7316 99.986 132.891 237 239 255
93.8987 173.933 111.633 255 251 255
107.575 183.186 111.224 209 222 255
87.5596 149.162 130.174 200 217 255
126.07 130.16 106.049 223 231 255
8.58906 212.913 107.791 181 205 255
102.059 132.871 110.982 178 203 255
99.7199 164.571 112.894 213 225 255
134.029 87.9257 112.756 255 246 238
133.105 70.735 100.596 199 216 255
109.41 129.392 116.784 205 220 255
93.6345 173.787 111.405 255 247 238
125.69 118.83 100.404 255 239 226
93.6403 173.448 111.757 255 183 123
106.177 117.969 109.462 205 220 255
93.9616 174.288 111.593 233 236 255
33.4135 103.115 79.5935 191 211 255
164.779 90.9623 159.438 193 212 255
93.6061 173.796 111.393 254 249 255
118.311 144.16 100.684 255 238 224
91.3594 136.238 112.449 212 224 255
122.076 128.447 123.993 232 236 255
115.353 110.396 111.538 233 237 255
140.154 13.348 107.65 195 213 255
93.6395 173.785 111.408 207 221 255
69.2059 71.6671 114.359 202 218 255
93.6111 173.794 111.394 255 245 235
184.544 172.002 116.087 223 230 255
58.0164 125.46 99.3611 193 213 255
130.126 110.568 107.727 249 246 255
156.116 127.624 110.608 216 227 255
127.435 195.083 111.081 200 217 255
101.668 95.9778 104.493 228 234 255
116.574 108.846 118.421 255 229 209
93.8138 175.277 110.164 237 239 255
96.267 130.738 111.374 255 201 158
69.8046 69.6175 104.589 233 236 255
109.833 102.253 104.576 203 219 255
108.203 90.7275 109.611 191 211 255
117.484 107.893 113.411 255 170 96
111.481 126.23 122.521 255 233 216
142.397 91.8653 117.553 255 254 250
93.6541 173.779 111.416 197 215 255
44.9451 119.998 100.703 215 226 255
116.553 135.122 104.216 239 240 255
116.994 87.0492 120.466 236 238 255
77.356 195.397 111.669 217 227 255
120.471 123.73 108.987 255 220 192
93.6565 173.778 111.417 214 226 255
114.173 121.653 118.183 224 231 255
122.9 83.9719 125.006 255 202 159
77.7574 28.0073 121.149 183 206 255
93.6522 173.78 111.415 201 218 255
93.4117 28.5729 107.799 190 210 255
93.6012 173.795 111.393 251 247 255
132.468 80.8739 98.8422 220 229 255
110.21 118.986 115.45 255 218 189
103.355 86.0326 119.686 199 216 255
136.411 107.38 114.825 255 176 109
109.981 111.144 110.007 236 238 255
26.5115 178.725 112.496 206 220 255
114.669 153.153 126.81 221 229 255
121.74 205.996 100.297 193 213 255
145.617 99.8225 101.253 191 211 255
126.642 128.981 113.6 217 227 255
116.009 109.526 110.532 255 198 152
106.036 107.885 110.905 209 222 255
120.394 111.62 115.534 255 177 110
67.6204 70.0529 105.602 199 216 255
115.915 134.224 113.837 205 220 255
114.708 156.055 109.181 209 222 255
93.6674 173.773 111.423 225 232 255
113.178 138.374 18.7768 192 212 255
93.549 173.803 111.375 208 222 255
128.544 79.0073 105.92 226 233 255
93.6243 173.79 111.401 255 235 219
84.8722 143.953 121.856 209 222 255
70.2582 22.5135 98.6986 197 215 255
68.3203 149.757 88.2246 189 210 255
202.052 20.4917 101.551 177 203 255
98.1408 95.9495 115.976 255 249 255
159.684 117.29 116.508 201 218 255
105.663 115.585 108.924 255 244 234
93.6405 173.784 111.408 255 250 244
171.526 89.8507 101.656 200 217 255
60.2402 146.768 100.47 202 218 255
113.835 76.0332 126.806 203 219 255
93.6419 173.784 111.409 184 207 255
122.043 117.767 126.207 236 238 255
93.68 173.768 111.43 201 218 255
222.108 114.18 112.491 203 219 255
85.2222 53.8877 70.3019 255 221 195
141.1 44.8681 46.2807 199 216 255
119.424 146.471 124.055 226 232 255
93.6405 173.785 111.408 255 213 180
93.6465 173.782 111.412 237 239 255
222.304 74.2882 112.531 195 214 255
174.659 20.6608 109.708 199 216 255
65.8955 129.857 110.226 195 213 255
69.5175 165.246 98.0027 238 239 255
114.816 161.986 114.064 222 230 255
93.6412 173.784 111.409 206 220 255
93.7497 173.738 111.465 201 217 255
62.4642 126.853 113.721 216 227 255
146.902 48.0988 119.805 197 215 255
124.474 79.2223 117.121 194 213 255
42.9229 152.502 111.272 190 211 255
96.6982 162.269 131.469 206 221 255
112.78 120.924 117.43 207 221 255
78.9821 145.688 108.441 218 228 255
104.964 70.7664 100.568 239 240 255
121.954 12.2135 128.199 226 233 255
108.127 99.271 127.024 191 212 255
9.63655 194.503 122.233 198 215 255
93.6558 173.778 111.417 200 217 255
120.907 162.742 119.08 241 241 255
88.6302 84.6772 111.995 187 209 255
68.4567 151.988 119.874 214 225 255
93.6494 173.781 111.413 204 219 255
167.563 54.5916 112.528 182 205 255
93.9799 173.985 111.775 189 210 255
98.3651 112.491 114.132 255 249 241
93.6128 173.794 111.395 191 211 255
118.221 131.949 115.665 207 221 255
68.4833 112.829 98.0347 209 222 255
91.0274 120.282 117.861 255 224 199
131.365 146.944 117.41 241 241 255
75.3581 40.6545 149.51 198 216 255
118.998 123.753 117.739 255 246 237
101.818 109.511 100.827 206 220 255
131.248 114.628 105.546 255 232 213
131.366 105.241 108.492 255 152 54
93.6802 173.768 111.43 255 249 255
137.407 22.1411 105.226 200 217 255
92.1067 137.971 107.622 228 233 255
43.726 58.0119 67.7875 216 227 255
49.5943 189.57 113.372 190 211 255
147.132 113.587 101.849 229 234 255
151.585 148.638 162.928 199 216 255
112.855 112.348 126.106 217 227 255
93.7451 173.735 111.471 255 247 238
93.5852 173.799 111.384 199 216 255
93.6509 173.781 111.414 255 243 232
208.398 85.8355 112.928 202 218 255
107.056 122.783 118.425 255 254 251
67.8264 126.16 109.802 222 230 255
72.8875 166.695 94.3827 200 217 255
146.72 108.2 86.6849 183 206 255
50.4842 88.0105 110.641 209 223 255
128.923 197.522 127.456 190 211 255
42.9558 34.5201 131.878 186 208 255
129.998 192.64 127.324 199 216 255
114.263 165.327 106.597 204 219 255
85.3695 118.191 106.254 193 212 255
75.1921 164.162 114.94 255 187 131
104.338 185.058 106.782 182 206 255
93.6423 173.784 111.409 198 216 255
129.307 123.581 109.764 220 229 255
97.1219 147.401 119.545 202 218 255
78.4418 51.6786 102.505 206 221 255
93.6709 173.772 111.425 198 216 255
93.6443 173.783 111.41 199 216 255
67.318 95.4333 120.853 194 213 255
93.7572 173.723 111.493 255 255 252
142.737 90.3999 116.932 193 212 255
96.7503 138.491 106.391 255 255 251
56.5091 101.466 129.284 207 221 255
151.478 82.4386 129.608 255 186 128
162.978 104.588 123.894 242 241 255
93.6416 173.784 111.409 227 233 255
115.111 129.119 123.615 255 211 175
93.5422 173.839 111.399 207 221 255
108.615 140.456 115.059 255 247 239
93.5719 173.887 111.367 198 215 255
145.253 31.2395 112.914 192 212 255
109.155 108.26 114.897 255 174 104
24.4678 153.302 114.891 207 221 255
42.0603 128.382 114.003 183 206 255
139.743 44.4998 108.742 190 211 255
93.5369 60.2826 107.432 200 217 255
93.653 173.78 111.415 255 255 251
83.5597 6.79532 103.189 198 216 255
109.646 85.9788 128.444 198 216 255
122.815 205.928 122.865 202 218 255
42.2672 145.966 116.311 193 213 255
137.921 31.7178 103.357 219 228 255
109.373 107.45 114.501 255 222 196
35.6589 98.957 132.95 211 223 255
58.6378 131.894 97.9723 197 215 255
36.4985 113.268 132.26 193 212 255
93.6658 173.774 111.422 209 222 255
68.889 109.462 108.579 215 226 255
86.7814 170.552 125.054 255 254 251
102.202 179.771 113.764 234 237 255
93.6582 173.777 111.418 204 219 255
94.4268 174.051 110.504 205 220 255
124.958 82.5535 95.7825 206 220 255
63.1087 126.695 96.2524 216 227 255
221.225 36.1713 104.604 194 213 255
113.232 131.602 104.077 235 238 255
134.332 132.899 114.464 224 231 255
98.1605 151.026 107.992 184 207 255
109.113 30.192 109.808 207 221 255
111.214 119.067 121.093 216 227 255
101.414 104.109 106.485 255 230 209
65.3343 38.315 93.6637 187 209 255
89.2383 103.582 107.49 194 213 255
126.631 75.0181 136.785 204 219 255
153.423 17.4714 109.875 238 239 255
55.4532 46.1816 126.375 207 221 255
109.59 130.908 103.26 255 218 188
112.881 170.163 102.841 229 234 255
95.1893 146.314 110.152 185 207 255
170.04 25.0781 112.243 190 211 255
93.5847 173.801 111.38 217 227 255
105.288 147.403 117.988 255 248 240
63.313 109.24 141.692 216 226 255
77.6152 57.2029 111.003 204 219 255
93.6265 173.79 111.402 192 212 255
120.591 126.472 122.027 255 208 170
93.644 173.783 111.41 209 223 255
128.165 10.6246 123.695 255 252 246
94.0794 173.468 111.803 211 224 255
126.115 123.025 130.33 255 244 233
134.397 188.475 103.247 180 204 255
135.22 72.1394 116.502 202 218 255
114.312 131.363 120.475 217 227 255
115.486 101.447 101.47 255 237 222
106.157 107.667 118.503 232 236 255
62.6157 88.2944 109.518 182 206 255
106.187 149.969 107.913 255 210 174
130.884 129.206 118.649 255 218 189
78.3189 141.783 100.729 203 219 255
114.643 169.864 110.165 222 230 255
116.326 130.538 106.005 212 224 255
108.609 112.132 108.073 255 251 246
103.65 92.0032 103.816 228 233 255
132.282 84.1776 92.5704 210 223 255
137.931 168.801 121.162 189 210 255
126.534 139.908 107.752 255 248 241
128.187 80.3724 125 204 219 255
93.654 173.736 111.495 191 212 255
131.578 177.57 114.193 226 232 255
93.5626 173.782 111.417 186 208 255
122.285 130.981 98.8263 255 250 243
113.362 122.01 106.221 255 249 242
150.523 89.5141 131.081 195 214 255
89.9444 59.2521 124.982 191 211 255
155.458 130.252 104.56 204 220 255
149.873 115.023 105.044 197 215 255
122.811 164.064 118.728 190 211 255
93.6454 173.782 111.411 193 212 255
73.0112 211.241 110.325 194 213 255
110.066 177.646 89.3218 204 219 255
22.4206 138.519 112.658 205 220 255
111.368 84.3141 128.577 212 224 255
42.3283 212.724 115.896 208 222 255
94.3155 157.503 120.069 255 250 244
107.229 111.204 122.173 202 218 255
124.527 131.896 112.388 246 244 255
79.5524 193.546 117.852 187 209 255
108.756 115.46 119.098 255 223 198
156.342 78.1341 114.15 255 246 237
114.341 118.709 112.635 207 221 255
149.253 50.0997 116.702 201 217 255
83.7862 189.554 106.484 210 223 255
98.1121 41.6172 126.904 203 219 255
133.491 58.1822 115.383 209 222 255
151.745 35.7954 113.982 218 227 255
92.834 136.974 112.292 255 252 247
119.242 121.128 110.514 223 230 255
108.054 92.2691 128.414 214 225 255
108.621 115.273 115.186 255 249 241
57.3723 66.0229 115.662 183 206 255
107.069 115.731 98.5411 255 238 223
109.447 157.103 110.509 219 228 255
107.694 84.8871 121.032 199 216 255
104.136 160.814 86.4065 209 222 255
133.973 76.2236 135.033 255 247 238
105.098 127.052 121.026 255 244 233
98.1489 175.681 111.583 203 219 255
93.6376 173.786 111.407 215 226 255
88.5306 168.143 106.985 255 250 255
112.916 123.011 110.45 226 232 255
106.739 83.8914 123.194 197 215 255
165.388 108.04 138.483 205 220 255
185.104 59.3366 116.731 211 223 255
118.386 25.5452 164.799 195 214 255
72.6343 106.699 115.158 209 222 255
107.182 105.55 100.641 209 222 255
119.411 138.789 110.395 212 224 255
123.952 125.332 146.444 207 221 255
117.244 128.272 93.4892 230 235 255
151.631 149.213 104.509 185 207 255
143.28 96.2756 119.549 210 223 255
92.5487 173.998 111.332 195 214 255
75.2797 36.0581 94.4692 183 206 255
119.347 114.084 109.214 255 250 243
115.591 115.849 118.266 255 245 236
93.7254 173.716 111.472 255 246 236
128.592 211.338 124.463 201 218 255
79.8158 141.105 111.909 204 219 255
10.1715 110.345 104.379 188 209 255
88.116 78.4966 108.693 215 226 255
88.2789 167.678 120.823 231 235 255
126.292 111.697 125.007 255 240 226
205.578 50.0882 117.45 192 212 255
69.4046 142.799 94.818 232 236 255
171.211 10.2145 112.299 210 223 255
93.637 173.786 111.407 214 225 255
128.323 148.352 120.968 189 210 255
54.1149 143.779 121.918 201 217 255
93.7552 173.741 111.454 205 220 255
99.9788 160.864 130.31 206 220 255
93.6812 173.767 111.431 207 221 255
93.5702 173.788 111.402 228 234 255
33.8343 70.0338 186.939 201 218 255
71.5006 155.818 111.657 255 244 233
93.6909 173.763 111.436 255 236 220
93.6448 173.783 111.411 217 227 255
93.6142 173.794 111.396 189 210 255
93.8365 114.145 125.947 200 217 255
124.832 86.2834 112.633 210 223 255
82.2084 188.373 103.404 255 235 219
161.957 30.0848 111.28 190 211 255
111.283 99.6871 107.999 223 231 255
93.6216 173.793 111.402 236 238 255
143.143 164.956 116.685 187 209 255
125.185 73.8495 133.161 223 230 255
104.133 100.049 108.441 255 226 202
129.042 75.1753 105.072 202 218 255
93.6401 173.785 111.408 215 226 255
138.9 185.042 113.94 242 241 255
80.4912 111.591 107.44 208 222 255
82.8435 147.138 112.599 215 226 255
93.6378 173.786 111.407 216 227 255
158.426 119.274 108.227 194 213 255
93.6247 173.784 111.382 196 215 255
99.5732 95.3817 101.513 250 246 255
18.4847 94.3865 74.0109 235 238 255
133.166 64.5861 121.497 206 221 255
113.547 118.526 117.63 255 240 226
182.984 30.2708 110.439 236 238 255
86.8874 82.4568 109.763 255 212 178
93.872 173.751 111.401 184 207 255
92.263 49.0815 110.323 255 223 197
55.5839 209.948 116.386 223 231 255
134.927 41.6055 118.346 193 213 255
93.6125 173.794 111.395 255 242 231
93.6892 173.764 111.435 189 210 255
93.3795 174.536 111.624 255 225 202
98.4742 86.167 128.5 216 226 255
130.28 123.799 102.474 255 213 179
122.22 139.543 114.161 236 238 255
113.868 144.887 104.644 210 223 255
101.2 145.224 110.917 255 250 255
86.1507 78.8491 108.265 197 215 255
105.685 182.54 111.204 184 207 255
136.105 209.363 137.595 199 216 255
110.879 120.963 118.722 248 245 255
125.12 140.941 103.045 255 225 200
130.016 138.544 108.86 252 247 255
93.4508 174.07 111.113 251 246 255
138.954 178.471 159.323 188 209 255
119.104 113.036 105.436 255 235 219
79.9737 171.234 92.1526 255 211 177
80.3938 140.128 112.281 230 235 255
94.1326 159.64 146.115 207 221 255
91.52 103.699 117.415 210 223 255
141.367 93.7526 147.527 194 213 255
31.5993 38.289 82.9683 249 246 255
106.996 24.6104 111.415 198 215 255
126.086 121.826 94.7673 255 96 0
112.304 103.504 111.499 198 215 255
54.0424 101.025 123.687 198 216 255
115.869 140.849 98.2174 255 254 250
146.417 125.237 120.496 186 208 255
81.702 118.694 109.345 208 222 255
135.686 68.7711 112.182 196 214 255
40.024 107.791 94.9447 255 252 247
136.89 108.746 130.382 207 221 255
93.6455 173.783 111.411 187 209 255
71.6851 109.247 114.311 192 212 255
35.2534 61.2128 101.808 200 217 255
105.307 95.0286 115.724 200 217 255
107.964 137.066 110.212 197 215 255
93.6436 173.783 111.41 200 217 255
112.891 154.88 110.805 255 246 238
180.857 79.1415 152.593 255 239 226
131.517 158.103 122.369 196 215 255
147.386 17.0762 111 255 235 218
107.509 110.648 120.299 225 232 255
94.1307 173.197 112.103 255 206 168
67.3825 141.133 120.123 247 244 255
140.906 72.6679 134.847 202 218 255
130.8 110.13 117.164 216 226 255
93.6336 173.787 111.405 250 246 255
93.6619 173.776 111.42 206 220 255
106.525 116.464 115.8 211 224 255
57.3791 114.782 130.087 200 217 255
61.9466 98.0961 116.494 199 216 255
94.0874 173.864 110.879 200 217 255
119.47 105.475 122.767 213 225 255
46.288 66.5984 116.003 211 224 255
109.381 80.3519 111.633 205 220 255
74.0512 128.667 111.03 201 218 255
47.3705 75.6744 124.519 219 228 255
104.425 102.98 110.632 242 241 255
111.509 111.381 117.15 255 252 246
154.762 12.3154 120.981 182 206 255
115.186 152.354 103.96 218 228 255
89.7232 166.865 111.885 210 223 255
181.806 42.5926 111.435 184 207 255
132.779 89.8634 113.124 255 247 238
130.035 117.908 102.595 255 229 208
117.803 99.4317 72.3446 255 0 0
93.6464 173.782 111.412 197 215 255
112.825 183.418 109.788 212 224 255
76.5109 172.822 110.515 247 245 255
93.6403 173.785 111.408 213 225 255
84.8711 105.509 110.872 241 241 255
104.038 182.744 118.314 215 226 255
107.186 181.221 107.88 225 232 255
57.4375 85.4998 110.806 221 229 255
93.5263 173.731 111.675 255 245 235
1.69826 149.318 123.703 192 212 255
93.5029 173.697 111.343 218 228 255
102.297 146.168 110.451 211 223 255
105.734 78.1564 118.315 206 220 255
108.188 87.0623 115.462 255 146 39
113.807 86.895 117.598 245 243 255
109.564 126.342 115.004 255 236 220
72.6735 146.588 138.556 217 227 255
93.6402 173.785 111.408 255 255 251
155.37 70.5778 113.788 209 222 255
188.833 59.4924 112.036 193 212 255
130.491 117.544 95.1085 255 255 252
67.0165 73.5363 138.995 255 251 245
127.173 20.1892 109.218 201 217 255
87.1791 164.317 116.861 214 225 255
112.889 30.1314 110.957 190 211 255
61.4837 203.391 109.7 187 209 255
116.975 125.083 99.9188 241 241 255
93.6145 173.793 111.396 255 250 244
114.901 141.941 94.2298 242 242 255
69.903 178.586 96.2428 255 240 227
124.882 12.7624 117.372 183 206 255
114.983 118.286 110.504 255 207 168
125.823 89.0035 118.216 227 233 255
147.649 121.823 103.524 194 213 255
83.6968 135.241 92.0077 205 220 255
135.614 69.2727 109.765 188 209 255
71.7267 62.1481 112.999 225 232 255
96.3506 32.3438 107.175 235 237 255
35.7521 20.5592 124.311 178 203 255
60.7449 106.744 102.828 179 204 255
119.013 113.716 114.399 255 239 225
100.382 130.699 115.079 207 221 255
122.948 110.094 91.5768 211 223 255
93.6321 173.771 111.409 243 242 255
121.135 117.637 120.433 230 235 255
113.41 119.609 137.587 245 243 255
130.88 111.931 112.513 196 214 255
104.732 109.901 112.224 227 233 255
93.6764 173.77 111.428 219 228 255
129.768 140.704 115.797 255 250 255
104.738 127.913 110.538 255 225 201
93.6164 173.793 111.397 215 226 255
59.4013 59.1425 107.34 229 234 255
150.984 106.652 118.173 214 225 255
108.251 108.483 116.11 204 219 255
93.6506 173.781 111.414 195 214 255
93.6488 173.781 111.413 200 217 255
84.8039 154.938 117.444 255 234 217
119.833 110.097 119.541 195 214 255
69.4767 222.639 107.132 209 223 255
93.6933 173.762 111.437 210 223 255
86.8382 74.551 115.915 195 214 255
93.6277 173.766 111.296 215 226 255
146.137 84.3196 131.374 255 237 221
152.861 137.549 114.524 196 214 255
112.323 119.71 113.253 255 218 189
102.715 111.883 87.232 203 219 255
140.372 108.044 130.667 192 212 255
102.633 129.345 90.6292 238 239 255
83.4739 113.571 124.324 255 215 182
114.935 89.1968 135.112 255 234 216
67.6575 51.2568 120.251 199 216 255
102.248 116.064 115.006 255 212 178
106.051 105.11 116.575 219 229 255
52.6861 115.371 97.6391 198 216 255
93.6604 173.777 111.419 203 219 255
147.101 120.221 103.075 195 214 255
93.044 218.789 120.225 191 211 255
111.274 120.368 116.618 209 222 255
91.0468 173.972 110.154 190 210 255
178.407 10.9453 117.156 187 209 255
81.441 191.303 91.659 219 228 255
136.467 21.1526 111.823 191 211 255
108.713 152.018 97.1926 215 226 255
121.497 130.993 112.571 255 202 160
112.542 124.437 113.977 255 126 0
114.084 104.806 111.197 215 226 255
131.479 138.375 116.43 255 250 243
93.6419 173.784 111.409 198 215 255
82.1121 193.89 98.3554 255 248 239
63.3216 131.99 115.342 255 247 238
126.689 155.508 114.846 193 212 255
85.4328 191.719 90.2951 206 220 255
148.538 95.691 111.894 233 236 255
157.757 145.488 125.52 200 217 255
93.6525 173.78 111.415 255 202 159
187.61 21.0032 114.658 200 217 255
93.7332 173.745 111.458 248 245 255
67.4541 46.3152 97.6505 191 212 255
63.8386 148.962 109.328 255 252 246
121.012 151.992 60.3581 255 241 229
92.1724 52.9376 114.019 192 212 255
93.6755 173.77 111.428 201 217 255
107.657 89.7996 105.882 255 254 250
141.03 86.2694 140.932 224 231 255
130.54 132.238 106.124 255 239 225
121.353 135.059 98.149 218 227 255
158.417 76.3138 114.536 211 224 255
58.8234 141.068 103.275 200 217 255
92.2355 170.294 110.74 219 228 255
129.959 129.222 104.9 199 216 255
138.893 31.3466 105.049 189 210 255
144.484 66.8793 116.146 185 207 255
192.568 112.497 103.171 222 230 255
126.729 113.396 115.227 252 247 255
155.716 132.833 123.608 197 215 255
135.778 104.939 111.713 217 227 255
83.9629 111.927 109.702 193 213 255
95.9485 125.681 114.597 255 206 167
43.8045 76.9857 104.593 255 202 159
103.979 147.508 106.069 219 228 255
56.2916 81.5982 97.254 189 210 255
134.011 108.897 123.477 222 230 255
51.1806 88.9478 163.797 192 212 255
121.155 128.998 114.27 255 244 234
87.2873 186.901 107.281 208 222 255
40.4102 119.814 63.5972 212 224 255
108.809 136.251 106.498 233 236 255
93.644 173.783 111.41 186 208 255
119.162 107.651 102.796 255 250 243
58.1408 167.943 116.769 190 211 255
67.0138 28.8009 28.3581 207 221 255
131.259 141.046 109.731 202 218 255
151.677 102.369 116.76 212 224 255
129.421 103.196 97.1879 212 224 255
152.745 146.658 110.945 183 206 255
106.512 143.44 108.541 255 245 236
96.0206 88.839 113.539 215 226 255
93.6432 173.784 111.41 234 237 255
93.6495 173.781 111.413 214 225 255
84.4429 55.6069 112.821 242 241 255
195.835 127.407 121.84 193 213 255
22.8585 89.2627 107.607 194 213 255
92.2201 114.944 112.43 255 233 215
93.3969 145.438 116.208 255 254 250
67.3927 55.7045 119.335 233 236 255
93.9814 174.251 111.3 203 218 255
45.9196 110.679 138.992 179 204 255
146.244 106.08 107.446 188 209 255
155.801 46.4534 114.084 191 211 255
144.188 93.3977 112.953 203 219 255
93.6066 173.799 111.386 215 226 255
101.529 112.218 113.517 234 237 255
99.1931 160.277 115.085 255 245 235
84.9796 157.932 102.962 231 235 255
56.3803 143.883 128.958 190 210 255
109.91 194.41 106.772 185 207 255
136.55 130.508 95.3293 255 239 226
129.38 118.578 102.851 242 241 255
128.397 162.368 106.792 193 213 255
71.9243 64.0183 112.222 205 220 255
60.2088 95.811 111.858 186 208 255
167.582 48.9164 116.132 203 219 255
183.495 125.364 37.0922 201 218 255
135.799 130.632 116.537 255 193 142
129.008 136.792 113.015 204 219 255
123.988 72.4293 107.899 235 237 255
57.5993 105.418 104.328 239 240 255
108.485 95.6196 86.937 227 233 255
19.9478 59.6826 116.363 180 204 255
101.047 134.347 109.174 224 231 255
42.0426 108.009 137.946 253 248 255
58.9556 136.799 124.97 203 219 255
124.489 128.7 106.251 255 249 243
141.366 125.677 111.047 255 250 255
161.848 126.602 105.981 211 223 255
117.594 85.7347 112.028 207 221 255
108.705 110.094 115.891 255 220 192
126.496 116.911 101.967 251 246 255
78.3448 206.443 112.123 200 217 255
93.6149 173.798 111.396 186 208 255
93.6374 173.786 111.407 200 217 255
114.787 142.95 106.328 210 223 255
190.015 97.6652 133.248 218 227 255
210.033 102.524 118.273 181 205 255
93.6554 173.779 111.417 220 229 255
99.6376 134.161 117.964 255 236 219
185.859 107.384 102.183 201 218 255
103.854 155.347 105.59 255 246 236
93.6455 173.782 111.411 197 215 255
85.2038 80.6757 145.402 212 224 255
102.296 102.783 110.916 234 237 255
93.6429 173.784 111.409 187 208 255
99.6813 109.727 112.692 186 208 255
93.6094 173.794 111.394 255 245 235
93.6364 173.786 111.406 217 227 255
122.845 130.68 112.053 193 213 255
165.563 56.4681 115.916 215 226 255
127.544 7.10502 88.6621 215 226 255
123.543 67.2224 118.638 196 214 255
89.0497 186.887 109.08 218 228 255
113.783 111.786 111.359 221 230 255
211.965 87.0585 183.088 255 233 215
40.3804 101.32 127.816 206 221 255
117.759 80.7386 116.682 198 215 255
133.404 120.333 113.927 220 229 255
129.144 133.174 113.167 255 220 192
54.7904 47.096 128.247 195 214 255
102.125 108.767 125.377 229 234 255
87.6151 129.647 116.175 206 221 255
73.3358 24.2189 89.0364 222 230 255
52.7152 39.9254 93.3294 189 210 255
117.304 118.48 114.078 255 200 155
105.089 109.149 125.606 255 207 168
93.6405 173.785 111.409 205 220 255
88.1331 123.936 112.912 205 220 255
102.361 176.677 115.464 251 247 255
93.6353 173.786 111.406 197 215 255
143.325 81.0761 109.271 228 233 255
113.713 80.4425 133.351 218 228 255
35.4925 54.2579 111.774 204 220 255
164.112 30.2506 104.373 196 215 255
144.413 67.7737 122.979 203 218 255
105.716 31.0824 112.051 214 225 255
198.111 148.155 118.299 187 209 255
121.831 89.0972 103.817 213 225 255
136.039 87.3498 86.6162 186 208 255
112.693 121.305 115.071 255 245 235
79.4345 164.744 123.759 225 232 255
162.205 104.104 109.042 203 219 255
93.6459 173.782 111.411 200 217 255
93.1602 155.882 112.256 213 225 255
144.89 95.2466 109.904 188 209 255
147.186 107.966 134.358 204 219 255
41.5835 102.047 111.117 190 210 255
93.7158 173.753 111.45 217 227 255
213.613 129.442 121.283 204 219 255
115.323 105.204 103.063 255 158 69
113.704 97.9414 98.009 255 253 249
93.643 173.784 111.41 209 222 255
111.761 148.683 105.352 211 224 255
77.5079 188.587 100.532 224 231 255
137.544 100.923 122.351 255 224 199
123.228 139.293 100.103 199 216 255
71.5292 174.455 102.97 255 229 208
144.942 68.7721 113.083 208 222 255
133.769 162.068 114.512 208 221 255
126.047 142.554 104.875 255 224 199
93.6494 173.781 111.413 219 228 255
160.251 100.796 132.487 197 215 255
75.4506 140.19 92.9421 205 220 255
148.02 112.22 120.511 207 221 255
109.417 167.968 111.329 213 225 255
121.967 104.598 101.787 246 244 255
93.6397 173.785 111.408 233 236 255
147.288 129.231 124.627 188 210 255
82.3062 122.614 106.902 232 236 255
59.0454 55.6924 142.368 203 218 255
154.022 103.298 92.5818 255 223 198
111.073 112.322 99.1749 209 222 255
113.441 126.336 103.934 255 124 0
111.94 119.565 103.167 255 212 178
67.5424 49.3838 94.5974 183 206 255
195.118 86.5526 113.483 197 215 255
115.477 91.021 96.193 239 240 255
107.06 108.667 131.323 214 225 255
114.478 162.813 97.0906 220 229 255
110.423 117.563 114.572 224 231 255
93.8702 173.649 111.592 213 225 255
117.139 140.436 105.392 255 251 255
117.58 137.607 97.5158 254 248 255
93.6455 173.783 111.411 225 232 255
167.921 91.6161 106.995 203 219 255
93.6807 173.768 111.431 201 217 255
110.579 112.156 89.2858 208 222 255
97.1696 137.569 117.013 253 248 255
34.1291 87.2747 113.416 206 220 255
127.276 75.7932 124.462 248 245 255
123.444 120.608 111.901 248 245 255
149.057 6.8041 110.2 196 214 255
38.7554 148.327 116.409 208 222 255
133.612 88.6406 116.138 201 218 255
112.511 89.4599 113.831 189 210 255
100.877 170.52 96.3073 255 0 0
107.749 127.851 120.884 255 250 243
63.1099 132.069 127.652 219 228 255
123.37 139.632 99.9791 255 238 223
163.379 47.4698 109.331 211 224 255
167.892 102.251 134.676 229 234 255
148.048 132.595 100.552 190 211 255
119.418 114.575 108.701 255 145 36
71.2809 24.6814 96.1474 209 223 255
109.228 123.57 116.325 255 250 244
47.334 4.4218 83.5981 203 218 255
117.206 102.462 112.778 255 200 156
93.6502 173.781 111.413 193 213 255
90.0317 98.3872 106.61 255 241 228
49.9117 98.1758 87.1892 211 224 255
121.794 109.428 91.6286 255 255 252
116.625 105.934 119.514 251 247 255
160.56 98.6591 181.948 200 217 255
93.6316 173.788 111.404 198 215 255
93.649 173.781 111.413 193 212 255
124.244 79.2932 110.91 229 234 255
112.486 30.6757 111.144 220 229 255
118.827 84.3699 123.969 255 200 155
35.3081 221.317 118.348 204 219 255
145.668 139.126 144.246 187 209 255
116.793 77.3595 130.263 226 233 255
90.2734 85.5845 120.902 255 220 192
147.774 127.663 113.362 199 216 255
85.6253 136.4 121.226 212 224 255
110.712 110.912 116.737 255 247 238
90.4767 202.184 105.521 214 225 255
112.725 120.359 108.88 237 239 255
173.18 79.3926 111.986 196 214 255
93.6357 173.786 111.406 255 253 249
111.665 171.306 116.003 207 221 255
93.7159 173.754 111.45 206 221 255
103.691 206.734 154.66 223 231 255
88.9789 97.0539 109.68 231 235 255
58.0128 86.3598 115.489 229 234 255
111.604 135.043 104.175 255 239 225
180.442 60.0457 114.061 196 214 255
79.3594 190.778 101.713 255 251 255
217.761 19.9878 114.341 185 208 255
70.392 131.892 100.296 205 220 255
92.6607 139.483 113.407 194 213 255
113.725 85.5296 108.622 255 74 0
116.196 86.5987 109.736 213 225 255
76.7844 98.9116 109.348 207 221 255
133.889 122.624 110.875 255 254 251
93.3312 173.51 110.17 198 216 255
93.6404 173.785 111.408 186 208 255
103.778 128.322 131.224 234 237 255
46.4372 92.497 122.028 227 233 255
119.215 157.272 120.794 212 224 255
71.3342 173.752 95.8834 221 229 255
83.7046 150.769 104.928 194 213 255
129.168 112.634 87.2587 194 213 255
118.079 114.353 124.117 255 250 255
84.9595 62.1627 114.034 214 225 255
86.4281 112.518 113.862 224 231 255
117.509 186.293 106.243 197 215 255
39.8913 80.461 127.231 222 230 255
22.8906 22.5076 107.657 204 219 255
37.0381 165.756 146.221 188 209 255
53.9905 141.887 135.925 196 214 255
94.0304 174.747 111.37 203 219 255
93.6416 173.784 111.409 202 218 255
62.5575 175.401 114.976 210 223 255
105.347 180.697 118.545 246 244 255
63.672 73.6156 138.256 212 224 255
70.8171 143.14 116.158 189 210 255
134.071 83.5361 118.001 215 226 255
111.741 198.751 120.763 196 214 255
79.1223 74.1481 111.815 191 211 255
201.104 34.3934 108.345 198 215 255
113.95 121.147 118.521 205 220 255
37.3475 202.31 105.435 203 219 255
93.6779 173.769 111.429 204 219 255
54.0136 219.287 103.825 199 217 255
161.45 122.781 120.555 213 224 255
133.582 80.8297 107.61 183 206 255
98.7307 113.124 115.648 255 217 187
51.8238 121.977 92.4678 198 216 255
44.7872 141.655 111.584 193 212 255
118.197 111.09 107.012 255 240 227
116.487 80.0188 123.468 197 215 255
84.9812 100.229 98.4577 201 217 255
101.84 33.8465 109.083 194 213 255
60.9659 107.996 94.243 197 215 255
122.524 104.532 100.525 255 221 194
8.5202 192.094 106.106 210 223 255
93.638 162.268 123.845 203 219 255
111.07 106.45 113.265 255 239 225
117.176 70.1503 115.902 193 213 255
43.2197 70.769 98.1939 211 224 255
93.7323 173.744 111.46 207 221 255
130.343 185.66 111.188 185 208 255
105.218 110.841 108.923 193 212 255
107.243 111.609 106.548 202 218 255
58.7492 135.661 99.0298 255 241 229
65.6171 13.3602 106.296 202 218 255
110.94 113.039 111.273 208 222 255
65.9563 96.2905 120.354 233 236 255
100.719 128.617 120.512 255 248 241
121.374 125.313 115.084 255 232 213
93.6273 173.789 111.402 232 236 255
38.8822 42.6151 103.605 226 233 255
128.053 124.536 121.998 203 219 255
108.914 88.4198 104.795 213 225 255
93.6578 173.767 111.461 205 220 255
91.8544 175.135 110.264 255 255 251
129.65 99.3065 112.898 255 255 252
93.655 173.779 111.401 201 217 255
93.64 173.785 111.408 208 221 255
27.4726 145.24 122.727 224 231 255
97.868 110.862 119.317 255 201 158
142.959 38.3166 113.952 195 214 255
146.535 108.883 112.184 197 215 255
93.6705 173.772 111.425 211 223 255
118.056 113.937 134.513 201 217 255
121.605 92.3704 121.081 201 217 255
110.617 105.459 118.273 255 212 178
43.8997 217.685 134.655 192 212 255
129.261 98.4031 108.555 189 210 255
114.766 197.624 108.366 207 221 255
115.643 117.062 112.781 255 242 230
112.448 127.12 105.832 255 242 229
140.702 108.04 110.316 216 226 255
73.6251 178.184 106.464 255 220 192
75.1476 142.461 136.066 203 219 255
84.488 146.311 109.672 192 212 255
119.641 118.576 114.88 255 237 222
181.905 35.2477 110.882 192 212 255
99.8782 172.81 113.862 191 211 255
64.7047 127.143 110.57 219 228 255
93.6527 173.78 111.415 197 215 255
81.1894 186.678 101.629 196 214 255
108.058 189.549 109.904 255 249 241
26.7115 53.4571 109.44 231 235 255
93.6127 173.794 111.395 198 216 255
34.7704 75.145 109.65 191 212 255
100.913 121.641 115.817 255 252 247
127.635 104.675 87.2166 255 250 243
25.3047 207.789 98.3323 197 215 255
103.596 97.5319 122.876 226 232 255
93.7514 173.591 111.364 193 212 255
111.681 197.198 105.456 190 211 255
107.016 135.515 101.343 255 217 186
31.3118 184.236 122.534 191 211 255
111.56 106.463 113.121 216 226 255
97.73 8.49897 113.48 255 248 240
140.685 152.411 118.018 209 223 255
114.19 124.728 98.2489 218 228 255
64.7002 82.7605 112.626 222 230 255
38.4781 211.814 113.211 210 223 255
140.08 72.1634 90.3726 204 219 255
102.735 137.21 132.453 203 219 255
162.597 58.5425 117.221 199 216 255
104.047 81.8031 119.474 230 235 255
93.6304 173.788 111.403 219 228 255
93.6411 173.784 111.409 255 253 249
206.32 119.039 119.583 196 214 255
113.826 127.532 107.085 184 207 255
12.1955 118.156 159.919 202 218 255
88.9111 157.053 116.715 204 219 255
112.133 93.8536 133.713 211 223 255
93.6425 173.784 111.409 223 231 255
93.657 173.778 111.417 197 215 255
108.902 131.364 102.979 255 230 209
126.299 105.709 111.151 255 240 227
149.862 128.016 126.261 206 221 255
63.7662 82.4829 101.463 195 214 255
120.808 82.1703 105.486 229 234 255
35.4089 174.156 108.442 187 209 255
61.6429 128.64 81.6859 255 253 249
58.5557 199.075 114.253 228 233 255
136.94 122.191 111.451 228 234 255
122.021 85.3859 107.479 230 235 255
100.69 151.395 117.989 233 237 255
126.155 29.7175 110.184 186 208 255
61.0494 136.108 102.384 255 249 255
86.2988 168.5 118.366 218 228 255
87.5804 148.753 110.464 206 221 255
153.5 116.302 111.809 197 215 255
76.3515 139.697 110.048 196 214 255
64.9773 116.703 100.717 188 209 255
93.6439 173.783 111.41 188 209 255
44.4161 72.7403 116.359 255 250 255
115.658 124.007 121.68 218 228 255
71.226 187.827 112.529 216 227 255
140.199 84.3137 104.768 255 221 194
93.6402 173.784 111.408 202 218 255
129.496 76.1845 104.397 255 249 241
96.2332 137.565 110.078 225 232 255
105.68 113.575 121.379 206 221 255
219.685 47.6826 109.206 196 215 255
142.279 120.388 100.68 255 224 199
132.748 119.87 112.876 247 245 255
23.4824 63.2553 108.155 173 200 255
157.596 102.599 105.172 244 242 255
73.1363 72.7535 116.637 206 220 255
175.643 78.0189 144.227 254 248 255
115.036 121.373 108.507 202 218 255
93.6427 173.784 111.41 207 221 255
106.853 128.132 126.103 215 226 255
134.632 136.492 105.709 193 213 255
123.313 116.089 104.787 255 202 159
107.695 115.304 104.714 254 248 255
70.0059 82.4643 124.247 207 221 255
90.2311 164.824 110.651 213 225 255
154.79 119.761 113.579 206 220 255
118.841 108.764 91.5019 255 236 219
207.491 83.6706 118.766 205 220 255
153.903 150.638 70.9622 229 234 255
89.971 178.831 109.372 212 224 255
184.312 203.725 123.053 218 228 255
103.856 185.086 110.846 213 224 255
55.3121 145.741 107.866 225 232 255
90.1064 175.419 110.742 242 241 255
91.4255 190.324 93.232 255 227 204
110.893 109.601 115.752 255 237 222
94.4893 124.874 114.236 255 246 236
89.4231 100.952 119.962 255 228 206
43.0501 4.87391 128.208 187 209 255
124.292 106.23 113.018 228 234 255
120.07 76.1814 120.414 195 214 255
104.046 160.033 112.346 197 215 255
71.8038 48.4573 102.741 223 231 255
153.786 141.492 119.448 208 222 255
60.6891 129.784 108.264 237 239 255
112.821 44.0618 116.388 207 221 255
108.281 206.212 117.302 217 227 255
128.776 81.1104 102.591 203 219 255
127.365 31.5464 111.012 237 239 255
155.742 74.3358 109.934 201 218 255
89.7865 168.878 111.521 217 227 255
79.0746 35.4507 110.929 197 215 255
127.041 138.653 117.38 224 231 255
107.301 152.089 108.39 255 252 247
116.332 222.34 104.001 204 220 255
59.448 23.8897 168.345 185 207 255
78.9339 59.3313 104.363 228 234 255
93.6406 173.785 111.409 199 216 255
108.083 115.696 113.597 239 240 255
180.389 19.1953 117.346 190 211 255
96.17 146.75 113.328 255 209 172
147.962 106.535 116.898 201 217 255
101.645 138.637 103.592 196 215 255
145.044 160.658 106.985 255 234 217
98.7944 34.8816 105.508 199 216 255
5.90593 79.2563 110.644 198 216 255
76.4607 133.57 143.007 255 251 245
63.6104 83.3349 108.271 186 208 255
189.97 144.39 116.731 194 213 255
150.169 88.7207 117.447 196 215 255
77.3433 178.936 91.2528 228 234 255
89.7876 134.793 111.343 255 248 240
99.3341 146.168 117.46 211 223 255
113.32 139.559 105.169 255 242 231
53.567 66.748 126.619 204 219 255
52.6662 37.7825 122.28 195 214 255
92.1438 149.261 105.595 244 243 255
93.6097 173.816 111.397 200 217 255
100.271 131.652 127.372 208 222 255
110.265 120.207 99.3178 200 217 255
88.073 145.182 116.19 211 223 255
93.6422 173.784 111.409 222 230 255
116.764 125.259 99.9139 236 238 255
118.502 87.5767 116.173 188 210 255
107.884 101.368 116.696 255 242 230
74.1661 55.7172 128.429 198 216 255
135.446 137.041 100.236 184 207 255
160.098 145.705 140.696 197 215 255
80.9591 137.268 105.83 219 228 255
64.9597 42.2057 119.982 191 211 255
82.6964 142.634 91.0504 233 236 255
7.37826 122.142 110.779 185 208 255
105.426 48.2707 114.846 199 216 255
184.297 91.0262 114.656 187 209 255
119.079 129.152 107.998 255 246 236
106.259 151.841 130.12 247 244 255
74.2916 121.791 90.2285 197 215 255
93.687 173.765 111.434 255 226 203
73.6587 155.676 114.522 200 217 255
78.0118 132.259 107.507 253 248 255
125.059 75.908 125.598 255 222 196
93.6512 173.78 111.414 203 219 255
105.641 85.246 121.463 196 215 255
133.146 34.7879 116.642 203 219 255
93.7433 173.742 111.463 217 227 255
133.316 123.574 126.507 255 163 79
108.785 112.836 114.391 255 236 219
153.373 84.4837 123.952 211 223 255
117.478 120.015 123.393 255 208 171
53.6625 78.7516 88.7022 227 233 255
119.662 109.543 117.595 212 224 255
113.195 168.79 114.443 200 217 255
68.3974 164.68 98.0637 221 229 255
10.5457 210.224 129.846 183 206 255
183.427 25.8649 112.099 188 209 255
106.272 114.823 118.59 218 228 255
78.3889 149.884 111.073 217 227 255
131.74 133.079 91.6357 191 211 255
112.166 147.316 118.085 236 238 255
103.36 154.265 109.551 189 210 255
77.5841 142.196 115.071 199 216 255
91.8619 110.231 111.963 255 231 211
113.739 126.846 118.242 225 232 255
101.33 120.684 115.903 225 232 255
94.1536 173.321 110.997 214 225 255
105.193 157.183 41.8177 216 226 255
144.687 56.5098 112.782 222 230 255
110.557 122.671 110.891 194 213 255
164.704 156.904 102.075 200 217 255
155.805 133.792 116.336 212 224 255
50.4563 212.85 129.153 191 211 255
133.71 27.4399 112.126 194 213 255
117.295 122.159 81.3556 255 247 238
122.886 121.757 105.772 208 222 255
119.253 84.5243 105.184 190 211 255
101.984 177.127 109.573 186 208 255
11.9393 120.741 111.841 195 214 255
81.3676 119.797 118.324 214 225 255
84.5657 36.8805 99.3133 187 209 255
119.116 143.1 111.751 239 240 255
78.6526 34.4771 118.554 200 217 255
119.253 140.298 96.0663 218 228 255
93.6683 173.773 111.424 243 242 255
123.133 32.3636 113.005 201 218 255
76.2775 140.491 103.009 202 218 255
69.7479 152.2 126.978 207 221 255
88.2989 88.7844 108.721 183 206 255
122.786 77.4118 120.282 221 230 255
65.273 19.7313 102.39 196 214 255
78.3974 143.159 106.129 202 218 255
134.639 132.015 108.761 255 252 247
85.0278 143.781 102.447 201 217 255
98.0071 149.187 95.2736 201 217 255
93.7219 173.754 111.456 255 252 247
123.995 126.955 109.409 206 220 255
100.914 143.962 114.587 214 225 255
48.8498 160.671 114.68 191 211 255
108.142 107.537 118.922 255 210 173
81.0102 136.644 102.245 226 232 255
123.825 124.298 106.861 192 212 255
129.237 131.976 138.664 255 202 159
124.02 83.942 134.566 217 227 255
114.691 74.4145 111.388 217 227 255
73.185 117.545 105.285 217 227 255
147.378 91.1759 91.603 221 229 255
128.806 117.89 122.218 212 224 255
50.1692 76.696 95.8122 200 217 255
150.72 104.481 106.902 191 211 255
126.66 134.844 109.919 255 220 193
97.6405 105.628 115.97 255 236 220
68.3191 98.4578 120.221 179 203 255
106.005 77.98 119.836 203 219 255
140.447 130.014 102.008 189 210 255
121.578 125.207 108.52 232 236 255
109.847 117.227 134.021 255 252 247
131.711 136.051 109.549 255 230 210
79.6451 151.176 108.397 255 251 245
104.746 146.859 123.595 214 225 255
90.9169 164.804 108.293 255 220 193
101.943 145.827 106.413 255 211 176
118.057 124.491 108.19 213 225 255
93.6836 173.773 111.434 207 221 255
31.8444 91.3913 107.694 202 218 255
93.6866 173.795 111.448 247 245 255
83.5068 182.799 119.682 255 253 249
179.081 47.8379 114.515 196 214 255
78.2375 185.627 112.927 253 248 255
195.028 40.9787 111.174 201 217 255
93.6758 173.77 111.428 203 219 255
131.409 201.647 92.4969 202 218 255
93.6353 173.787 111.406 207 221 255
130.659 133.749 117.584 255 245 235
114.054 138.929 116.088 234 237 255
107.63 102.627 117.285 226 232 255
172.115 75.8203 111.764 217 227 255
132.603 194.758 111.233 213 225 255
94.2691 173.891 111.788 217 227 255
92.8171 173.287 110.492 255 238 223
219.891 48.0093 100.668 180 204 255
107.799 121.275 113.077 231 235 255
115.073 88.4588 124.905 255 209 172
76.6268 130.159 111.685 194 213 255
70.8837 128.272 113.011 231 235 255
108.463 105.4 116.298 255 254 251
87.1487 169.812 106.297 194 213 255
132.563 139.705 117.119 255 227 205
126.392 15.858 100.756 196 215 255
128.726 138.859 106.461 255 234 217
106.627 142.489 106.022 255 166 86
109.568 140.954 130.706 243 242 255
90.7109 153.818 108.003 202 218 255
89.6302 165.259 143.211 212 224 255
66.9699 213.99 100.204 191 211 255
138.9 75.474 95.6781 199 216 255
129.182 172.243 112.692 176 202 255
135.559 155.931 110.792 190 211 255
103.86 37.7724 105.146 198 215 255
105.923 100.956 113.087 212 224 255
93.6366 173.786 111.406 255 253 249
21.9146 203.502 100.485 183 206 255
141.758 76.6607 127.348 193 212 255
101.857 112.308 114.39 255 245 236
78.6087 130.128 110.172 201 218 255
103.748 29.8171 107.838 199 216 255
103.108 125.525 110.925 216 227 255
115.701 40.0837 107.849 201 217 255
77.7842 111 113.302 255 243 232
142.871 100.202 124.589 208 221 255
61.9719 127.143 145.58 192 212 255
119.46 134.127 98.7713 255 245 234
92.3144 164.942 118.033 205 220 255
105.707 110.36 114.694 207 221 255
93.6372 173.786 111.407 255 231 212
93.6379 173.786 111.405 201 217 255
44.8241 157.959 108.643 189 210 255
195.215 68.3645 116.804 190 211 255
93.6502 173.781 111.414 221 230 255
119.083 133.845 108.228 197 215 255
153.026 99.1786 113.861 255 253 249
73.6432 153.068 142.427 199 216 255
93.6452 173.783 111.411 212 224 255
121.689 168.342 108.876 196 214 255
105.071 107.601 110.653 224 231 255
79.9386 139.092 125.518 195 214 255
114.82 56.8982 118.647 255 209 173
131.226 138.057 118.856 255 230 210
93.6382 173.785 111.407 237 239 255
93.6619 173.803 111.432 255 251 246
193.003 103.009 111.947 204 219 255
155.037 88.2183 116.587 193 212 255
146.632 96.351 119.948 209 223 255
57.1734 88.0164 111.83 234 237 255
116.069 76.5787 121.169 201 218 255
68.6483 88.8127 109.531 217 227 255
152.798 117.474 70.2286 209 222 255
125.533 29.5771 111.602 226 232 255
128.451 107.623 105.406 255 162 77
5.45113 87.5875 113.934 194 213 255
93.6712 173.772 111.425 255 241 229
93.2168 174.186 110.992 255 238 223
93.7608 173.738 111.475 226 232 255
136.138 21.2176 108.508 200 217 255
131.77 210.158 103.018 194 213 255
125.573 85.2976 99.6157 193 213 255
83.2282 140.029 114.5 181 205 255
45.7815 219.619 118.504 192 212 255
114.52 135.089 112.305 255 178 113
110.67 129.603 104.056 255 250 243
64.1362 92.3832 104.261 196 214 255
110.783 122.821 124.519 255 246 237
207.273 53.3642 112.62 191 211 255
72.0258 139.193 114.447 181 205 255
142.867 123.591 134.4 209 222 255
117.474 75.473 133.993 212 224 255
93.6734 173.771 111.426 255 253 249
120.969 7.19735 106.575 189 210 255
93.6832 173.767 111.432 255 183 123
93.5126 175.274 111.146 212 224 255
121.499 113.406 98.8889 199 216 255
109.548 106.518 110.871 207 221 255
127.828 144.966 105.74 201 217 255
75.4883 48.2341 106.732 217 227 255
110.316 110.767 113.169 243 242 255
120.553 117.864 94.9574 255 217 186
155.82 31.4683 113.099 198 216 255
84.9961 132.079 121.68 192 212 255
124.01 159.394 115.813 255 242 230
133.372 65.5786 100.26 218 228 255
64.5646 89.4101 102.911 199 216 255
93.7628 173.734 111.473 221 230 255
113.487 112.981 109.061 206 221 255
92.9014 174.748 111.004 209 222 255
129.351 15.6255 103.914 196 214 255
120.381 84.5381 110.551 238 239 255
171.764 155.493 79.5812 193 212 255
106.967 101.272 105.686 230 235 255
141.077 139.634 110.087 188 209 255
115.288 22.3226 110.606 226 232 255
91.9143 174.361 110.788 243 242 255
95.373 107.699 106.548 255 237 222
100.051 186.962 111.035 182 206 255
93.6522 173.78 111.415 207 221 255
35.0463 21.2796 180.015 189 210 255
92.2047 165.697 110.415 198 216 255
93.4838 173.941 111.248 197 215 255
55.8235 107.322 95.9292 217 227 255
90.9854 52.5571 116.387 187 209 255
95.2516 133.344 121.266 255 231 212
113.917 154.586 116.904 217 227 255
89.1285 151.502 115.863 255 253 249
81.9928 157.367 109.36 193 212 255
107.221 109.24 107.795 208 222 255
107.214 118.366 113.961 255 207 169
72.3905 74.1776 105.648 255 254 251
129.03 76.6353 121.171 255 231 211
55.3231 196.423 107.643 186 208 255
126.491 81.7167 116.728 201 217 255
92.8195 189.693 110.838 191 211 255
93.6087 173.971 111.256 217 227 255
94.3071 148.008 98.0746 214 225 255
130.244 149.602 106.062 198 215 255
122.48 110.01 120.289 233 237 255
152.112 116.264 152.212 197 215 255
154.588 41.0299 112.123 189 210 255
94.9977 142.434 117.801 255 247 239
106.91 117.299 111.764 255 202 159
93.6426 173.784 111.409 189 210 255
53.5038 79.6878 123.317 202 218 255
24.8967 70.1871 89.727 200 217 255
94.5901 182.932 109.445 255 235 219
117.96 158.096 110.77 255 254 250
129.678 128.886 112.466 207 221 255
93.5659 173.781 111.444 255 246 237
117.938 78.4614 126.837 194 213 255
166.69 101.303 70.0426 204 219 255
119.117 131.757 96.2737 192 212 255
60.5148 118.03 112.257 195 214 255
222.181 82.6963 111.902 183 206 255
107.248 84.5145 109.964 211 223 255
126.02 134.95 110.332 255 239 225
142.002 55.3618 115.775 255 232 214
120.759 160.611 128.464 195 214 255
153.34 138.977 107.615 255 239 226
143.242 133.415 115.227 222 230 255
67.2792 96.4874 105.213 255 250 244
93.6497 173.781 111.413 203 219 255
105.769 107.45 117.808 255 209 172
120.761 114.377 124.481 255 241 229
125.557 137.42 116.256 255 245 235
86.0811 192.214 117.012 212 224 255
93.6472 173.782 111.412 255 251 246
134.886 116.869 108.524 255 254 250
123.236 83.0603 111.516 202 218 255
74.4586 163.352 126.698 255 239 225
42.3042 139.021 117.674 220 229 255
124.612 129.747 110.828 252 247 255
25.3429 180.315 111.716 194 213 255
93.6521 173.78 111.414 211 224 255
93.6789 173.769 111.429 255 184 125
168.407 141.062 116.824 194 213 255
108.118 113.977 112.585 255 118 0
123.929 143.656 103.738 214 225 255
92.8216 194.94 112.523 198 215 255
69.4905 176.639 112.577 203 219 255
146.225 35.5862 121.289 255 248 240
142.166 151.906 99.9319 187 209 255
132.837 130.373 73.2453 199 216 255
114.492 118.512 110.902 255 254 251
124.465 136.248 106.334 207 221 255
77.4459 194.616 111.03 191 211 255
111.347 77.1657 117.031 210 223 255
104.244 191.846 105.013 223 231 255
117.551 81.8745 116.4 206 221 255
197.496 8.14611 117.385 199 216 255
39.9621 31.4656 101.861 191 211 255
93.4492 174.06 110.918 245 243 255
114.265 123.445 117.905 204 219 255
93.4471 173.47 111.124 203 219 255
68.9139 139.812 129.058 227 233 255
110.352 123.422 111.38 225 232 255
105.715 153.311 122.022 205 220 255
115.494 113.098 114.685 238 239 255
75.9003 119.137 89.4759 196 214 255
89.7856 185.137 111.48 216 227 255
110.142 113.3 118.849 212 224 255
116.027 159.346 112.465 255 255 251
