ply
format ascii 1.0
element vertex 1343
property float x
property float y
property float z
property uchar red
property uchar green
property uchar blue
end_header
115.97 102.419 121.196 208 222 255
164.786 141.418 111.613 201 217 255
63.6259 114.242 111.489 238 239 255
111.047 105.887 117.634 255 231 211
110.448 85.2713 125.389 203 219 255
110.996 198.648 111.646 255 250 255
104.563 119.943 113.032 255 229 209
91.6734 153.228 109.944 194 213 255
93.608 173.311 111.096 201 217 255
93.4089 105.333 121.686 226 232 255
93.5232 173.43 111.205 200 217 255
200.606 62.6848 114.666 179 203 255
166.748 139.266 108.989 211 224 255
113.232 121.496 112.807 233 236 255
209.289 18.4467 109.255 180 204 255
80.3406 18.8127 103.682 184 207 255
115.954 111.426 121.075 245 244 255
218.464 72.163 110.68 190 210 255
117.356 117.508 115.984 255 238 224
111.86 125.104 108.552 255 236 220
88.9784 76.3036 113.292 255 254 250
128.272 162.225 70.2519 189 210 255
151.735 124.141 81.5544 202 218 255
98.9567 108.778 99.2237 216 226 255
140.339 96.8486 94.5321 248 245 255
93.6885 173.492 111.19 221 230 255
124.683 84.3045 99.6458 208 222 255
129.95 119.186 113.798 210 223 255
156.73 113.446 113.998 200 217 255
113.806 17.4284 101.818 191 211 255
90.3776 107.302 103.267 203 219 255
58.6805 86.3364 111.409 176 202 255
98.4327 120.458 113.555 255 233 216
122.011 141.344 117.934 233 237 255
135.913 139.038 99.2545 255 229 208
126.353 126.228 114.723 245 243 255
81.6218 220.89 102.565 185 207 255
36.8325 93.1217 101.619 255 251 246
188.672 154.891 105.334 235 238 255
93.6481 173.294 111.108 255 245 235
32.8604 83.3349 112.728 196 214 255
139.779 132.018 99.5668 182 206 255
92.3551 164.969 109.466 224 231 255
165.727 52.7243 110.204 209 222 255
128.297 156.873 115.968 200 217 255
93.5075 172.839 110.685 239 240 255
127.825 196.458 119.912 187 209 255
93.6566 173.29 111.111 199 216 255
117.788 110.668 119.98 255 190 136
117.11 135.765 105.709 227 233 255
117.378 45.1646 117.365 193 213 255
71.2016 123.695 91.6523 255 215 183
93.6857 173.274 111.122 210 223 255
109.639 85.8762 129.668 212 224 255
117.93 132.297 116.811 219 228 255
100.374 172.129 104.168 255 245 236
110.916 106.781 121.482 255 252 247
93.6908 173.495 110.955 255 212 177
148.203 162.772 110.906 211 224 255
10.373 207.335 107.911 208 222 255
87.9051 148.874 113.831 205 220 255
20.1225 100.766 93.0888 255 248 240
97.0821 180.222 111.113 255 250 255
133.795 129.989 107.407 255 199 153
104.116 110.637 112.695 255 196 147
150.119 68.1131 109.557 194 213 255
109.987 198.604 123.461 207 221 255
115.499 83.9303 114.009 240 241 255
44.8745 60.9307 104.515 255 232 213
55.2501 116.748 112.227 222 230 255
93.654 173.291 111.11 194 213 255
149.25 77.351 125.073 205 220 255
214.427 31.8759 117.091 174 200 255
121.609 151.695 113.45 205 220 255
149.177 47.253 113.821 201 217 255
100.991 105.724 119.348 235 238 255
164.844 148.418 118.04 194 213 255
79.0612 98.1593 117.944 216 226 255
103.008 96.8309 119.129 255 250 244
9.26546 68.9839 109.516 185 208 255
117.964 138.107 91.7132 255 217 187
148.236 97.7725 106.573 186 208 255
165.279 99.7786 121.863 243 242 255
27.5106 169.579 112.819 195 213 255
180.006 146.37 107.88 206 220 255
128.785 76.3173 106.651 255 233 215
93.653 173.291 111.11 197 215 255
191.284 60.8904 111.463 198 216 255
22.654 218.827 93.5987 190 211 255
106.623 209.673 128.395 198 216 255
55.9494 90.1359 109.222 255 246 237
120.218 153.39 110.908 246 244 255
121.067 123.398 108.741 255 251 255
96.7218 120.092 107.099 255 219 190
167.029 110.446 116.822 244 243 255
37.9074 103.455 90.7199 255 215 183
110.745 96.1683 103.626 218 228 255
136.341 116.002 113.893 202 218 255
212.387 88.8836 128.212 255 251 246
106.996 105.228 107.909 255 252 247
146.852 166.428 112.591 209 222 255
83.74 78.4781 115.38 233 237 255
93.6542 173.291 111.11 250 246 255
51.5023 121.419 122.229 255 204 163
98.0312 151.535 112.455 225 232 255
123.717 79.4354 105.997 228 233 255
114.592 119.557 117.925 255 236 220
93.6553 173.29 111.11 189 210 255
49.2272 93.7666 90.5341 197 215 255
60.6012 20.5757 100.074 187 209 255
114.534 168.607 118.266 255 253 249
93.6543 173.291 111.11 185 207 255
118.226 71.9008 126.396 255 163 79
81.6383 139.593 96.4676 241 241 255
109.485 190.181 110.707 198 215 255
93.6832 173.275 111.121 211 223 255
93.6815 173.276 111.12 196 214 255
47.8782 157.034 114.562 228 233 255
125.409 69.9942 117.025 192 212 255
134.597 164.277 108.885 196 215 255
150.589 137.73 145.991 248 245 255
113.887 108.078 95.6917 255 195 146
103.125 117.53 124.472 255 219 190
105.424 128.946 112.085 219 228 255
41.0339 71.8445 111.225 209 222 255
124.474 83.1796 104.023 226 233 255
108.863 128.053 102.241 240 240 255
37.018 66.6287 88.3698 223 230 255
94.4911 115.754 117.891 200 217 255
97.7482 101.767 110.932 230 235 255
80.6914 191.34 94.4149 223 231 255
120.568 133.898 98.5799 217 227 255
93.6786 173.278 111.119 187 209 255
81.8166 54.2923 111.052 254 248 255
158.081 92.0309 97.9226 227 233 255
48.7923 98.8157 115.659 255 210 174
65.3882 67.9403 100.312 217 227 255
154.773 87.9794 125.599 207 221 255
118.436 118.24 109.442 255 184 124
62.3363 82.7224 104.849 189 210 255
134.867 114.688 123.154 255 220 192
91.3066 140.12 123.848 233 237 255
93.5894 173.325 111.1 205 220 255
26.528 59.7658 110.8 202 218 255
103.162 146.067 116.775 255 236 221
93.9041 201.054 125.174 193 212 255
86.3656 43.3059 113.543 199 216 255
119.548 120.145 109.621 199 216 255
118.322 106.863 105.303 209 222 255
12.9229 71.877 105.041 204 219 255
85.3474 143.547 102.474 206 221 255
98.1574 119.877 112.811 214 225 255
106.547 198.478 103.556 194 213 255
93.6501 173.293 111.108 181 205 255
122.254 125.723 108.183 211 224 255
63.3668 91.5689 116.294 202 218 255
182.583 158.335 114.332 193 212 255
111.176 116.648 113.666 203 219 255
168.934 13.9288 157.81 217 227 255
92.3278 181.379 129.788 184 207 255
114.094 82.6499 129.44 195 214 255
93.7772 173.218 111.163 230 234 255
116.626 135.802 113.251 255 250 244
109.78 99.1637 117.752 204 219 255
93.8395 122.364 119.878 199 216 255
112.466 101.564 102.192 210 223 255
102.699 19.8913 113.991 185 208 255
93.6962 173.268 111.126 205 220 255
92.4334 144.182 113.073 213 225 255
93.6629 173.286 111.113 212 224 255
83.0812 59.0171 91.8128 186 208 255
88.5416 103.621 111.036 232 236 255
103.595 185.169 112.33 192 212 255
107.761 121.212 99.1268 255 225 201
107.932 105.85 114.183 255 254 250
101.128 214.469 76.3549 255 246 237
61.5142 76.7208 120.203 193 212 255
111.471 115.398 99.3344 236 238 255
123.409 191.06 104.478 187 209 255
108.019 136.198 110.579 199 216 255
104.851 179.734 109.116 201 217 255
120.801 101.545 118.188 236 238 255
109.154 110.629 116.242 255 249 243
133.88 72.2229 107.663 205 220 255
73.9328 144.259 127.579 201 218 255
79.1864 132.867 101.909 255 211 177
68.8805 164.675 96.9016 221 229 255
94.413 186.429 108.477 255 236 220
116.006 90.4489 113.561 235 237 255
115.692 120.322 111.571 196 214 255
179.738 123.796 98.689 204 219 255
205.897 47.2389 111.629 196 214 255
95.5895 159.684 108.91 255 251 245
150.605 103.161 116.397 255 250 255
109.965 185.474 110.265 202 218 255
105.631 87.6536 119.669 205 220 255
155.552 139.481 115.613 255 183 121
73.0474 144.218 113.419 214 226 255
84.6537 101.827 118.488 255 245 235
120.935 25.2552 112.266 200 217 255
179.169 133.241 118.963 189 210 255
46.323 145.59 108.943 255 244 234
74.5265 215.341 105.113 196 214 255
123.355 171.579 110.797 227 233 255
202.834 124.678 117.181 189 210 255
51.6468 82.1756 104.586 193 212 255
141.079 123.503 118.146 255 248 240
106.247 95.8303 120.438 255 226 202
38.0918 212.586 104.385 188 209 255
116.837 116.64 107.058 205 220 255
97.6929 147.92 112.718 245 243 255
66.5234 31.106 132.906 202 218 255
119.238 70.8969 115.734 255 251 245
145.007 147.693 109.548 198 215 255
117.068 198.629 108.215 196 214 255
121.948 119.383 112.586 222 230 255
93.6026 173.313 111.093 255 249 243
96.9803 175.127 116.419 192 212 255
84.7504 172.434 111.738 197 215 255
108.678 95.1899 102.513 255 233 214
54.2628 106.085 88.7726 200 217 255
93.6551 173.29 111.11 190 211 255
122.65 174.241 118.911 190 211 255
98.676 31.9146 107.887 194 213 255
122.543 94.8079 120.287 255 248 240
93.1315 174.061 110.664 250 246 255
99.7997 111.959 131.3 255 226 202
105.05 112.911 118.902 255 225 201
130.057 196.371 97.9361 185 207 255
103.263 103.284 110.017 216 227 255
52.0547 57.2959 112.99 208 222 255
67.9332 128.451 118.577 209 222 255
40.3818 75.2443 136.2 194 213 255
129.347 69.1236 135.348 222 230 255
133.908 89.2138 113.268 203 218 255
157.087 128.815 109.288 190 211 255
108.633 152.772 138.206 219 228 255
142.305 69.2277 127.32 212 224 255
131.445 105.733 97.4027 255 187 131
193.261 109.391 114.519 255 252 246
99.1878 83.9472 114.423 228 233 255
187.217 154.498 110.71 201 217 255
139.382 78.6707 119.614 186 208 255
154.567 32.9245 113.073 255 251 255
93.7694 173.225 111.172 194 213 255
98.8448 150.803 119.213 255 247 239
81.0543 129.278 113.919 196 214 255
103.703 105.316 97.6091 216 227 255
110.121 120.966 108.564 255 167 88
80.663 152.624 115.197 195 214 255
80.8954 40.9189 115.706 196 214 255
126.61 42.8563 118.554 213 225 255
93.6647 173.285 111.114 199 216 255
96.5649 184.013 112.359 191 211 255
143.321 70.2942 107.439 234 237 255
188.493 104.29 113.325 213 225 255
93.6427 173.297 111.106 186 208 255
90.707 139.901 112.478 228 233 255
93.6571 173.289 111.111 193 213 255
100.251 146.786 118.395 216 227 255
93.6363 173.509 111.38 228 234 255
138.634 88.7153 113.478 190 210 255
134.365 24.8179 108.983 201 217 255
115.648 119.179 113.829 224 231 255
93.8406 174.128 111.589 254 248 255
126.183 117.114 107.083 200 217 255
159.766 27.9293 112.479 237 239 255
93.6557 173.29 111.11 248 245 255
154.388 126.024 93.267 233 237 255
25.5955 172.368 117.077 187 209 255
68.5147 131.861 116.681 202 218 255
51.5678 50.5556 125.816 210 223 255
106.582 121.574 120.196 232 236 255
66.8666 79.3436 112.24 194 213 255
108.059 113.372 124.999 232 236 255
94.4145 58.3658 117.124 191 211 255
128.128 129.956 95.4717 218 228 255
20.6696 142.095 82.9779 212 224 255
108.605 116.49 111.813 226 232 255
92.0824 103.854 107.75 222 230 255
93.6377 173.311 111.114 215 226 255
128.382 137.65 106.372 211 223 255
93.07 173.753 109.991 204 219 255
93.5827 173.323 111.092 189 210 255
122.352 81.4749 112.862 191 211 255
102.364 137.304 105.151 224 231 255
38.5285 164.838 111.748 220 229 255
137.44 73.8747 124.214 255 238 224
114.891 115.813 106.773 219 228 255
38.3009 87.635 111.285 221 230 255
107.899 125.919 128.494 255 249 255
110.972 90.4492 121.744 255 226 203
116.701 113.758 110.475 241 241 255
64.3271 111.638 113.213 200 217 255
84.2083 187.483 93.862 222 230 255
93.6558 173.29 111.11 221 229 255
78.2719 165.008 118.908 238 239 255
207.686 32.9839 102.479 191 211 255
213.298 26.1176 110.795 198 215 255
69.5147 126.371 125.119 187 209 255
110.592 116.028 119.691 252 247 255
99.6875 46.255 116.744 223 231 255
120.413 109.351 115.266 255 249 241
115.419 128.091 96.041 255 246 236
70.1087 70.2174 96.5055 186 208 255
94.0119 173.261 111.282 255 247 239
93.6125 173.309 111.096 253 248 255
153.287 99.0982 109.513 213 225 255
42.7535 78.7284 112.848 198 216 255
49.3135 53.8395 112.493 179 204 255
105.228 87.8994 113.024 226 232 255
93.6447 173.286 111.133 190 211 255
121.501 68.2874 119.24 215 226 255
126.621 36.9159 118.192 193 212 255
104.064 115.405 127.05 202 218 255
118.902 99.989 105.515 201 217 255
72.6333 116.032 91.6433 201 217 255
96.9296 167.93 108.092 193 213 255
118.02 114.586 114.249 206 221 255
100.027 129.009 106.7 255 223 197
84.5341 62.6557 142.56 192 212 255
125.435 124.221 111.109 247 244 255
153.84 113.232 99.0904 182 206 255
117.604 127.678 114.816 220 229 255
122.975 122.579 127.937 255 233 216
115.157 107.303 102.664 255 192 141
93.895 173.162 111.138 208 221 255
94.242 173.103 111.455 188 209 255
87.5075 137.433 115.408 212 224 255
86.3087 152.913 102.762 192 212 255
180.373 25.7112 123.173 196 214 255
188.441 37.4199 114.581 194 213 255
86.9316 218.145 137.609 255 245 234
210.762 88.0247 108.638 195 214 255
116.444 104.871 99.7992 255 218 188
133.15 62.4356 115.776 191 211 255
66.2934 43.8357 75.3979 225 232 255
151.491 67.6935 103.402 213 225 255
174.649 74.1546 112.797 191 211 255
107.366 92.5014 125.429 210 223 255
115.893 84.1993 106.996 200 217 255
93.6741 173.28 111.117 255 247 238
126.314 129.045 110.109 227 233 255
69.1654 199.853 107.171 187 209 255
54.6963 97.0656 112.168 205 220 255
113.253 108.508 116.156 209 222 255
111.203 99.6085 123.086 255 251 246
123.79 106.397 97.3052 255 178 113
93.7302 173.247 111.141 219 229 255
122.846 114.314 118.404 214 225 255
93.9955 173.254 111.205 255 195 147
129.891 117.152 111.513 246 244 255
76.1675 133.503 141.151 201 217 255
93.6441 173.296 111.106 211 224 255
67.6017 126.171 107.612 198 216 255
134.276 161.151 119.708 206 220 255
105.797 132.264 111.059 255 252 247
112.369 120.607 116.212 255 235 219
127.466 129.268 119 238 239 255
103.675 135.169 110.64 214 226 255
86.569 152.834 111.236 214 225 255
122.981 132.498 109.009 208 222 255
93.6413 173.298 111.105 220 229 255
111.751 85.8301 114.335 255 218 189
90.3981 123.704 137.723 208 222 255
119.772 83.5279 134.003 220 229 255
138.559 132.538 125.012 184 207 255
93.6579 173.291 111.108 208 221 255
156.043 5.32815 87.1716 188 209 255
53.6828 77.3496 112.539 210 223 255
184.456 114.031 115.815 211 223 255
93.6518 173.292 111.109 255 213 179
203.996 80.7667 113.78 204 220 255
95.7936 130.218 105.438 255 155 61
115.496 109.562 100.22 203 218 255
185.221 57.4124 115.498 193 212 255
93.6481 173.294 111.108 191 211 255
120.918 192.059 105.714 195 214 255
122.527 111.685 129.278 233 236 255
212.256 114.104 114.409 204 219 255
105.08 96.9966 102.615 215 226 255
93.5824 173.305 111.141 203 219 255
122.601 160.511 111.548 204 219 255
96.0941 170.125 116.08 229 234 255
64.9203 63.7048 146.58 215 226 255
218.619 6.74953 104.029 184 207 255
106.807 173.99 105.96 199 216 255
93.9644 174.5 111.864 255 198 151
160.108 111.721 104.95 213 225 255
93.6962 173.267 111.127 232 236 255
93.6367 173.3 111.104 255 233 214
93.5807 173.404 111.017 190 211 255
99.4771 143.574 112.074 194 213 255
93.6944 173.269 111.126 196 214 255
117.376 88.1692 120.414 216 227 255
146.592 94.1245 103.097 186 208 255
126.394 79.3257 110 197 215 255
43.7551 44.3938 79.6926 208 221 255
93.6494 173.293 111.108 255 248 240
71.2649 122.555 113.738 193 212 255
117.422 130.209 103.769 255 193 141
129.753 130.519 127.773 188 210 255
104.42 115.549 101.339 196 214 255
93.6605 173.288 111.112 255 244 234
110.27 172.834 112.344 201 218 255
129.682 119.952 125.866 213 225 255
135.548 76.838 103.506 198 215 255
92.3067 173.874 110.396 191 212 255
184.483 33.8264 111.234 192 212 255
104.656 135.252 113.765 255 202 158
23.2242 95.7367 117.421 187 209 255
214.263 46.6056 116.23 195 214 255
86.826 167.587 112.236 255 85 0
0.597036 172.596 109.43 209 223 255
130.542 121.401 108.624 198 216 255
121.375 110.839 107.973 255 229 207
202.604 19.9429 104.729 207 221 255
181.105 106.817 118.283 186 208 255
51.5247 165.859 154.311 229 234 255
96.3001 20.1914 88.5515 191 211 255
93.6884 173.272 111.123 255 201 158
182.234 129.01 111.912 234 237 255
158.172 77.0572 113.519 206 220 255
140.187 125.177 68.231 255 186 128
129.715 68.789 115.359 206 220 255
93.6652 173.285 111.114 211 224 255
35.242 71.6528 107.914 187 208 255
93.6793 173.277 111.12 210 223 255
159.277 110.785 116.137 186 208 255
143.548 160.303 100.47 188 209 255
129.343 114.674 117.4 217 227 255
52.8426 172.307 114.329 198 216 255
37.5532 106.239 111.343 195 214 255
75.022 23.8158 77.911 203 219 255
119.335 140.47 121.361 187 208 255
112.99 134.901 88.7314 253 248 255
152.164 139.256 117.257 195 214 255
55.0665 92.3127 106.21 189 210 255
119.914 114.359 103.833 241 241 255
95.549 157.47 103.634 216 226 255
124.963 99.6376 107.621 255 247 239
117.344 128.629 112.291 216 227 255
116.108 115.912 100.821 210 223 255
56.9918 92.8784 97.1033 255 236 220
132.781 124.149 110.427 255 249 255
110.445 117.798 124.511 255 254 250
93.7957 173.21 111.167 222 230 255
125.016 126.69 97.5911 255 246 236
105.976 109.862 112.414 197 215 255
108.265 115.531 109.766 215 226 255
93.6536 173.291 111.11 200 217 255
93.6089 173.242 111.12 255 247 238
52.1862 45.3233 123.578 186 208 255
110.676 136.624 100.539 239 240 255
68.1828 196.569 112.158 187 209 255
99.2478 33.7465 113.152 212 224 255
93.7672 173.201 111.196 208 222 255
212.083 15.3973 104.226 201 218 255
86.3346 155.141 107.892 255 116 0
111.767 80.4077 108.639 255 201 157
93.6671 174.276 111.466 205 220 255
65.9596 143.232 135.499 234 237 255
94.3525 172.725 111.59 216 227 255
122.337 174.937 108.875 195 214 255
28.4671 70.153 112.154 189 210 255
148.467 32.0597 113.648 197 215 255
50.0718 221.689 122.224 198 216 255
120.381 157.26 117.404 255 251 246
117.346 131.56 119.45 203 219 255
105.515 103.709 95.8288 255 253 248
118.71 106.549 122.26 233 236 255
80.8789 27.2686 97.0887 197 215 255
89.188 165.936 127.997 229 234 255
163.064 79.3302 111.474 191 211 255
93.696 173.268 111.126 255 238 224
74.2254 138.397 151.42 242 242 255
120.94 104.191 100.773 255 243 232
71.2088 130.244 102.988 226 232 255
108.754 130.28 113.276 255 239 224
93.8648 173.171 111.226 211 223 255
68.7327 84.832 104.331 211 224 255
93.6455 173.295 111.107 226 233 255
105.052 97.8909 123.128 255 238 224
128.942 117.441 106.409 214 225 255
23.8661 192.647 115.488 220 229 255
92.4173 154.039 122.795 235 238 255
138.888 57.2451 116.045 192 212 255
93.4454 173.285 111.334 201 217 255
7.64328 174.565 113.911 190 211 255
103.948 86.0144 110.482 255 248 240
34.1199 68.4813 101.718 255 244 234
184.436 119.35 120.525 197 215 255
27.7383 160.328 116.574 211 224 255
113.532 108.7 115.771 255 201 158
41.6791 86.2355 88.5056 197 215 255
102.977 96.336 118.637 195 214 255
112.403 116.626 116.118 227 233 255
93.6579 173.289 111.111 230 235 255
48.7069 35.2769 122.579 251 246 255
120.671 85.1694 105.567 208 222 255
98.7498 130.215 106.096 225 232 255
93.7706 173.214 111.157 217 227 255
129.047 86.1138 131.75 214 225 255
113.924 111.402 136.797 250 246 255
39.1017 142.674 121.54 215 226 255
115.53 124.495 113.968 246 244 255
114.323 106.935 105.582 255 247 239
78.0499 208.775 104.343 193 213 255
205.321 142.867 115.528 178 203 255
119.506 158.753 108.324 200 217 255
99.032 20.5035 106.631 218 228 255
120.769 119.441 115.61 211 224 255
115.49 130.355 124.369 232 236 255
93.6306 173.302 111.102 248 245 255
105.139 74.6333 118.102 225 232 255
93.6314 173.3 111.099 227 233 255
104.841 97.7234 115.502 197 215 255
118.862 136.741 101.961 221 229 255
93.6394 173.298 111.105 215 226 255
220.544 29.308 106.367 184 207 255
114.485 107.494 119.717 198 216 255
161.362 56.5019 110.074 194 213 255
6.53908 98.9054 106.382 191 211 255
168.255 39.4374 112.722 188 209 255
39.1071 203.607 118.175 193 213 255
91.5067 149.875 106.634 202 218 255
93.6788 173.278 111.119 209 222 255
105.775 116.49 110.856 244 243 255
100.89 104.282 119.249 255 235 218
147.331 111.557 124.754 255 251 255
119.516 109.147 121.404 255 254 250
54.0836 89.8456 98.7013 199 216 255
135.227 70.7179 116.619 236 238 255
130.793 67.5869 126.582 222 230 255
146.893 189.368 120.671 184 207 255
108.504 112.513 109.052 233 236 255
93.6553 173.29 111.11 192 212 255
108.317 104.853 115.202 255 219 191
58.9898 184.589 109.158 200 217 255
116.971 13.9466 108.364 186 208 255
113.598 125.537 99.1614 255 176 108
93.6709 173.282 111.116 255 232 213
224.377 94.5234 109.052 195 214 255
150.605 94.8137 113.235 255 249 242
106.747 185.725 113.891 208 222 255
111.818 83.8937 113.187 204 220 255
110.039 136.538 114.002 255 254 250
96.6906 190.68 98.9005 202 218 255
117.399 99.7083 112.059 255 237 221
108.647 176.8 113.704 228 234 255
144.799 110.44 120.498 195 214 255
77.1264 147.286 114.488 198 216 255
14.0973 222.652 123.267 182 206 255
81.461 146.815 106.517 255 213 179
69.1291 191.003 112.221 201 218 255
87.3142 185.529 111.077 227 233 255
93.3992 172.9 110.902 255 241 228
89.6306 149.666 116.646 252 247 255
182.253 87.9902 136.092 200 217 255
114.991 107.135 93.0508 255 182 120
105.35 128.072 106.219 201 218 255
61.976 112.165 101.539 199 216 255
126.773 116.98 108.465 255 237 221
17.0397 92.6333 104.88 201 218 255
3.49864 25.1718 33.1759 187 209 255
113.371 24.41 109.105 193 213 255
118.971 111.549 93.705 225 232 255
164.572 96.7395 99.1289 255 250 243
125.003 127.057 115.08 230 235 255
93.6245 173.305 111.1 224 231 255
109.965 162.055 113.52 213 225 255
108.052 125.797 120.193 202 218 255
95.1273 109.275 113.448 224 231 255
163.828 107.537 92.4043 255 236 219
154.099 108.324 106.116 207 221 255
118.582 155.908 101.484 255 245 235
95.5885 71.5166 110.843 202 218 255
111.736 124.313 109.384 255 215 183
108.791 105.538 114.796 255 251 245
132.371 85.9045 115.223 235 238 255
117.852 2.06744 105.266 255 252 246
101.06 177.445 123.046 203 218 255
93.7216 172.894 111.318 199 216 255
108.996 111.937 109.838 211 224 255
59.5376 90.4807 105.732 200 217 255
93.6642 173.286 111.113 255 250 244
101.914 148.52 115.263 255 209 172
115.825 140.212 103.543 255 247 238
77.726 141.044 110.001 205 220 255
88.3291 210.438 108.723 255 202 159
154.916 99.6532 111.972 255 241 229
107.535 114.624 114.207 233 237 255
63.6214 116.16 108.007 183 206 255
134.696 95.1478 115.551 185 208 255
124.354 87.481 104.987 186 208 255
136.815 161.077 112.556 185 207 255
58.2562 37.0285 95.5911 197 215 255
120.873 82.4812 121.054 255 181 118
108.371 111.817 129.541 233 237 255
93.7125 173.258 111.133 203 219 255
92.3898 174.673 110.579 206 220 255
130.757 155.585 130.124 203 219 255
121.627 189.649 121.066 195 214 255
106.92 129.557 129.267 237 239 255
105.711 103.595 110.885 205 220 255
62.8441 83.0396 111.25 255 248 241
80.6756 37.1422 84.7588 184 207 255
210.129 74.8842 108.912 194 213 255
140.706 171.602 119.095 184 207 255
73.6712 133.37 110.13 255 241 228
152.896 134.779 112.962 199 216 255
15.1111 56.7442 109.064 187 209 255
115.766 111.795 108.302 226 233 255
107.713 171.178 102.475 200 217 255
89.3073 170.684 87.2287 238 239 255
107.568 124.907 105.693 255 228 207
190.276 14.3511 104.801 203 219 255
87.6865 144.304 107.869 199 216 255
62.1883 61.503 102.584 191 211 255
117.334 139.938 111.203 219 228 255
146.543 92.2341 112.111 200 217 255
99.9401 94.1479 105.948 245 244 255
122.66 112.442 106.023 255 228 206
29.3738 174.13 105.84 190 211 255
68.9194 90.9213 109.173 211 223 255
120.67 95.8551 119.938 195 214 255
117.551 125.125 103.711 255 224 199
122.64 118.48 103.481 247 244 255
128.557 188.081 120.254 196 214 255
5.97869 83.1654 112.014 184 207 255
194.06 162.474 109.92 182 206 255
95.0839 37.282 112.042 194 213 255
93.6645 173.285 111.114 229 234 255
12.7844 126.212 107.883 190 210 255
93.6533 173.291 111.11 206 220 255
114.69 16.2984 105.895 196 214 255
151.894 136.654 108.944 185 207 255
117.446 123.132 103.402 220 229 255
75.0738 84.4465 91.3117 195 214 255
108.761 133.897 114.674 255 225 201
74.4402 95.8658 111.45 210 223 255
214.858 30.4498 118.627 180 204 255
129.374 85.8471 105.201 238 239 255
61.346 44.9169 100.454 193 212 255
122.99 112.168 119.62 241 241 255
215.459 32.9374 113.154 191 211 255
93.6463 173.295 111.107 200 217 255
91.9902 174.043 110.007 255 253 249
118.247 161.336 122.942 217 227 255
93.6998 173.267 111.127 255 212 178
167.894 123.453 109.591 210 223 255
84.0171 156.311 107.418 200 217 255
101.578 143.731 101.547 255 217 187
120.493 124.508 111.248 255 245 235
181.033 15.6512 117.311 200 217 255
94.2653 173.087 111.15 204 219 255
87.195 41.4646 116.727 217 227 255
116.207 98.5672 109.683 239 240 255
111.746 82.7939 113.307 255 219 191
115.487 118.757 110.231 232 236 255
91.9909 70.6903 115.213 189 210 255
163.642 48.5576 111.792 190 210 255
201.949 135.082 47.3999 194 213 255
163.632 88.1553 95.8825 204 219 255
83.1508 39.1842 112.023 240 241 255
76.4791 177.706 117.808 251 247 255
103.034 92.3614 123.802 220 229 255
107.983 96.2079 101.417 255 234 217
95.8118 192.968 105.598 219 228 255
131.239 71.7432 110.208 215 226 255
124.864 114.139 106.938 255 243 233
115.165 95.1058 110.446 255 241 229
93.6431 173.297 111.106 184 207 255
35.5287 159.428 109.666 197 215 255
118.38 118.105 109.699 255 229 207
78.1389 119.157 109.923 235 237 255
113.675 99.7727 97.5338 255 206 167
4.08913 181.507 107.958 183 206 255
119.447 141.567 109.36 224 231 255
123.669 143.18 102.868 192 212 255
102.231 184.634 109.653 210 223 255
107.052 167.139 136.878 215 226 255
119.882 107.055 111.831 226 232 255
71.0803 149.936 128.092 197 215 255
190.206 164.572 119.576 207 221 255
131.847 115.134 110.115 208 221 255
88.5516 135.06 111.714 211 223 255
97.9018 153.007 112.771 190 211 255
212.663 80.443 112.106 206 221 255
120.734 111.41 95.3675 255 212 179
107.336 120.708 107.525 255 243 232
88.4322 111.345 106.553 229 234 255
101.801 151.933 104.952 223 230 255
95.8975 147.699 102.378 196 214 255
105.772 103.089 110.91 255 206 166
109.958 103.77 104.41 209 222 255
94.3176 118.463 140 255 215 184
155.83 102.133 98.37 199 216 255
75.659 70.7018 107.204 207 221 255
16.878 65.3282 130.16 198 216 255
121.403 136.555 102.914 255 253 249
53.8154 134.84 98.2435 193 213 255
80.8776 150.849 114.86 206 220 255
93.6205 173.307 111.099 199 216 255
160.707 145.475 107.521 255 251 246
124.304 165.861 113.672 231 235 255
128.284 85.8806 119.915 222 230 255
93.7667 173.2 111.166 208 222 255
183.635 116.924 106.933 240 241 255
137.01 46.559 111.349 247 244 255
137.047 155.771 113.733 222 230 255
93.7432 173.234 111.15 218 228 255
62.8395 123.399 113.586 255 252 246
107.022 104.395 120.663 190 211 255
111.9 113.115 111.54 255 171 97
93.7286 173.248 111.141 255 201 158
93.6494 173.293 111.108 241 241 255
136.303 74.9739 110.981 227 233 255
107.843 117.613 121.369 228 234 255
92.8552 152.005 112.406 188 209 255
119.202 120.152 105.279 214 225 255
124.227 83.0504 103.618 243 242 255
86.7834 29.1513 106.035 204 219 255
209.424 21.6286 108.855 185 208 255
48.8983 103.165 110.696 241 241 255
65.8793 126.913 88.9588 255 251 246
111.195 121.125 106.214 191 211 255
158.699 100.772 116.474 193 213 255
128.39 143.215 110.298 200 217 255
47.631 168.057 108.571 197 215 255
94.27 173.011 111.345 197 215 255
90.4645 143.027 102.504 204 219 255
66.4662 128.584 106.136 217 227 255
67.3652 82.7848 119.692 190 211 255
117.441 85.8711 112.468 202 218 255
93.6611 173.287 111.112 201 217 255
93.6531 173.292 111.109 217 227 255
112.217 102.021 104.453 195 214 255
100.238 41.525 109.297 228 234 255
141.284 21.7048 93.0143 194 213 255
123.203 131.034 96.9211 221 230 255
103.57 67.886 115.918 216 227 255
173.277 77.082 108.787 195 214 255
45.0678 213.523 107.666 189 210 255
102.47 188.959 108.027 219 228 255
134.044 10.8733 110.883 193 213 255
63.4732 108.974 114.594 181 205 255
91.6792 104.531 106.858 202 218 255
110.203 49.39 114.988 197 215 255
132.724 114.604 116.317 225 232 255
63.3772 81.8088 131.833 191 211 255
102.537 151.452 103.989 255 187 130
42.0459 115.27 110.961 203 219 255
109.376 135.381 107.611 255 244 234
110.959 117.825 109.881 228 233 255
112.15 99.9128 121.263 217 227 255
94.1815 160.984 123.354 202 218 255
107.191 113.385 127.194 255 211 176
118.363 125.52 116.908 254 249 255
148.459 69.6966 128.818 202 218 255
111.778 106.67 93.3449 218 228 255
167.94 112.344 44.7631 197 215 255
133.394 195.795 122.263 197 215 255
68.183 93.1127 94.9352 188 209 255
94.1908 172.98 111.355 221 230 255
93.7335 173.245 111.142 255 223 197
169.459 136.812 120.824 190 210 255
116.651 56.4492 118.161 226 232 255
93.6359 173.3 111.104 211 223 255
122.669 127.24 113.544 255 254 250
162.994 92.0519 119.209 205 220 255
100.028 102.252 120.655 204 219 255
105.837 123.559 112.294 221 229 255
107.523 111.041 110.764 201 218 255
150.036 98.6113 128.403 255 223 198
154.493 119.559 137.452 201 218 255
115.354 116.725 133.684 255 90 0
129.853 124.29 89.7627 201 217 255
114.929 130.329 104.891 241 241 255
135.382 118.974 122.888 242 241 255
69.0286 76.1168 134.43 210 223 255
163.495 112.273 133.353 207 221 255
93.2101 96.2761 116.567 226 232 255
159.003 107.317 108.336 204 219 255
106.387 104.568 118.5 255 232 214
42.695 78.5271 96.7395 196 215 255
93.656 173.29 111.11 202 218 255
114.694 123.57 106.396 255 238 223
38.887 53.5991 85.6832 194 213 255
93.6985 173.266 111.127 210 223 255
93.6711 173.282 111.116 212 224 255
136.891 94.8266 106.302 205 220 255
93.6718 173.289 111.023 229 234 255
1.41974 80.1507 115.912 186 208 255
106.415 117.2 117.612 201 217 255
71.5227 115.954 108.228 252 247 255
119.278 130.195 99.3245 255 233 215
136.547 58.549 116.825 211 224 255
132.034 87.4933 114.989 209 222 255
12.4084 173.194 112.688 187 209 255
126.872 22.4125 118.463 212 224 255
121.195 141.902 111.486 193 212 255
58.0464 125.283 129.763 230 235 255
124.368 144.917 108.036 207 221 255
40.4468 136.19 114.996 223 231 255
96.0872 167.938 112.053 234 237 255
102.396 98.7178 109.938 254 248 255
157.838 130.982 109.187 238 240 255
103.548 167.247 112.521 210 223 255
101.761 118.64 103.023 255 176 108
93.7056 173.263 111.13 187 209 255
114.416 107.186 113.12 222 230 255
94.2439 143.207 111.254 255 213 180
106.907 139.932 106.897 255 228 207
93.2291 22.3962 104.626 205 220 255
103.218 151.152 101.53 255 242 230
108.952 148.453 115.852 205 220 255
113.428 117.371 135.323 255 247 239
100.118 151.824 111.008 191 211 255
222.127 44.6046 107.138 204 219 255
93.6452 173.296 111.107 184 207 255
181.007 35.1887 112.141 202 218 255
98.7902 116.344 112.972 201 217 255
102.408 186.252 107.525 213 225 255
104.621 118.229 114.652 255 243 231
132.372 130.348 102.466 209 222 255
167.399 114.093 97.3814 255 216 185
53.1494 118.108 127.654 194 213 255
94.1744 137.239 142.652 212 224 255
60.8563 87.9543 101.858 183 206 255
158.933 49.1445 111.588 255 245 236
84.6405 159.274 103.035 216 226 255
91.645 174.661 110.448 203 219 255
93.718 173.255 111.136 255 241 229
93.7046 172.872 111.271 255 90 0
119.903 104.161 107.935 255 242 231
165.155 88.8462 110.522 218 228 255
93.7201 129.954 112.866 205 220 255
108.093 109.875 128.206 216 227 255
137.863 153.409 95.2579 200 217 255
129.835 79.8244 66.9812 219 228 255
125.379 72.8523 128.67 200 217 255
125.815 137.777 118.233 226 232 255
89.0702 130.929 114.032 221 229 255
113.725 83.0753 115.92 255 253 248
139.646 69.9965 122.128 210 223 255
114.465 118.679 97.6366 195 214 255
58.9815 99.4841 111.383 193 212 255
132.41 110.094 116.981 226 233 255
44.007 80.136 103.515 189 210 255
115.113 148.371 103.164 198 216 255
134.252 210.903 178.463 203 219 255
198.647 22.0864 104.667 197 215 255
100.436 130.824 124.139 233 237 255
119.266 114.047 118.221 255 222 195
123.088 89.0996 103.9 205 220 255
93.6471 173.294 111.107 234 237 255
54.2478 99.9592 140.39 197 215 255
115.952 114.809 111.979 255 208 171
161.377 103.987 102.865 192 212 255
168.09 83.8235 109.647 199 216 255
111.751 91.235 109.539 221 229 255
116.143 137.477 107.403 255 226 203
103.411 71.5749 107.949 212 224 255
100.545 155.107 112.904 216 226 255
116.748 133.59 108.493 250 246 255
93.6578 173.289 111.111 223 231 255
59.7199 81.1279 114.118 190 211 255
67.191 127.147 125.729 220 229 255
106.978 12.8943 95.1542 197 215 255
46.5807 207.657 110.444 195 214 255
132.861 117.461 117.087 226 232 255
103.263 103.835 109.481 255 241 229
63.0282 17.134 119.813 199 216 255
104.333 127.837 114.397 206 220 255
123.341 77.3308 131.57 255 239 225
103.695 130.445 122.226 202 218 255
86.5349 193.07 102.87 245 243 255
107.311 108.624 129.545 223 231 255
104.595 104.767 124.513 210 223 255
45.2593 48.7774 83.6491 186 208 255
133.16 186.131 120.681 181 205 255
67.5719 115.431 111.935 191 212 255
165.392 20.8609 107.928 185 208 255
82.3429 189.338 95.6409 207 221 255
93.6542 173.291 111.11 222 230 255
130.586 124.91 125.036 221 230 255
137.335 168.073 109.391 186 208 255
87.8394 191.121 116.26 251 246 255
214.527 187.393 92.908 217 227 255
69.4338 55.2245 113.592 201 217 255
112.436 159.519 104.934 197 215 255
17.042 99.4462 78.5825 198 215 255
187.267 11.8319 135.46 187 209 255
153.245 104.853 122.597 196 215 255
73.4131 172.59 107.157 235 238 255
79.2173 75.0431 165.417 255 218 188
32.3348 171.103 114.824 255 249 242
94.7925 151.879 111.988 199 216 255
155.141 137.768 111.975 217 227 255
104.328 96.4805 111.812 228 234 255
126.094 202.84 97.2405 188 209 255
131.286 143.977 108.469 189 210 255
77.3373 150.111 114.284 205 220 255
99.0015 49.7901 113.227 238 239 255
102.399 145.029 101.001 255 161 76
107.342 97.7343 123.345 255 184 123
169.732 176.508 95.8872 184 207 255
78.0656 122.46 114.309 210 223 255
65.8997 105.498 113.042 197 215 255
103.547 166.24 66.0285 221 229 255
105.8 102.263 104.928 199 216 255
75.0327 156.447 130.377 241 241 255
93.6518 173.292 111.109 203 219 255
93.7557 114.759 128.559 201 217 255
110.446 111.221 106.821 205 220 255
100.038 68.6769 117.795 200 217 255
147.168 88.408 112.976 234 237 255
117.04 30.908 111.551 210 223 255
89.8501 17.5088 105.15 214 225 255
115.987 111.353 116.107 255 228 206
124.692 89.8701 133.291 218 228 255
115.348 127.32 114.116 255 195 147
93.6548 173.291 111.11 191 211 255
162.736 93.7381 113.954 219 228 255
221.345 141.076 105.947 185 207 255
84.4476 33.8501 93.1616 206 221 255
100.23 131.488 114.269 223 231 255
128.377 114.939 110.494 221 229 255
126.746 125.775 108.441 255 246 237
121.488 85.4413 108.878 255 242 230
110.42 130.925 111.181 205 220 255
111.714 132.092 105.628 222 230 255
93.6632 173.286 111.113 199 216 255
107.085 107.772 111.11 255 149 47
71.1961 73.6782 111.946 254 248 255
106.207 107.883 101.362 255 213 180
97.3225 38.7115 105.967 194 213 255
111.972 123.76 131.494 255 233 214
71.8006 15.1869 96.1804 185 208 255
108.134 162.443 108.624 255 222 195
125.401 8.47668 119.857 193 212 255
95.1289 4.61818 118.821 199 216 255
83.2998 37.7031 102.707 195 214 255
7.33426 126.851 112.597 206 221 255
65.5297 80.0201 111 212 224 255
124.59 77.4811 122.936 202 218 255
75.0405 41.904 98.1054 202 218 255
115.155 85.42 127.365 253 248 255
130.958 170.494 105.935 231 235 255
64.2794 167.32 116.021 255 211 176
138.919 73.1646 141.753 213 225 255
38.8852 94.5902 112.199 209 222 255
105.382 115.97 120.735 255 240 227
172.97 219.379 133.968 183 206 255
93.6547 173.29 111.11 194 213 255
168.807 53.0806 115.965 191 211 255
127.103 113.051 107.959 210 223 255
124.669 115.955 106.381 255 242 230
93.6807 173.277 111.12 212 224 255
73.664 52.0974 93.3906 255 217 187
76.3698 188.8 112.402 202 218 255
106.873 104.593 112.879 255 223 197
111.532 82.2566 110.329 221 229 255
90.2997 143.338 114.474 192 212 255
109.499 113.611 119.215 255 127 0
102.627 96.143 86.7464 197 215 255
99.5973 29.3575 112.15 204 219 255
158.407 122.356 118.775 200 217 255
13.5673 174.857 110.287 181 205 255
24.1507 124.833 112.962 189 210 255
117.418 119.099 112.192 255 238 223
115.059 93.6393 123.203 193 213 255
25.583 157.909 109.785 188 209 255
31.5029 95.6027 67.1352 255 253 249
112.156 142.191 106.931 210 223 255
93.6528 173.292 111.109 189 210 255
113.066 73.9896 114.427 203 219 255
141.226 95.3833 118.67 242 241 255
29.0565 82.344 116.662 178 203 255
130.963 87.9083 104.797 217 227 255
121.406 151.291 102.85 188 210 255
110.46 135.589 99.6285 255 178 113
130.159 123.523 123.84 255 249 241
83.2105 23.8039 112.503 198 216 255
75.336 184.456 92.6952 255 205 164
106.638 100.825 115.405 221 229 255
93.6553 173.29 111.11 197 215 255
92.8667 205.607 118.445 226 232 255
144.502 99.8131 108.655 189 210 255
94.6392 142.552 102.059 207 221 255
61.3145 189.612 110.762 206 221 255
188.579 105.534 135.339 255 220 193
94.1339 184.7 99.9897 215 226 255
138.485 84.2277 118.135 255 253 249
98.6106 95.2858 109.197 210 223 255
128.953 123.592 121.936 255 244 233
81.2334 132.653 126.719 199 216 255
93.6705 173.282 111.116 255 238 224
131.781 171.594 113.381 188 209 255
222.628 12.5962 67.5066 255 254 251
55.9283 128.852 110.089 255 253 248
112.724 135.786 114.59 252 247 255
65.0458 128.567 164.149 206 220 255
101.045 73.4312 115.655 200 217 255
122.718 68.9188 111.55 200 217 255
115.158 53.9451 119.934 188 209 255
93.2453 173.482 111.064 207 221 255
93.6514 173.292 111.109 255 247 239
169.285 5.37854 109.36 197 215 255
108.314 104.88 111.002 255 0 0
77.7855 84.3642 109.046 228 234 255
32.6241 213.587 108.931 188 209 255
12.7555 195.436 105.121 191 211 255
101.644 133.054 106.15 228 234 255
74.6623 85.892 109.457 232 236 255
79.3798 95.3666 112.185 184 207 255
126.819 106.474 109.936 230 235 255
123.495 115.568 125.022 255 242 230
143.485 96.227 120.023 195 214 255
93.2562 223.762 123.612 197 215 255
108.356 107.43 116.369 227 233 255
92.025 174.506 109.656 246 244 255
117.343 141.102 106.156 255 217 186
93.7628 173.229 111.155 255 249 242
118.843 129.109 120.164 255 196 147
112.935 83.1726 111.944 223 231 255
114.5 90.6066 127.15 211 224 255
160.357 142.082 109.636 255 249 241
21.6767 165.785 112.193 215 226 255
91.4461 174.055 108.781 203 218 255
68.2973 81.9097 113.274 255 255 251
117.117 128.463 114.756 255 242 230
162.027 103.299 67.8615 215 226 255
93.6388 173.299 111.105 218 228 255
93.7162 173.256 111.137 209 222 255
2.7774 95.3008 109.534 210 223 255
115.243 159.624 113.682 190 210 255
83.6449 185.223 106.811 203 219 255
94.4775 63.2976 114.342 221 230 255
142.923 96.3555 116.958 199 216 255
114.93 113.166 98.1059 255 252 248
107.08 94.1643 118.835 216 227 255
114.431 120.481 97.5904 255 209 172
99.1412 121.226 103.111 255 215 184
122.864 120.49 104.379 255 228 206
130.117 115.222 125.754 222 230 255
96.2411 169.906 107.345 212 224 255
107.998 97.498 121.609 212 224 255
93.6479 173.294 111.108 208 222 255
155.011 119.633 106.878 255 211 177
110.339 101.387 117.916 255 219 190
93.5508 173.361 111.071 235 238 255
189.104 145.42 117.694 180 204 255
93.6517 173.292 111.109 208 222 255
132.534 93.5163 105.148 222 230 255
49.3067 41.4174 125.123 207 221 255
129.856 190.849 88.7422 182 205 255
118.431 129.286 114.643 229 234 255
56.2442 194.885 113.616 212 224 255
62.8825 77.666 101.113 216 226 255
140.37 101.569 113.357 204 219 255
78.6406 147.39 113.604 219 228 255
125.956 152.397 105.968 206 220 255
88.34 74.2684 31.1631 194 213 255
138.378 123.28 110.966 213 225 255
103.855 105.145 110.611 225 232 255
141.99 92.6984 117.812 197 215 255
129.05 135.894 117.169 255 234 217
93.6019 173.316 111.093 210 223 255
7.01054 195.924 70.9113 206 221 255
87.0347 81.052 111.695 224 231 255
72.4482 162.509 114.907 204 219 255
112.936 120.075 109.544 205 220 255
120.748 85.1818 107.907 222 230 255
91.624 137.682 110.033 230 235 255
115.8 127.371 105.458 255 245 236
93.6735 173.28 111.117 222 230 255
115.922 101.932 103.338 255 246 236
93.6762 173.279 111.118 244 243 255
134.974 64.6467 114.006 202 218 255
111.689 144.555 105.721 255 220 193
138.416 201.717 117.511 191 211 255
148.776 103.941 112.66 241 241 255
115.365 71.0812 118.511 183 206 255
147.22 89.3464 136.977 197 215 255
96.2249 162.743 111.215 227 233 255
115 89.2918 86.1237 255 221 194
119.259 132.692 98.7074 255 223 197
30.4484 45.0984 114.806 183 206 255
101.118 84.9605 114.254 205 220 255
116.56 158.631 121.547 239 240 255
127.062 120.675 117.299 255 254 250
119.27 90.9054 135.973 224 231 255
93.8942 173.22 111.396 216 226 255
109.153 145.559 116.702 189 210 255
122.079 156.004 109.4 196 215 255
111.521 113.807 121.602 223 231 255
116.277 89.6053 111.32 255 244 234
180.5 14.9823 105.761 229 234 255
114.405 98.7745 119.001 255 239 225
169.182 135.54 111.597 255 233 214
122.873 204.331 40.9936 255 254 250
113.521 114.881 112.67 219 228 255
96.9023 99.2097 117.667 223 231 255
93.605 173.32 111.094 255 246 238
93.6507 173.293 111.109 198 215 255
113.944 79.3433 126.763 207 221 255
101.23 86.404 110.332 255 249 242
112.059 106.193 109.163 255 254 250
121.32 106.451 115.448 210 223 255
126.223 81.9029 112.067 201 217 255
178.835 92.9147 127.199 255 250 255
111.718 202.667 127.781 195 214 255
112.713 87.6446 120.946 203 219 255
62.6829 106.687 100.138 186 208 255
139.347 160.985 114.187 182 206 255
93.6517 173.292 111.109 218 228 255
116.399 99.4692 119.983 229 234 255
103.33 175.34 112.604 184 207 255
151.688 102.531 101.25 195 214 255
101.986 165.772 108.524 241 241 255
93.7126 173.258 111.134 255 242 230
93.6513 173.292 111.109 194 213 255
59.5184 117.824 115.38 221 230 255
43.9125 150.518 113.211 195 214 255
0.546072 111.143 116.884 179 203 255
58.0223 51.7255 94.304 200 217 255
148.154 85.6883 107.235 207 221 255
93.653 173.291 111.109 222 230 255
93.5936 173.314 111.094 202 218 255
121.102 106.807 120.583 255 251 246
134.673 107.623 115.572 210 223 255
131.341 124.443 114.523 223 231 255
118.99 152.496 99.0241 205 220 255
131.86 114.901 113.012 255 246 238
137.399 2.73392 109.767 209 222 255
88.9444 167.415 114.949 201 217 255
93.6423 173.297 111.106 216 226 255
150.165 144.228 103.328 190 211 255
14.0237 56.4615 107.769 185 207 255
120.286 105.234 118.034 255 170 96
95.9912 173.592 114.747 250 246 255
49.3172 68.6658 100.852 237 239 255
120.481 91.5311 115.126 255 250 255
101.185 134.715 103.088 237 239 255
93.6683 173.284 111.115 198 216 255
182.994 152.092 101.3 236 238 255
110.305 107.768 114.074 211 223 255
133.976 31.3008 111.63 211 223 255
79.5058 54.8363 111.349 200 217 255
115.255 156.375 110.792 217 227 255
105.583 171.682 112.949 201 217 255
90.0563 133.363 113.77 194 213 255
93.476 173.331 111.261 213 225 255
137.196 89.4714 109.414 255 251 246
93.6478 173.294 111.108 201 218 255
93.6237 173.306 111.1 205 220 255
112.778 102.53 106.85 200 217 255
127.496 114.64 116.056 219 228 255
114.485 103.675 121.098 255 238 223
94.9346 133.014 116.16 214 225 255
189.942 70.5955 117.205 176 202 255
137.336 117.745 119.249 202 218 255
69.4187 124.403 110.898 222 230 255
51.7299 70.5107 135.784 197 215 255
51.1938 72.8373 109.951 189 210 255
139.874 161.934 113.465 201 217 255
78.9062 162.555 109.399 255 243 232
191.931 85.4091 106.791 186 208 255
143.892 76.6972 85.4379 210 223 255
58.2298 101.709 129.397 202 218 255
71.83 128.233 112.966 203 218 255
102.03 104.153 106.202 209 222 255
93.6683 173.283 111.115 203 219 255
93.696 173.268 111.126 196 215 255
93.6996 173.266 111.128 209 222 255
114.443 167.717 107.149 208 222 255
125.301 136.129 104.836 255 233 215
79.4445 148.385 114.444 245 243 255
78.224 129.822 149.833 189 210 255
119.828 120.649 108.608 220 229 255
100.45 28.8722 98.9918 192 212 255
92.5619 174.411 110.243 191 211 255
193.187 53.9699 113.531 197 215 255
93.8446 173.164 111.265 204 219 255
114.56 100.903 106.996 255 228 206
35.3607 52.0136 158.987 195 214 255
124.16 87.7985 107.766 222 230 255
105.916 85.1185 117.015 218 228 255
116.016 125.689 110.436 231 235 255
114.343 97.8438 115.09 255 253 249
74.5022 65.4076 111.192 188 210 255
145.941 99.4774 132.548 190 211 255
90.3991 56.3989 113.39 194 213 255
123.249 84.3929 103.227 255 246 237
118.286 112.776 90.8166 226 232 255
93.6538 173.291 111.11 255 247 238
110.541 93.0601 113.363 225 232 255
65.4673 190.387 111.572 199 216 255
97.8505 33.2148 102.935 190 211 255
75.4686 164.515 111.423 194 213 255
103.001 133.73 104.201 204 219 255
111.947 89.1637 99.5331 226 232 255
99.9899 128.1 130.396 255 208 170
73.352 161.572 95.0709 224 231 255
76.7945 141.368 101.989 217 227 255
73.2038 140.151 115.29 220 229 255
90.2819 70.9537 113.226 229 234 255
83.0955 168.224 117.27 216 227 255
139.951 92.5087 110.805 217 227 255
66.9375 70.5121 101.453 187 209 255
110.743 141.808 106.631 255 192 141
93.7505 173.232 111.15 210 223 255
125.088 125.572 107.73 234 237 255
73.7198 151.579 116.593 200 217 255
147.489 118.153 108.657 229 234 255
108.979 106.212 97.8714 255 252 247
73.6087 66.3027 111.719 255 254 251
44.1075 169.786 111.206 209 222 255
176.972 49.2262 110.184 255 238 223
112.343 82.5135 112.075 201 217 255
100.583 113.517 104.067 219 228 255
126.204 78.3507 110.327 215 226 255
117.043 127.312 116.793 207 221 255
93.6724 173.281 111.117 199 216 255
63.1112 92.9345 114.387 183 206 255
93.5252 173.289 111.064 203 218 255
93.7442 173.243 111.236 255 253 249
93.618 173.311 111.106 255 249 255
99.9226 121.079 113.851 195 214 255
93.6375 173.299 111.104 197 215 255
132.636 128.424 112.825 255 245 235
108.554 145.049 105.557 212 224 255
122.686 153.085 131.623 213 225 255
39.5364 120.605 75.4816 213 225 255
87.8085 89.5084 117.539 197 215 255
70.1331 99.7617 109.213 203 219 255
119.119 119.981 109.957 255 233 215
93.5838 173.323 111.172 200 217 255
154.993 144.371 119.391 195 214 255
41.7544 93.7564 107.828 255 252 246
123.88 134.629 99.9792 255 253 248
95.9901 101.859 110.95 233 236 255
51.0984 29.0344 140.754 192 212 255
63.0618 105.684 112.418 189 210 255
160.897 146.34 110.659 255 126 0
194.871 81.5377 110.22 211 223 255
143.323 94.8674 110.293 193 212 255
140.791 96.7711 119.091 201 217 255
112.905 116.501 109.415 255 247 239
43.5931 117.464 114.404 185 207 255
171.387 99.0009 133.358 255 250 255
39.4569 60.3693 114.248 180 204 255
133.235 171.271 111.61 214 226 255
70.091 155.65 132.453 228 233 255
164.726 143.342 108.969 197 215 255
82.2629 126.368 108.83 248 245 255
107.978 38.9207 116.921 190 210 255
113.897 105.004 126.801 236 238 255
108.8 100.155 102.934 255 187 130
127.504 86.2319 111.65 194 213 255
107.658 141.817 114.931 255 225 201
86.3948 171.651 105.222 217 227 255
84.0711 26.0163 87.5134 219 228 255
104.652 152.888 105.852 234 237 255
109.118 108.254 118.884 238 239 255
99.4814 177.028 125.33 198 215 255
104.564 206.543 125.51 197 215 255
108.939 120.508 117.736 209 223 255
135.825 88.5519 126.209 207 221 255
111.612 130.524 113.55 255 249 255
101.584 185.477 107.274 198 216 255
97.9604 174.511 110.243 203 218 255
163.216 29.4663 116.457 192 212 255
54.7448 104.304 114.813 215 226 255
93.6738 173.281 111.117 217 227 255
108.752 92.2998 123.291 212 224 255
138.975 119.699 111.062 222 230 255
112.776 137.003 102.319 255 221 194
56.1848 205.89 111.162 181 205 255
118.986 164.798 106.21 204 219 255
94.0514 189.306 111.226 202 218 255
88.1089 127.779 112.837 204 219 255
123.014 123.563 115.913 209 222 255
55.3006 74.4821 112.959 195 214 255
113.986 127.693 114.216 189 210 255
93.6568 173.289 111.111 186 208 255
85.9376 169.465 110.179 255 249 255
209.012 88.7123 109.41 180 204 255
118.757 103.007 103.013 230 235 255
93.6856 173.274 111.122 189 210 255
75.6833 193.419 111.852 184 207 255
113.218 123.13 112.581 197 215 255
167.472 173.972 98.6946 191 211 255
98.9169 108.01 111.366 214 225 255
109.911 77.6899 122.917 210 223 255
102.924 124.369 115.369 211 223 255
44.5545 88.5765 106.981 213 225 255
174.528 24.415 109.144 205 220 255
131.323 23.8561 111.98 191 211 255
89.5989 192.466 94.4799 200 217 255
63.3482 41.7894 102.323 200 217 255
93.7826 173.212 111.164 214 225 255
150.922 107.15 97.4164 206 220 255
116.85 127.606 123.803 246 244 255
108.655 120.51 103.055 199 216 255
76.2275 142.559 99.2215 191 211 255
119.692 178.584 113.162 199 216 255
184.86 1.19322 117.229 192 212 255
117.96 139.993 108.616 207 221 255
90.4777 173.01 108.98 197 215 255
112.311 123.009 108.236 249 246 255
127.075 185.748 116.263 198 215 255
129.33 125.534 115.621 217 227 255
93.6451 173.295 111.107 191 211 255
58.8772 85.0027 113.757 192 212 255
106.096 178.818 108.125 219 228 255
128.225 143.696 122.455 255 247 239
94.2029 173.059 111.379 196 215 255
61.8611 95.4791 124.816 197 215 255
93.651 173.292 111.109 217 227 255
127.86 18.1641 109.232 211 223 255
101.364 137.252 111.818 204 219 255
210.497 7.52749 113.659 191 211 255
93.6602 173.288 111.112 185 208 255
112.797 133.252 101.283 255 204 162
77.6746 165.017 131.944 255 250 255
94.1033 173.181 111.474 183 206 255
93.6759 173.279 111.118 255 225 201
124.763 172.408 121.693 189 210 255
67.0075 51.1866 74.3519 231 235 255
93.6249 173.305 111.1 255 225 201
170.377 103.972 113.098 201 217 255
114.328 104.206 126.066 222 230 255
41.4088 192.621 107.711 200 217 255
108.582 142.241 121.375 242 241 255
76.0682 65.9213 101.576 206 220 255
95.0425 173.761 112.452 255 232 214
105.951 178.356 108.457 255 242 231
105.478 101.254 114.969 255 218 188
112.686 87.019 113.337 224 231 255
118.635 105.235 106.54 234 237 255
